-0.595063 -0.261688 1.792979 -0.767829 -0.523164 -0.214334 
-0.070744 1.322625 0.183873 -0.548392 0.695540 0.444550 
-0.634695 -0.325936 1.170243 0.952499 0.166778 -0.032157 
-0.806566 -0.007666 2.039274 0.705131 0.417602 0.493796 
-0.934484 0.235591 2.866827 -0.908657 -0.374783 0.165624 
0.351634 -1.035538 0.177259 -0.512755 -0.068063 0.800323 
0.795989 1.207620 1.613472 0.895919 0.196614 0.094566 
-0.962259 0.419565 3.322016 0.895297 0.409554 -0.145829 
0.440504 0.181799 0.249915 -0.605262 -0.205943 0.727400 
0.183071 0.323653 -0.258410 0.534113 0.012681 -0.836167 
0.774909 -0.138926 1.900440 -0.834715 0.461054 0.237161 
-0.905080 0.290605 3.285514 -0.877882 -0.450892 0.157711 
-0.926957 0.269704 3.055512 -0.895515 -0.407634 0.161658 
-0.451174 -0.445122 1.711687 -0.792011 -0.534972 -0.008285 
-0.188394 -0.676416 0.115933 -0.106271 -0.193103 0.903403 
0.918628 0.740323 1.942442 -0.868689 -0.217878 0.333638 
-0.118796 0.023522 -0.288055 -0.492122 -0.075200 -0.854209 
-0.178785 0.445529 -0.250005 -0.500734 0.076171 -0.850592 
0.342835 -1.065927 0.112492 0.630396 0.043700 -0.708574 
-0.870348 0.984525 1.369702 0.602633 0.620478 -0.302551 
0.276274 0.250040 -0.211029 0.577868 -0.048594 -0.810145 
-0.935531 0.999873 1.628153 0.862541 -0.195156 0.430750 
-0.666596 0.279326 0.597932 -0.970138 -0.019117 -0.224242 
0.831913 -0.033164 3.025126 0.906106 -0.302677 0.266206 
-0.903091 0.869724 1.492882 -0.885958 -0.457564 -0.040925 
1.055797 0.473442 2.270881 0.908287 -0.218040 -0.339904 
-1.200080 0.828834 2.847669 0.957590 0.227132 -0.018517 
-0.319965 0.743034 -0.102957 -0.643631 0.561571 -0.479840 
-0.182114 0.774491 -0.171380 -0.512127 0.467372 -0.693925 
0.678622 0.481013 1.182362 -0.883455 -0.164347 0.363318 
-0.484751 0.256186 0.321054 0.655903 -0.242234 0.668762 
0.639715 0.059440 0.958217 -0.931698 -0.044610 0.293261 
-0.440703 0.658530 0.272151 0.487974 0.399631 0.544582 
-0.173823 -1.387095 0.124099 0.694547 -0.555330 0.054989 
1.067433 0.370268 2.666166 -0.952354 0.235231 -0.017414 
-0.938524 0.209355 2.733308 -0.917792 -0.351862 0.168520 
0.454354 0.300361 0.369288 -0.723128 -0.197509 0.602449 
-0.581323 -0.609904 1.214959 -0.929986 -0.165498 0.269573 
-0.576185 -0.330568 1.907213 -0.772790 -0.529198 -0.266652 
-0.757916 -0.004544 3.059678 -0.873758 -0.451089 0.173362 
0.635955 -0.394077 2.131542 -0.752895 0.552207 0.240367 
0.380600 0.453845 0.288274 -0.836087 0.092694 0.477298 
0.189713 0.581515 0.360181 0.340776 -0.083273 0.925847 
0.354477 -0.421702 -0.075341 0.815139 -0.163801 -0.533638 
0.931396 0.009450 2.675165 -0.928031 0.264570 -0.179281 
-0.632953 -0.337379 2.130528 -0.864845 -0.478772 -0.072542 
-1.204751 0.830012 2.525912 -0.965255 -0.220210 -0.134380 
-0.944504 0.945165 1.555332 -0.899043 -0.356039 0.015752 
0.485019 0.103748 0.134448 0.893695 -0.067804 -0.427643 
0.008551 -0.729603 0.137401 0.462436 -0.251879 0.847011 
-1.126912 0.992120 2.157825 -0.964924 -0.041306 -0.149543 
0.350313 -0.237859 -0.104496 0.720668 -0.175754 -0.621605 
0.817285 0.150642 3.258688 0.899963 -0.256326 0.347443 
0.903145 0.476109 1.791763 0.970810 -0.116726 0.003521 
-0.324493 0.774331 0.245784 -0.788683 0.287865 0.494316 
0.056865 0.705512 0.360131 0.069054 0.047755 0.990875 
-0.221949 1.124216 0.130366 -0.863325 0.463888 -0.159329 
0.770604 0.466276 1.539894 -0.899160 -0.068131 0.269824 
-1.192575 0.749439 2.889413 -0.936321 -0.336046 0.064582 
0.858417 0.046631 1.686901 0.861546 -0.266067 -0.356107 
0.675177 -0.318212 1.168891 -0.965012 0.121784 0.073447 
-0.669578 -0.253161 0.859966 -0.968382 -0.135889 -0.107077 
-0.641075 -0.642233 1.027792 0.975694 0.026036 -0.014116 
0.391824 0.308573 0.221565 -0.282425 -0.221650 0.811271 
-0.058592 1.227183 0.025339 -0.534976 0.357314 -0.754465 
0.007311 -0.118178 -0.313629 0.368357 -0.195572 -0.880412 
0.905399 0.103841 1.842990 0.952562 -0.212020 0.004019 
0.626165 -0.385541 0.979200 -0.968026 0.060207 0.076072 
-0.654771 -0.233480 1.265666 0.952604 0.203942 0.006730 
0.710507 0.440534 1.132187 0.972670 -0.210716 -0.074369 
-0.595374 0.440033 0.369284 -0.895669 0.299751 -0.263762 
0.556713 -0.211006 0.591521 -0.848313 -0.035673 0.384967 
-0.735451 -0.073393 1.838672 -0.767435 -0.490328 -0.379001 
-0.486524 0.001318 0.118420 -0.880525 -0.084781 -0.438627 
0.920214 0.429765 1.740573 0.978332 -0.106132 -0.087266 
-0.967504 1.192394 1.522753 -0.534111 -0.043660 -0.760745 
1.019861 0.805581 2.214340 0.995890 0.000883 -0.069564 
0.626986 -0.956784 0.703462 0.862517 0.238006 -0.320205 
0.713253 0.672106 1.339384 -0.869362 -0.236244 0.367787 
0.445426 0.268614 0.283700 -0.648032 -0.228724 0.694285 
1.073143 0.638817 2.904893 0.963444 -0.087451 0.224587 
1.056233 0.834292 2.382262 0.996831 0.029734 -0.056020 
-0.782540 0.790425 1.202407 0.928068 0.030994 0.300033 
0.550025 -0.822844 0.618645 0.847001 0.000737 -0.382714 
0.657292 0.635082 1.116620 -0.864486 -0.269495 0.415391 
0.849834 -0.185318 2.453496 -0.877207 0.437954 0.020223 
0.789758 0.730890 1.599760 -0.885404 -0.234765 0.272293 
-0.509866 0.554353 0.075373 -0.871522 0.264926 -0.313604 
0.796363 0.536258 1.506737 0.950923 -0.278819 -0.130043 
0.686579 -0.069231 1.024018 0.965619 -0.145007 -0.173972 
-0.755286 -0.085923 2.880186 -0.858458 -0.488195 0.088881 
-0.261737 1.028257 0.186409 -0.905799 0.366238 0.051903 
0.887582 0.574797 1.762462 0.961756 -0.161203 -0.015927 
0.948696 0.239059 1.799440 0.987523 -0.094544 -0.096184 
0.870785 0.913994 1.962416 -0.863067 -0.082342 0.361624 
-1.050682 0.796535 2.046427 -0.967027 -0.236644 -0.059679 
-0.203789 -0.572809 -0.103594 -0.003906 -0.394039 -0.899012 
0.626189 0.736770 0.929579 -0.954764 0.102810 0.166732 
-0.786056 0.531284 1.447255 0.928792 0.033611 0.244436 
-0.456242 -0.519218 1.939073 -0.794375 -0.542619 -0.158186 
-0.158738 -1.181898 0.075404 0.829450 -0.125468 0.378196 
-0.648560 -0.140717 1.540881 -0.921909 -0.355539 0.000765 
0.575090 -0.893564 0.676182 0.857541 0.034053 -0.355912 
0.823090 -0.168139 2.818214 0.874530 -0.449400 0.078433 
-0.563113 -0.325044 1.837988 -0.774101 -0.528050 -0.208646 
-0.970690 0.689024 1.881717 -0.869376 -0.380549 -0.220565 
-1.096535 0.829418 2.154665 -0.956554 -0.263887 -0.097409 
0.325730 0.676561 0.293579 0.650336 0.231684 0.707756 
-0.577345 -0.535364 1.360775 0.927399 0.209709 -0.249219 
0.729563 0.190924 1.348235 -0.920834 0.043954 0.254666 
0.557944 0.501636 0.651533 -0.952181 0.120636 0.216348 
0.834091 -0.209567 2.374865 -0.857170 0.470100 0.108395 
0.682462 -0.628329 0.878250 0.971011 0.073228 -0.190340 
-1.170874 0.698623 2.614600 -0.943789 -0.297648 -0.070915 
0.684275 -0.409462 1.281764 -0.965090 0.148653 -0.023851 
1.057982 0.236961 2.560952 0.861880 -0.462069 -0.183903 
-0.671894 -0.197612 1.346198 -0.942679 -0.262948 0.004324 
-0.373921 -0.596135 0.041292 0.290452 -0.033375 0.944850 
0.746859 0.144832 1.410526 -0.928195 0.085866 0.228347 
-0.060359 -0.149314 0.265534 -0.119035 -0.204418 0.969133 
-0.778806 -0.235920 2.412831 -0.886387 -0.459726 -0.024462 
0.083171 -0.395775 -0.243992 0.350604 -0.336731 -0.864526 
-0.721833 -0.179072 2.097671 0.697966 0.457494 0.450926 
-0.792216 0.209189 1.696046 0.971240 0.175899 -0.029787 
0.512564 -0.621451 1.398229 -0.850116 0.380258 -0.242546 
-0.414492 -0.838270 0.324574 -0.761595 -0.153462 -0.528105 
-0.518168 0.290723 0.125222 -0.886993 -0.026106 -0.432523 
-0.608302 -0.873815 0.876506 0.910988 -0.042373 0.184613 
-0.534042 0.504229 0.118661 -0.913832 0.228517 -0.275418 
-0.103836 0.620861 0.387890 -0.088522 0.220420 0.964602 
-0.508786 0.104295 0.141157 -0.884992 -0.066698 -0.431626 
0.586965 0.460187 0.783826 -0.938109 0.299434 0.106065 
-0.602285 -0.910423 0.804605 -0.916504 0.095829 -0.185360 
0.658521 -0.312627 1.753920 0.758311 -0.562134 -0.129629 
0.232529 -0.188623 -0.207977 0.513518 -0.178225 -0.828346 
-0.311206 -0.967740 0.095962 0.469956 0.025068 0.875624 
0.414101 -0.614776 1.906796 0.751099 -0.632790 -0.022309 
0.060042 -0.540718 -0.138617 0.134306 -0.445525 -0.870041 
-0.677223 -0.187930 1.209802 -0.951267 -0.231110 -0.046469 
1.067824 0.367597 2.534717 -0.946955 0.216532 0.104446 
0.851728 0.816645 1.697791 0.938862 -0.266807 -0.074020 
-0.224394 0.515253 0.330720 -0.265672 -0.101891 0.953147 
0.544479 0.293766 0.642114 -0.905770 0.289769 0.222414 
-0.594998 -0.741471 0.769768 -0.923159 -0.048777 -0.204430 
0.920862 0.592110 1.869732 0.949059 -0.115526 -0.183760 
-0.180187 0.000916 -0.251147 -0.511326 -0.100883 -0.840455 
0.684876 -0.439272 1.376749 0.943185 -0.228173 0.087676 
-0.102517 0.051212 0.308268 -0.217117 -0.218436 0.946310 
0.846470 -0.167138 2.609663 -0.888589 0.396312 -0.077448 
-0.624827 -0.340177 1.437452 0.935833 0.247550 -0.128404 
-0.122794 -0.942863 0.028984 0.212347 -0.262614 0.892489 
0.816184 1.062945 1.563250 0.684876 0.474006 -0.356653 
0.252510 -0.596287 -0.084783 -0.050672 -0.333427 -0.884867 
0.429739 -0.625293 0.321705 0.790606 -0.124673 -0.513208 
0.551723 0.578693 0.620404 0.943349 0.159053 -0.254561 
0.520533 -0.536527 2.163427 -0.781912 0.596505 0.114411 
0.679363 -0.776235 1.117947 -0.969494 -0.030280 -0.029832 
-0.312509 -0.432326 0.135713 -0.579332 -0.183520 0.784379 
0.796202 1.006524 1.707780 -0.907270 -0.147552 0.382594 
-0.433678 0.541433 -0.040048 -0.747012 0.194720 -0.521633 
-0.058757 -0.651354 -0.077048 -0.148781 -0.274209 -0.940022 
0.199874 0.461426 0.352978 0.306373 -0.107684 0.941030 
-0.475890 -0.287054 0.194460 -0.890973 -0.132029 -0.399060 
0.736501 -0.227209 1.339136 0.956074 -0.214577 -0.082475 
0.309494 -0.110607 -0.162064 0.573439 -0.173699 -0.780110 
-0.522163 -0.753696 0.592375 0.796734 0.008503 0.405073 
0.175106 -0.036646 0.275949 0.328038 -0.202975 0.910868 
-0.612657 0.562499 0.662460 0.914909 0.111411 0.341416 
-0.647246 -0.493241 0.955345 -0.968019 -0.093140 0.000942 
-0.348636 0.379944 -0.175357 -0.616732 -0.008319 -0.776487 
0.483231 -0.212621 0.328547 -0.605276 -0.077920 0.647645 
0.422388 -0.722408 0.345949 0.762104 -0.121589 -0.542395 
0.532246 -0.024602 0.341499 0.920648 -0.061454 -0.360528 
0.932699 0.459941 3.169915 0.926778 -0.151693 0.327195 
-0.427006 0.479429 0.362223 0.864399 0.185121 0.441736 
0.860496 1.086636 1.824610 -0.742527 0.505812 0.385413 
0.490306 -0.512985 1.497825 0.796817 -0.513952 0.201740 
-0.482633 0.075306 0.081024 -0.874905 -0.073093 -0.456354 
0.597983 -0.374053 0.683084 0.937403 -0.041959 -0.279250 
-0.331914 0.703138 0.266488 -0.719399 0.254527 0.595026 
1.037284 0.570956 2.289030 -0.943681 0.028052 0.267736 
0.650632 -0.675013 0.834069 -0.928480 -0.108276 0.248573 
0.198278 0.006158 -0.240541 0.521527 -0.104235 -0.833931 
0.604941 -0.429174 0.742910 -0.934610 -0.041096 0.272461 
-0.568375 -0.585140 0.611719 -0.891620 -0.103083 -0.297334 
-0.400570 0.184006 0.199360 0.182117 -0.226548 0.822541 
-0.101744 -0.441836 0.199405 -0.141274 -0.212523 0.964876 
-1.025918 0.350793 2.651296 0.828258 0.543109 0.075677 
-0.797715 0.402844 1.600280 0.948308 0.105598 0.117779 
-0.585546 -0.567203 1.296253 -0.925468 -0.195096 0.274361 
-0.625673 -0.694819 1.109009 0.967191 0.046204 -0.094325 
0.097719 1.175902 0.366934 -0.284057 0.596971 0.729614 
0.035409 -1.034638 -0.016241 0.295868 -0.313593 0.878110 
-0.693219 0.310454 0.936550 0.927775 -0.043310 0.326583 
0.231227 0.185235 0.286913 0.391092 -0.175039 0.899138 
0.924921 0.527552 3.220760 0.925750 -0.127210 0.342093 
0.089855 0.422538 0.391564 0.215723 -0.099893 0.956257 
-0.608757 -0.540524 0.738903 0.913739 0.017107 0.245229 
1.033110 0.312431 2.249765 -0.956419 0.147380 0.215733 
-0.839758 0.497442 1.749219 0.906855 0.167932 0.289825 
0.723906 -0.165760 1.293469 -0.961489 0.170280 0.150633 
1.084021 0.510773 2.681440 0.978317 -0.090912 0.103005 
-0.694921 -0.085102 1.507752 -0.939270 -0.319329 -0.031416 
0.507766 0.185555 0.490245 -0.797620 -0.187950 0.489869 
-1.108194 0.631657 3.051393 0.939879 0.293275 -0.108809 
0.802912 -0.236759 2.215393 0.860755 -0.500460 0.030013 
-0.852392 -0.065697 2.548767 0.912149 0.362159 -0.065530 
0.840091 0.087315 3.146630 -0.906258 0.287346 -0.283067 
-0.159060 0.540783 0.382293 -0.330836 -0.077558 0.938679 
0.921181 0.042413 2.829220 0.926913 -0.233645 0.251268 
-0.616349 -0.797887 0.859177 -0.945336 -0.020935 -0.148179 
0.665153 -0.625719 0.955261 -0.969233 -0.062731 0.114001 
0.404124 -0.294198 0.015703 0.870342 -0.130243 -0.465356 
-0.712956 0.561889 0.980926 0.906336 -0.114189 0.398375 
-0.954238 0.406138 2.017033 -0.935576 -0.206242 -0.271382 
0.703992 0.582801 1.293040 -0.877017 -0.196012 0.358885 
0.250672 -0.488261 0.149487 0.391007 -0.197684 0.893122 
0.593285 0.388567 0.684774 0.851688 0.393603 -0.304889 
-0.320980 0.334569 0.243336 -0.286656 -0.158314 0.932916 
-0.707800 0.323229 0.799447 -0.960737 -0.198096 -0.124478 
0.889052 0.228853 1.758661 -0.990670 -0.013917 -0.048753 
-0.018001 -0.559335 0.185482 -0.278601 -0.225713 0.915468 
0.694300 0.877884 1.350991 -0.895987 0.214177 0.055623 
0.979656 0.164837 2.792884 0.938685 -0.168743 0.278985 
0.715567 -0.308404 1.306731 0.957437 -0.197819 -0.030913 
-0.801342 -0.158008 2.593988 -0.865287 -0.491199 -0.014412 
0.696837 -0.216755 1.588324 -0.896058 0.356670 -0.025384 
-1.077403 0.576959 3.116237 -0.910023 -0.389917 0.117117 
0.520714 -0.448531 1.552312 -0.806901 0.503137 -0.192807 
-0.500656 -0.155271 0.319310 0.583247 -0.080582 0.648437 
-0.405129 -1.028419 0.284832 0.629656 -0.127926 0.652048 
1.074771 0.585842 2.355301 0.994041 0.076226 -0.035704 
-1.153858 0.875497 2.321393 -0.962851 -0.236460 -0.112884 
-0.658634 -0.200174 0.772010 0.976528 0.066179 0.193403 
-0.693888 -0.074383 1.693088 0.930557 0.339658 -0.041715 
-0.990144 0.402617 3.151796 0.893239 0.428041 -0.101798 
0.804295 0.008637 3.167970 0.898007 -0.306441 0.304352 
0.435737 -0.937981 0.386021 -0.626422 -0.042801 0.647933 
0.058167 -0.063150 -0.302800 0.427584 -0.137727 -0.868681 
-0.387895 0.237862 -0.120639 -0.705093 -0.060797 -0.674062 
0.515477 -0.826650 0.547255 0.820295 -0.026726 -0.428704 
0.337223 -0.418817 0.121568 0.506260 -0.166151 0.784646 
0.580778 0.301117 0.778491 -0.913409 -0.201003 0.346169 
0.852743 0.311793 3.264984 0.908972 -0.201500 0.350983 
-0.848821 0.449359 1.624544 -0.851357 -0.380298 -0.249502 
-0.830665 0.115933 3.049559 0.858659 0.486234 -0.100650 
-0.048165 -0.576367 -0.116382 -0.173409 -0.380791 -0.890337 
-0.180781 -0.258099 -0.228100 -0.477461 -0.206702 -0.839113 
0.440025 0.001170 0.214267 -0.539124 -0.158954 0.762454 
-0.903146 0.728311 1.591661 -0.845912 -0.422669 -0.205811 
0.809515 0.383325 1.615074 -0.928847 -0.044198 0.166930 
0.925765 -0.043825 2.496401 0.857436 -0.493973 -0.102061 
-0.390845 0.414127 0.246439 0.580408 -0.099015 0.684867 
0.205541 -0.778346 0.092213 -0.089862 -0.141620 0.855630 
-0.495344 0.342803 0.039146 -0.878414 0.032323 -0.432949 
-0.660007 -0.244075 0.679146 -0.965950 -0.111573 -0.201755 
-0.338983 -0.534583 -0.048539 -0.778433 -0.174717 -0.580734 
0.670412 -0.712284 1.079716 0.968727 -0.010376 0.022538 
0.335272 0.391689 -0.189011 0.600947 -0.011210 -0.797562 
-0.592239 -0.372861 2.071887 -0.857434 -0.486013 -0.091163 
-0.706036 0.500830 0.797037 -0.812401 0.312105 -0.459827 
-0.525207 0.265633 0.457621 0.748194 -0.221919 0.574990 
0.578559 0.345964 0.385400 0.959978 0.040725 -0.209116 
-0.098241 -0.276821 -0.256159 -0.399558 -0.254981 -0.859640 
-0.643414 -0.125269 1.610192 0.923316 0.352475 -0.013955 
-0.262531 -0.256422 -0.186516 -0.519845 -0.210560 -0.820319 
0.470596 0.387461 0.487859 -0.894428 0.304839 0.290778 
1.076215 0.511645 2.761230 -0.978718 0.116104 -0.113466 
-0.538609 0.117348 0.220437 -0.897870 -0.064338 -0.399280 
-0.801841 -0.048533 2.763394 0.899951 0.385283 -0.123787 
-0.457831 0.010159 0.037682 -0.867320 -0.085237 -0.473047 
-0.059164 0.123994 0.329652 -0.159627 -0.215306 0.956874 
-1.184538 0.857822 3.106443 0.819773 0.547741 -0.044224 
-0.737631 0.365994 0.925692 -0.959957 -0.256762 -0.040407 
0.442598 -0.565478 1.715479 -0.770458 0.583758 -0.163775 
-1.145537 0.628866 2.758571 0.927820 0.347362 0.009086 
-0.773348 -0.042734 1.980462 0.645383 0.434121 0.585584 
-0.426097 0.024644 -0.053322 -0.852468 -0.084981 -0.511959 
0.748036 0.421504 1.297897 0.963169 -0.240501 -0.098978 
0.161513 -0.125992 0.260664 0.269867 -0.196214 0.935287 
-0.193980 1.005648 -0.036628 -0.630127 0.418597 -0.647497 
0.678699 0.737254 1.078984 0.675613 0.434520 -0.503310 
0.696576 -0.710446 0.941454 0.973982 0.088554 -0.149476 
0.132097 -0.586558 0.150507 0.225678 -0.251051 0.940422 
0.422363 -0.167774 0.028460 0.874252 -0.113102 -0.461442 
-0.675853 -0.111368 1.082490 0.963655 0.154645 0.149839 
0.672505 0.798315 1.125420 -0.849999 0.342414 -0.058555 
0.996876 0.252269 2.814754 -0.930044 0.298621 -0.098882 
-0.514512 -0.202506 0.268096 -0.903674 -0.115847 -0.370032 
0.950158 0.016597 2.594247 0.854814 -0.497166 -0.093341 
0.491062 0.255251 0.468296 -0.781558 -0.207987 0.518175 
0.763941 -0.287583 2.772342 -0.875931 0.453324 -0.089460 
0.458325 0.134775 0.304781 -0.647256 -0.183289 0.672450 
0.859485 0.096839 1.755588 -0.966435 0.115720 -0.070418 
-0.189782 1.186047 0.223219 -0.720487 0.656722 0.004270 
0.150444 0.500569 0.391449 0.353169 -0.084381 0.931282 
-0.037401 1.386911 0.152755 -0.500995 0.729468 0.435071 
0.861105 0.671102 1.645480 0.889078 -0.229104 -0.312349 
0.641867 -0.863268 0.813380 -0.874769 -0.136940 0.300764 
-0.463636 0.098042 0.245037 0.562652 -0.195750 0.732110 
0.587485 -0.457115 2.139035 0.804666 -0.578886 -0.038270 
-0.673427 -0.216754 1.073979 -0.957721 -0.193614 -0.067294 
-0.686037 -0.176237 0.860111 -0.971703 -0.147771 -0.154673 
1.011583 0.649261 2.502458 -0.942158 0.052374 0.045595 
-0.705940 0.003807 1.169801 -0.955359 -0.252861 -0.087904 
0.349095 0.029615 0.170174 0.237604 -0.156185 0.879518 
-0.801145 0.035899 1.964517 0.686434 0.404866 0.555749 
-1.203744 0.843627 2.927819 0.958545 0.233761 -0.066909 
-0.337539 -0.910002 0.144202 0.508092 0.027434 0.824238 
-0.121640 0.830327 -0.169070 -0.483970 0.434938 -0.742424 
-1.154400 0.778948 2.368855 -0.954951 -0.258723 -0.134626 
0.764360 -0.253972 2.159079 -0.742267 0.508233 0.322378 
1.064439 0.514929 2.520679 -0.964015 0.074208 0.088178 
-0.702218 -0.049472 1.303375 -0.950461 -0.275660 -0.085112 
0.853928 0.306648 1.695882 -0.962498 -0.032960 0.048099 
-0.938030 0.452495 1.935257 -0.934042 -0.222590 -0.201424 
-0.367750 -0.866031 0.216034 0.577352 0.036199 0.746683 
-0.595845 -0.316980 0.540101 -0.928841 -0.123580 -0.277769 
-0.752777 -0.228786 2.653026 0.884219 0.455891 -0.017751 
-0.869661 0.129913 2.821634 0.833583 0.531011 -0.016886 
0.547211 0.430491 0.212489 0.942101 0.110536 -0.250150 
-0.468470 0.635537 0.349830 0.848001 0.288296 0.441369 
-1.014858 0.555348 2.137957 0.930282 0.163775 0.259179 
-0.928328 0.266481 2.026825 -0.948167 -0.249594 -0.111970 
0.406640 0.198731 -0.087970 0.777169 -0.086553 -0.584676 
0.000017 1.337979 0.190399 0.212579 0.607127 0.760267 
-0.142220 1.011084 0.404593 -0.205113 -0.204049 0.950216 
0.667127 0.776315 1.209059 -0.853125 0.290669 -0.026211 
1.046741 0.330793 2.331186 -0.961330 0.132777 0.153268 
-0.853599 -0.082623 2.363717 -0.899507 -0.415521 -0.088773 
-0.004426 -1.257201 -0.098301 -0.534881 -0.778156 -0.115647 
0.205273 -0.560164 0.138853 0.307968 -0.225295 0.920276 
0.069131 1.162209 -0.012267 0.434293 0.395683 -0.794641 
-0.334471 -0.975769 0.178433 -0.694246 -0.178323 -0.646555 
-0.722867 0.425612 0.789283 -0.958536 -0.108730 -0.176742 
-0.209142 1.050382 0.368697 -0.635113 0.688875 -0.273404 
-0.399595 0.099110 -0.094666 -0.738055 -0.101543 -0.624458 
0.862513 -0.139574 2.217424 0.883356 -0.443824 -0.020475 
-0.819166 0.248774 1.752476 0.981765 0.147467 -0.082379 
-0.662120 0.569200 0.784295 0.923151 0.264602 0.189678 
-0.430990 0.692945 0.098228 -0.550654 0.790813 -0.054784 
0.782642 0.210379 1.551741 -0.928410 0.078852 0.202091 
0.991288 0.665693 2.262314 -0.923970 0.007578 0.235194 
0.420309 -0.357323 0.093969 0.880285 -0.129665 -0.439962 
-0.168600 -0.198365 0.240904 -0.271962 -0.193719 0.930905 
0.311008 0.857963 0.230249 0.875787 0.258301 0.396659 
-0.864035 0.588041 1.576830 -0.867721 -0.408871 -0.162790 
0.082233 0.211058 -0.321320 0.499295 -0.001911 -0.860179 
0.630194 -0.390170 1.461890 0.884553 -0.357680 0.084587 
-0.150407 1.207459 0.373277 0.332270 0.744559 0.493283 
-1.048920 0.850580 2.001380 -0.963693 -0.249054 -0.059248 
-0.983320 0.360257 3.032117 -0.901282 -0.401370 0.142780 
-0.902037 0.195395 2.918267 -0.901210 -0.391430 0.166665 
0.448123 -0.017485 0.057277 0.880818 -0.091252 -0.452379 
-0.354084 0.581566 -0.152116 -0.618192 0.190151 -0.719038 
1.062912 0.721511 2.336773 0.994989 0.019659 -0.076932 
-0.504990 -0.537086 0.446711 0.744012 0.040918 0.502271 
0.458175 -0.065299 0.109171 0.887312 -0.091611 -0.435532 
0.572608 -0.395142 1.508119 -0.847867 0.425921 -0.106907 
-0.789216 -0.140095 2.667581 -0.863616 -0.490301 0.012301 
0.973821 0.251582 2.890840 -0.932078 0.269375 -0.149339 
-0.679834 -0.034451 1.076351 0.956794 0.126357 0.177221 
0.996851 0.244192 2.129287 -0.945121 0.159723 0.239167 
0.763813 0.972282 1.565497 -0.847888 -0.357719 0.374639 
0.937991 -0.027374 2.360514 0.892319 -0.413945 -0.109029 
1.081415 0.480028 2.389142 -0.965593 0.059450 0.230382 
-0.484970 -0.768239 0.480943 -0.823220 -0.119932 -0.410261 
-0.077512 -0.422165 -0.232331 -0.306067 -0.376815 -0.864837 
0.793932 0.143547 1.508856 0.951573 -0.276995 -0.130213 
0.928525 0.225530 3.014676 0.928695 -0.218795 0.280195 
-0.696168 -0.075289 0.926951 -0.967155 -0.181135 -0.127930 
0.043301 0.378886 -0.323989 0.459896 0.088014 -0.876646 
-0.667383 -0.100691 0.854660 0.966241 0.064145 0.207373 
0.172940 1.109702 0.226058 0.578031 0.178300 0.652508 
-0.697032 -0.291290 2.267579 0.795482 0.469222 0.243657 
0.303513 -0.624954 0.089898 0.148072 -0.126648 0.898095 
-0.723617 0.197037 1.119520 -0.954356 -0.274076 -0.054559 
1.054384 0.908896 2.441306 -0.934417 0.206315 0.200764 
-0.083607 0.542399 0.396272 -0.211607 -0.060959 0.962257 
0.503702 -0.502778 1.833100 0.753422 -0.605548 -0.048545 
0.440336 0.090109 0.232087 -0.571936 -0.182047 0.744927 
0.362330 -0.054447 0.141716 0.118029 -0.140215 0.891816 
-0.630558 0.113588 0.553127 -0.946673 -0.099934 -0.279890 
0.629767 -0.014590 0.904370 -0.940778 -0.033743 0.281790 
1.012306 0.120370 2.176425 0.944584 -0.287336 -0.132655 
0.582382 -0.394695 1.737052 -0.815011 0.506436 -0.218387 
0.321060 0.695534 -0.160822 0.556984 0.391427 -0.706055 
-0.178662 -0.818000 0.094041 0.211664 -0.143030 0.862154 
0.996501 0.862492 2.304178 -0.930136 0.013780 0.254465 
-0.341307 -0.569004 1.606442 0.820482 0.527990 -0.201229 
-0.245681 0.097381 0.258760 -0.384836 -0.200227 0.894437 
0.071082 0.609504 -0.266089 0.370679 0.204415 -0.891490 
0.915610 -0.066809 2.429389 0.871912 -0.461500 -0.097821 
0.452227 -0.544408 1.581235 -0.768493 0.570638 -0.264677 
-1.214362 0.843500 2.712472 -0.958652 -0.248134 -0.039912 
-0.294254 0.541707 0.288840 -0.330028 -0.117785 0.903802 
-0.393613 -0.768587 0.233265 0.568158 0.027457 0.730228 
0.022301 0.025720 0.309904 0.101792 -0.224525 0.967769 
0.727144 0.114437 1.328526 -0.928968 0.078913 0.240128 
-0.429587 -0.980526 0.405534 0.669070 -0.036909 0.584303 
0.750844 0.634940 1.481950 -0.878949 -0.179798 0.323295 
-0.845265 0.661176 1.590879 0.941405 -0.010077 0.185768 
-0.119816 -0.892560 -0.055843 -0.227356 -0.114367 -0.931477 
0.985576 0.509599 3.056588 -0.924521 0.018505 -0.349499 
0.968336 0.524698 3.126896 0.934699 -0.129930 0.316404 
0.641404 0.682876 1.046144 -0.904650 0.295659 -0.028782 
0.121930 -1.018315 -0.040791 0.369870 0.003356 -0.915938 
-0.251366 0.644218 0.338610 -0.438980 0.225798 0.826961 
0.621292 -0.176990 0.723955 0.971224 -0.058870 -0.224997 
0.629106 -0.413669 0.898559 0.967688 -0.069246 -0.082849 
-0.001712 -0.720050 -0.088309 -0.678143 -0.149219 -0.698531 
-0.227136 -0.745682 0.094691 0.001895 -0.134314 0.857176 
0.021687 0.778312 0.375253 0.090951 -0.169797 0.970633 
0.745434 -0.093167 1.293550 0.957350 -0.215339 -0.155593 
0.594800 -0.376449 1.644003 0.773524 -0.545100 0.005096 
0.282714 0.155115 0.242739 0.432714 -0.182997 0.879418 
0.413883 -0.406704 0.044196 -0.307094 -0.067401 0.931087 
0.611255 -0.864450 0.750048 -0.840199 -0.121209 0.350317 
-0.550887 -0.556015 0.547738 -0.874227 -0.121997 -0.338885 
-1.056468 0.456326 2.899296 0.890291 0.433530 -0.028995 
0.200225 -1.083755 0.093521 -0.318037 0.087648 0.924187 
0.031542 -0.342683 0.221045 0.050097 -0.164712 0.982325 
-0.952621 1.030680 1.523104 -0.907480 -0.381083 0.064105 
-0.169920 0.690235 -0.222846 -0.428157 0.297772 -0.837556 
-0.857384 0.794768 1.194932 -0.957407 -0.169488 -0.124116 
-0.378641 -0.490373 0.027554 -0.823505 -0.160075 -0.517885 
-0.711146 0.063349 1.129306 -0.956131 -0.253415 -0.080132 
0.175911 -0.157002 -0.242950 0.495256 -0.150586 -0.842253 
0.917696 0.291710 3.106165 0.923885 -0.211392 0.300748 
-0.779264 0.093782 1.696254 -0.840297 -0.358185 -0.320441 
0.284982 0.804759 -0.077610 0.627212 0.535396 -0.520805 
0.883432 0.275080 3.180991 0.914715 -0.214477 0.328040 
-1.025596 0.361362 2.368116 -0.849049 -0.455206 -0.233783 
0.978504 0.073891 2.225974 -0.924642 0.320281 0.166114 
-0.084539 0.579241 -0.269441 -0.396958 0.181133 -0.886048 
0.519423 0.599196 0.212580 0.926356 0.320361 -0.111133 
-0.615782 -0.643632 0.774082 -0.937844 -0.056473 -0.190112 
0.467477 -0.039350 0.304786 -0.615223 -0.132409 0.671911 
-0.659704 0.188112 0.790656 0.928282 -0.081027 0.333774 
-0.402670 0.684183 0.190681 -0.311192 0.536494 0.706450 
-0.422841 0.082790 0.162181 0.388757 -0.209470 0.832289 
0.247744 -0.530880 -0.111765 -0.014500 -0.345030 -0.883341 
-0.080973 -0.597847 0.158690 -0.242120 -0.246409 0.932700 
-0.796863 0.614204 1.141771 -0.934167 -0.344693 -0.016717 
-0.384590 -0.502216 1.599688 0.835086 0.503002 -0.191235 
0.162806 -1.356935 0.098109 -0.137932 -0.213238 -0.958846 
0.817012 -0.159166 2.916696 0.893404 -0.406827 0.144444 
0.590105 0.229902 0.793950 -0.918211 -0.171534 0.337620 
-0.654789 -0.236045 1.474391 -0.931043 -0.294250 0.071361 
0.642060 0.350704 1.018218 -0.894125 -0.147866 0.366738 
-0.548176 0.510253 0.376862 -0.853478 0.445683 -0.193719 
-1.010545 0.273233 2.599416 -0.874871 -0.482500 0.015642 
-0.767661 -0.276908 2.470157 -0.881098 -0.471276 -0.026142 
0.427195 0.338745 0.293310 -0.699264 -0.156776 0.637211 
-0.866314 0.369464 1.721864 -0.799471 -0.347121 -0.444143 
-1.038013 0.656262 3.470237 0.915372 0.358193 -0.153212 
-0.841503 0.799609 1.475462 0.923057 -0.074573 0.304822 
-0.621053 -0.255559 0.576044 -0.952478 -0.117009 -0.240221 
-0.337989 -1.054543 0.121703 -0.671205 -0.014338 -0.675408 
-0.288326 -0.667570 0.102442 -0.150471 -0.112185 0.891040 
-0.776292 0.051862 3.166540 0.873883 0.458285 -0.158535 
0.895913 0.881267 2.050211 -0.877003 -0.059811 0.316720 
0.720083 -0.355556 1.406364 0.952033 -0.226048 0.031609 
0.924919 0.300382 1.761235 0.863947 -0.146513 -0.407490 
-0.724503 0.192264 1.461885 0.938373 0.184800 0.152398 
-0.062090 -0.008009 0.298525 -0.149421 -0.218170 0.960408 
-0.592708 -0.427891 2.214350 -0.849467 -0.501963 -0.105761 
-1.116816 0.555350 2.642725 -0.941964 -0.311902 0.012418 
0.226723 -0.339899 0.189919 0.380650 -0.182023 0.871768 
1.063593 0.761792 2.875592 -0.896257 0.399811 0.039025 
0.418183 0.082780 0.157050 -0.486454 -0.191729 0.821321 
-0.880674 1.036297 1.443902 0.720304 0.496637 -0.150012 
0.377033 -0.794747 0.238813 -0.556204 0.002864 0.745257 
0.723597 -0.011394 1.292148 -0.945073 0.119355 0.210337 
0.570082 0.617730 0.699455 0.947359 0.132257 -0.288795 
-1.137932 0.999212 2.228178 0.761901 0.533060 0.265396 
0.526733 -0.376002 0.525485 -0.782448 -0.011690 0.452188 
-1.157909 0.819201 3.165264 0.933395 0.322655 -0.106729 
-0.481488 -0.458204 1.872986 -0.788981 -0.537662 -0.143291 
-0.663602 -0.594249 0.910331 0.986631 -0.011215 0.109071 
-0.374341 -0.588839 1.526563 -0.834105 -0.474000 0.232009 
0.354164 0.620419 0.253034 0.408576 0.078900 0.793154 
-0.478618 -1.056404 0.356238 -0.758407 0.287703 -0.482645 
-0.673865 -0.300022 2.185107 -0.872540 -0.471003 -0.053376 
0.533837 0.547071 0.273016 0.913864 0.336908 -0.147202 
0.767384 -0.178836 1.780266 0.788943 -0.506594 -0.253317 
0.903927 0.065832 2.899924 -0.909984 0.353892 -0.133195 
0.454626 -0.879705 0.425135 0.767683 -0.066652 -0.513850 
1.073031 0.794141 2.784854 -0.920036 0.321984 0.075024 
-1.000084 0.491797 2.102276 -0.890707 -0.311256 -0.295021 
1.087380 0.712804 2.752109 0.978376 -0.027474 0.099110 
0.436022 -0.536036 0.249287 -0.525621 -0.024420 0.729500 
0.859817 0.016378 1.794842 0.802767 -0.361960 -0.415524 
-0.702868 0.480070 0.944954 0.912301 -0.097320 0.381770 
-0.103821 0.375816 0.388933 -0.240262 -0.120553 0.950207 
-0.387742 -0.234025 -0.062975 -0.849046 -0.129252 -0.509444 
-0.247927 0.378061 -0.219852 -0.539162 0.019764 -0.831859 
0.134508 0.738126 0.349004 0.156938 0.027701 0.977065 
-0.629909 -0.377964 0.669163 -0.938824 -0.107076 -0.233105 
-0.527281 0.118538 0.420416 0.735747 -0.157328 0.546288 
-0.121603 -0.105021 -0.272946 -0.470296 -0.136544 -0.853279 
0.853528 0.044037 3.044582 -0.906654 0.322199 -0.220728 
-0.585999 0.054710 0.389811 -0.923949 -0.080532 -0.330789 
0.024974 -0.489288 -0.178143 0.091892 -0.627173 -0.763845 
0.482505 -0.399826 0.344454 0.882156 -0.104075 -0.399948 
0.109372 -0.187534 0.254148 0.168892 -0.197274 0.963420 
-0.169681 -0.157949 -0.246620 -0.495682 -0.150414 -0.841599 
-1.044263 0.787415 2.191469 0.872434 0.241616 0.300084 
-0.821311 0.009830 2.798660 -0.844507 -0.512544 0.031099 
-0.630010 0.375364 0.780870 0.898227 -0.142595 0.415295 
0.244848 0.313588 -0.226564 0.563229 -0.013077 -0.819182 
-0.671700 -0.025785 0.859767 0.959386 0.040825 0.231415 
1.069958 0.679031 2.812943 -0.957599 0.016505 -0.143367 
0.483708 -0.067103 0.195304 0.899388 -0.082537 -0.407697 
0.735864 0.346796 1.390606 -0.905950 -0.035715 0.279910 
0.854453 0.847396 1.624999 0.977063 -0.102555 0.033677 
0.984655 0.137129 2.715270 -0.915685 0.385087 -0.021895 
-0.325185 -0.266970 -0.131086 -0.628799 -0.204776 -0.712061 
0.328520 -0.173691 -0.134412 0.617942 -0.194780 -0.721365 
0.766577 0.844331 1.284087 0.862333 0.214229 -0.359843 
-1.034486 0.677661 3.551058 -0.904649 -0.385921 0.174257 
0.027907 -0.078269 0.284356 0.090578 -0.213253 0.971012 
0.553939 0.326406 0.306469 0.942635 0.014096 -0.264182 
0.058829 0.547666 0.397558 0.161049 -0.055847 0.972109 
0.891810 0.338187 1.828059 -0.861099 0.065415 0.461065 
-0.811239 -0.170972 2.395391 -0.891864 -0.441003 -0.052670 
-1.052211 0.408685 2.716227 0.855806 0.494500 0.041931 
0.126635 0.569603 0.395150 0.314999 -0.065916 0.941305 
-0.483157 -0.546291 2.123967 0.796434 0.518256 0.251964 
0.510988 0.109499 0.225633 0.907000 -0.062484 -0.394269 
-0.162789 -0.396269 0.201399 -0.211789 -0.209135 0.951470 
-1.220092 0.914061 2.652589 -0.984593 0.047528 -0.069031 
-0.597393 -0.501474 1.256596 0.939405 0.170256 -0.195880 
-1.219427 0.919163 2.574396 -0.987227 0.017316 -0.118167 
-0.992771 0.933081 1.888203 0.843283 0.165259 0.445941 
0.915531 -0.048830 2.199193 0.904486 -0.391671 -0.059436 
0.475217 0.595799 0.027651 0.822778 0.248436 -0.395040 
-0.860093 0.136439 2.922413 0.844145 0.512322 -0.050597 
-0.045335 -1.041671 -0.019913 -0.217002 -0.316114 0.882372 
0.597979 -0.010695 0.616708 0.963227 -0.078985 -0.234998 
-1.056929 1.048322 1.863586 -0.964354 -0.182436 -0.187729 
-1.120372 0.541132 2.747870 0.910722 0.390692 0.016056 
-0.284879 -0.072076 -0.185912 -0.541460 -0.156096 -0.816744 
1.079347 0.772110 2.426397 0.995832 0.025450 -0.075410 
-0.677249 -0.129950 1.371484 0.952771 0.245270 0.050623 
0.809912 0.372861 3.379387 -0.903953 0.142218 -0.384471 
0.667727 0.819654 1.287770 -0.978446 0.062759 0.190925 
-1.125512 0.745060 3.202701 0.948472 0.259232 -0.134975 
0.621597 0.482431 0.956534 -0.876053 -0.229950 0.416548 
0.639724 -0.467641 0.844955 -0.969006 -0.050966 0.189951 
0.631492 -0.029273 0.771370 0.973574 -0.083977 -0.188620 
-0.534852 0.436702 0.139187 -0.908647 0.148789 -0.316644 
-0.531812 -0.519778 1.415557 -0.897266 -0.301408 0.234566 
0.315774 0.881947 0.112182 0.916845 0.350896 -0.087100 
0.312841 0.629299 -0.193978 0.556311 0.225330 -0.792529 
-0.434915 0.702178 0.026883 -0.679103 0.691518 -0.186577 
0.497509 0.345292 0.083391 0.905331 0.013449 -0.373468 
0.800190 0.645048 1.614276 -0.899470 -0.191969 0.233019 
0.969364 0.142040 2.094172 -0.904060 0.264698 0.274426 
-0.859578 0.600046 1.688099 0.905682 0.087474 0.186811 
-0.426008 -0.592879 1.473203 0.863145 0.388911 -0.249594 
-0.008451 -0.809115 0.100924 -0.470978 -0.258613 0.836820 
-0.954005 0.185540 2.164150 -0.928403 -0.327601 -0.155307 
-0.094342 0.460045 -0.280811 -0.453761 0.112817 -0.873453 
-0.508396 -0.234663 0.332115 0.579365 -0.047384 0.633631 
0.803943 -0.052736 1.621471 -0.951619 0.239242 0.055951 
-1.117285 0.797813 2.238013 -0.954954 -0.264905 -0.113627 
-0.001502 -0.878229 0.077914 -0.581012 -0.248994 0.764013 
0.679529 -0.770415 0.883269 0.951698 0.096730 -0.206908 
-0.838484 0.077403 2.861186 -0.895423 -0.402072 0.168993 
-0.909241 0.050617 2.389864 -0.881227 -0.441540 -0.113295 
-0.996601 0.301601 2.216828 -0.899103 -0.356209 -0.233391 
-0.923350 0.106626 2.457182 0.927039 0.307391 -0.040949 
-0.013577 0.463042 -0.323598 -0.421591 0.140415 -0.892188 
0.511905 -0.300618 0.378829 0.921273 -0.091840 -0.348009 
0.835740 -0.042167 1.749985 0.829185 -0.382448 -0.335964 
-0.698420 0.183791 1.242378 0.934464 0.116065 0.211486 
-0.281832 0.811988 -0.069700 -0.642639 0.522736 -0.507920 
-0.258280 0.912572 -0.003916 -0.762020 0.406578 -0.443541 
-0.622528 -0.584867 1.075074 -0.955761 -0.108869 0.110919 
0.656006 -0.631472 1.047450 0.967802 -0.038441 0.014958 
0.032822 1.126876 0.391447 -0.046315 0.386338 0.896747 
0.852668 0.380593 3.288613 -0.908962 0.123603 -0.371437 
0.414396 -0.632767 0.247509 -0.539242 -0.013984 0.733270 
-0.675554 -0.466959 0.843187 -0.984807 -0.054754 -0.121217 
-0.717024 0.690524 1.040095 0.935457 0.216398 0.137279 
-0.850324 0.736217 1.329359 -0.909355 -0.402871 -0.029836 
1.040991 0.211112 2.495974 -0.958766 0.163867 -0.122214 
-0.078742 0.237744 0.356772 -0.177364 -0.182142 0.957389 
0.319081 0.746045 -0.102127 0.633617 0.565171 -0.490290 
1.054728 0.292090 2.667313 -0.934900 0.324551 -0.010940 
-0.503471 0.319551 0.497247 0.830458 -0.120427 0.500109 
0.851059 0.224021 3.217364 -0.908792 0.194626 -0.344268 
1.012539 0.140980 2.506434 -0.946611 0.207113 -0.129542 
-1.051558 0.629286 3.332035 0.922683 0.334130 -0.144484 
-0.691388 0.082062 1.206028 0.944233 0.136516 0.185799 
0.763061 0.053164 1.374919 0.958666 -0.249920 -0.116718 
0.318497 -0.489323 0.104180 0.376209 -0.160371 0.847894 
-0.178568 -0.891795 0.005959 -0.195730 -0.230429 -0.945585 
0.396993 -0.619076 1.677509 -0.754775 0.607208 -0.168095 
0.558108 -0.513524 2.233221 -0.800018 0.588836 0.081472 
0.987784 0.214994 2.055681 0.962848 -0.144977 -0.107601 
0.396893 -0.734047 0.271214 -0.579641 -0.000251 0.711856 
0.428143 0.431831 0.406829 -0.890719 0.265312 0.339698 
-0.578773 0.346301 0.302216 -0.925977 0.047961 -0.309658 
-0.468031 -1.089432 0.284179 -0.733550 0.367755 -0.525866 
1.079958 0.664710 2.382078 0.994486 0.037834 -0.070810 
-0.698173 -0.018170 0.772704 -0.972472 -0.152438 -0.136838 
-0.942572 0.630302 1.832603 -0.895438 -0.326876 -0.171355 
-0.360540 0.736137 -0.023642 -0.749164 0.551416 -0.302269 
0.485853 -0.449005 0.401975 -0.667830 -0.017225 0.576226 
0.048028 0.035662 -0.321283 0.448159 -0.079838 -0.870528 
-0.692152 -0.115732 3.060108 -0.864433 -0.471130 0.172138 
0.716286 0.478296 1.329137 -0.889548 -0.126774 0.325705 
0.956106 0.433700 3.085440 -0.921077 0.063090 -0.345993 
-0.586718 0.162382 0.396127 -0.922687 -0.084629 -0.342201 
-0.602270 0.351239 0.375255 -0.939703 0.057040 -0.272452 
0.655313 0.151324 1.038465 -0.920590 -0.052753 0.304994 
0.065360 0.307828 -0.326066 0.487632 0.043368 -0.866320 
-0.601719 -0.480265 1.186996 0.943839 0.153461 -0.156218 
0.383284 -0.582903 0.038212 -0.317311 -0.042439 0.939861 
-0.234504 1.075541 0.230591 -0.875742 0.440734 0.135244 
-1.185102 0.753760 2.562927 -0.953435 -0.262329 -0.105879 
-0.640293 -0.396467 2.308583 -0.856670 -0.496405 -0.086682 
0.047320 -0.665861 0.151022 0.315824 -0.274978 0.890242 
0.276431 -0.818218 -0.017376 0.590152 -0.209680 -0.771917 
0.609284 0.706083 0.859669 -0.975237 0.050764 0.212440 
-0.680681 0.643263 0.820139 0.933210 0.228915 0.191479 
-0.503626 -0.468485 1.992807 -0.786798 -0.539698 -0.243171 
0.995393 0.594017 2.148031 -0.922060 -0.077514 0.281551 
-0.422714 -0.760986 0.305391 -0.765661 -0.165295 -0.532653 
-1.076779 0.474043 2.828054 -0.918777 -0.375023 0.100815 
-0.367353 0.301652 -0.147927 -0.658857 -0.042510 -0.729950 
0.996050 0.670782 2.088637 0.933339 -0.163702 -0.288837 
-0.073224 -0.476952 -0.186617 -0.173046 -0.508691 -0.831464 
-0.384318 -1.096977 0.169925 0.527436 -0.235963 0.695208 
-0.201767 -0.477623 0.167416 -0.294120 -0.220173 0.929434 
0.454571 0.256113 -0.025622 0.873748 -0.066087 -0.479618 
-0.559075 0.184915 0.296847 -0.907689 -0.074687 -0.380547 
-0.098806 0.455562 0.392923 -0.228923 -0.080886 0.956133 
0.667185 -0.075506 0.935142 0.967994 -0.120584 -0.183108 
0.769730 0.396104 1.528484 -0.906164 -0.030384 0.256528 
-0.335604 -1.143513 0.150143 -0.630974 0.028396 -0.673909 
-0.184048 -0.964012 0.067730 0.522564 -0.079205 0.810331 
-0.020650 0.071100 -0.336824 -0.433214 -0.070357 -0.877726 
0.801118 -0.106472 3.033117 0.900132 -0.339242 0.247066 
-0.664739 0.219052 0.654228 -0.964764 -0.092683 -0.243130 
-0.488311 0.635748 0.174165 -0.847239 0.476151 -0.141318 
-0.289288 -0.569549 -0.095644 -0.597952 -0.234033 -0.747800 
-0.606652 -0.495253 1.113060 -0.940219 -0.161212 0.160544 
0.230312 0.792961 0.331446 0.517716 0.100208 0.833153 
-1.136908 0.804365 3.247201 0.926709 0.341967 -0.113802 
-1.055001 0.414984 2.638782 0.854888 0.485768 0.084848 
0.652865 0.052778 0.870080 0.973032 -0.114256 -0.160957 
0.849428 1.043876 1.653261 0.983417 -0.041545 -0.167219 
-0.255524 -0.755409 -0.031402 -0.079227 -0.311726 -0.874692 
-0.435378 0.275868 -0.076563 -0.800278 -0.045512 -0.575251 
-1.182377 0.798468 2.455830 -0.960142 -0.238524 -0.139036 
-1.068410 0.477723 2.418219 0.876195 0.398966 0.232680 
-0.270310 0.186490 -0.211542 -0.556131 -0.066096 -0.821890 
-0.007855 -0.811492 -0.076415 -0.535062 -0.101139 -0.796477 
-0.429338 0.408223 0.381216 0.845068 -0.010496 0.500421 
0.823053 0.447277 3.376569 -0.908356 0.205264 -0.334544 
-0.106060 -0.508933 0.179202 -0.178892 -0.230154 0.953956 
-0.807248 0.670870 1.019744 -0.939818 -0.054736 -0.257918 
0.579529 -0.034814 0.534399 0.949452 -0.066793 -0.279566 
-0.072312 -0.738112 -0.076696 -0.120012 -0.216978 -0.944057 
-0.102681 0.645959 -0.253827 -0.387015 0.242728 -0.876642 
0.983193 0.081867 2.458276 -0.933715 0.258530 -0.064740 
-0.593783 -0.022953 0.417042 -0.929424 -0.081662 -0.311534 
-0.527853 -0.317025 1.656064 -0.822304 -0.487260 -0.026963 
0.029788 0.124296 -0.341282 0.458885 -0.032056 -0.874249 
-0.679439 0.156675 0.718602 -0.964359 -0.139861 -0.196175 
0.947919 0.803331 1.957059 0.988771 -0.045862 -0.109972 
0.474376 0.661804 0.228376 0.856789 0.477613 -0.061081 
-1.031136 0.352878 2.577126 -0.941826 -0.295096 0.117949 
-0.559377 0.078648 0.294275 -0.909471 -0.071036 -0.367975 
-0.576069 -0.502421 0.634198 0.870334 0.035075 0.327504 
1.055695 0.283814 2.393161 0.896287 -0.344407 -0.234676 
-1.008155 0.917444 1.984209 0.852586 0.177246 0.391562 
0.200606 -0.183124 0.234196 0.354903 -0.192866 0.891273 
-0.302058 0.544429 -0.202007 -0.555709 0.125294 -0.808888 
1.067326 0.305872 2.591327 0.965196 -0.069720 0.211330 
-0.649900 -0.285861 1.396069 -0.934918 -0.261832 0.088422 
0.673446 0.122016 0.964659 0.972057 -0.145684 -0.137658 
-1.097284 0.541102 2.432742 -0.968125 -0.222629 -0.059395 
-0.942232 0.287005 2.987965 0.844963 0.512943 -0.034222 
0.397519 -0.223973 -0.033217 0.864642 -0.126769 -0.481279 
0.440209 0.355574 0.419337 -0.837831 -0.047858 0.463538 
-0.388072 -0.580377 1.832672 0.823405 0.523194 -0.022444 
-0.312640 -0.056916 0.197948 -0.506312 -0.189072 0.830186 
0.963364 0.953229 2.197686 -0.959185 0.044231 0.234924 
-0.436311 -0.792141 0.375078 0.681845 0.030910 0.595535 
-0.846674 0.048380 2.018750 -0.920352 -0.369792 -0.047537 
-0.409270 0.684342 -0.040226 -0.683009 0.520422 -0.402193 
-0.338072 -0.063592 -0.140199 -0.622007 -0.155444 -0.733141 
-0.749947 0.651914 1.099100 0.909459 -0.119124 0.384590 
0.080175 1.242437 0.045373 0.565984 0.342998 -0.709926 
-0.267091 -0.427744 -0.166575 -0.478841 -0.279700 -0.820737 
-1.174296 0.710569 2.697030 -0.941644 -0.308656 -0.025391 
0.605494 0.057481 0.649485 0.971014 -0.094175 -0.204157 
0.570975 0.059135 0.494894 0.946986 -0.079560 -0.277368 
-0.556864 -0.890773 0.745492 -0.894850 -0.041540 -0.238699 
0.183025 0.727850 -0.198348 0.425264 0.406585 -0.784416 
0.950190 0.015725 2.454140 -0.919701 0.303681 -0.040824 
1.097488 0.655017 2.624655 0.986991 -0.034817 0.011748 
0.654992 -0.139933 0.986813 -0.958263 0.053825 0.229961 
-0.944104 0.337396 3.201101 0.873366 0.462998 -0.104546 
0.763554 -0.168594 1.706380 0.830079 -0.450090 -0.204580 
0.984383 0.364302 2.972016 0.944012 -0.193489 0.244733 
0.549849 0.129963 0.399387 0.934883 -0.082848 -0.306993 
0.152565 1.226153 0.140290 0.740698 0.616733 -0.103720 
-0.784327 0.835734 1.060215 -0.722017 0.275155 -0.510298 
-0.159421 -0.515809 -0.141015 -0.131598 -0.474488 -0.857998 
-0.276701 -1.122437 0.115785 0.088908 0.091415 0.800766 
0.569134 -0.396744 1.579678 0.797020 -0.515163 0.070265 
0.216175 0.089361 -0.235538 0.537410 -0.082586 -0.828034 
0.001570 0.594195 0.395079 -0.005476 0.266220 0.958350 
-0.924385 0.337394 1.967780 -0.952297 -0.206562 -0.139528 
-0.600117 -0.268960 1.869809 0.882904 0.420588 -0.101732 
-0.566018 0.005163 0.331808 -0.915617 -0.078945 -0.348350 
0.046089 1.291133 0.229661 0.272700 0.760602 0.571382 
-0.147891 -1.258733 0.080188 0.134133 -0.220454 -0.898838 
-0.348631 -0.197757 -0.113868 -0.681387 -0.176470 -0.665340 
-0.770131 -0.256017 2.544810 0.887984 0.453172 0.019867 
-0.930575 0.358481 3.352034 -0.879059 -0.449335 0.156356 
-0.334281 0.241350 -0.175140 -0.594640 -0.064112 -0.793543 
-1.025280 0.849565 1.877972 -0.927502 -0.310555 -0.202805 
-0.644604 -0.046456 0.726473 0.950704 -0.026010 0.269674 
-0.920682 0.077699 2.324887 -0.897079 -0.405695 -0.130753 
0.415323 0.391048 0.350492 -0.817061 -0.009427 0.494035 
-1.000896 0.619774 3.586532 0.901268 0.400426 -0.161119 
0.862554 0.394658 1.782343 -0.902886 0.033994 0.326635 
-0.137045 0.147319 0.328824 -0.273400 -0.200863 0.936560 
-1.091169 0.818998 2.361722 0.890589 0.260741 0.219248 
-0.811510 0.821220 1.129901 -0.624783 0.404689 -0.592316 
0.662613 0.237109 0.915514 0.976314 -0.142486 -0.116978 
-0.691638 -0.120291 1.281276 -0.950734 -0.258744 -0.076099 
-0.167102 -0.537580 0.155389 -0.234806 -0.230881 0.942692 
0.821703 -0.181082 2.176400 -0.761910 0.475345 0.322214 
0.670620 -0.217272 0.969208 0.964233 -0.117119 -0.189544 
-0.453605 -0.529310 0.263427 0.531659 0.003580 0.703124 
-0.691557 -0.109213 0.779106 -0.974103 -0.139918 -0.149471 
0.651375 -0.416830 1.126116 -0.966881 0.101690 0.013208 
-0.137876 -0.713920 -0.063524 -0.072963 -0.300664 -0.942946 
-0.576529 0.224884 0.361403 -0.916332 -0.082887 -0.362547 
-1.117907 0.609298 2.379169 -0.967578 -0.219299 -0.110659 
1.066907 0.509805 2.609524 -0.968595 0.089101 0.009440 
0.749483 -0.210929 1.850843 0.763788 -0.547521 -0.283769 
0.469230 0.032981 0.324638 -0.646855 -0.150320 0.652303 
-0.289352 0.466305 -0.213196 -0.562262 0.047083 -0.820668 
-0.585781 0.419058 0.602826 0.886193 0.294753 0.318546 
-0.823232 0.518067 1.608766 0.947767 0.051658 0.134298 
-0.887172 0.274086 1.792552 -0.941589 -0.263597 -0.190987 
0.559033 0.208696 0.439505 0.944228 -0.100609 -0.270298 
-0.443919 -0.854146 0.421582 0.691605 0.017221 0.566556 
-0.656856 0.275167 0.793949 0.915613 -0.117763 0.367475 
-0.820779 0.807789 1.343809 0.916729 -0.116101 0.348163 
1.078840 0.454928 2.563818 -0.967484 0.116116 0.071747 
1.020390 0.198455 2.180604 0.944126 -0.231708 -0.190268 
-1.067440 0.619138 3.259698 -0.909388 -0.385038 0.137905 
0.530870 0.022889 0.542780 -0.835080 -0.119391 0.435314 
-0.706351 0.043128 0.828527 -0.969463 -0.177956 -0.114264 
-0.920617 0.221383 2.099293 0.890294 0.326165 0.282183 
0.644415 0.669959 0.941085 0.817091 0.313883 -0.433930 
1.072096 0.735507 2.580979 -0.972243 0.083871 0.100640 
-1.198252 0.780021 2.791409 -0.945278 -0.300866 0.009871 
0.338613 -0.830490 0.086795 -0.406494 -0.009895 0.896803 
0.396743 0.106237 -0.089038 0.758685 -0.114242 -0.594491 
0.828556 -0.185281 2.680371 -0.889856 0.397581 -0.097410 
-0.746158 0.028287 1.746038 0.946207 0.285345 -0.067593 
0.608858 -0.465686 1.424272 -0.895694 0.312029 -0.122741 
-0.831827 0.324412 1.782462 0.971826 0.149641 0.009393 
0.803807 -0.079975 1.692963 -0.932381 0.289152 -0.030433 
0.514713 -0.474824 1.620963 0.750021 -0.586777 0.099008 
0.476694 0.295158 0.038889 0.889377 -0.040907 -0.428953 
-0.209461 -1.148203 0.115722 0.218640 0.161112 0.933482 
-0.581751 0.024184 0.560950 0.839552 -0.091984 0.410621 
-0.177358 1.182329 0.443109 0.500878 0.442318 0.692934 
1.017764 0.929540 2.266503 0.986583 0.116212 -0.091498 
0.137783 -1.223183 0.085618 -0.906699 -0.104211 0.249262 
-0.702653 0.121726 0.785195 -0.967711 -0.171961 -0.130289 
-1.190281 0.770229 2.646518 -0.951701 -0.272029 -0.061324 
-0.640053 -0.299598 1.079175 0.958228 0.144639 0.018655 
0.287126 -1.009903 0.087748 0.624766 -0.179439 -0.746809 
0.993201 0.298080 2.070459 0.956214 -0.078714 -0.221520 
-1.129176 0.881972 2.233467 -0.960228 -0.248742 -0.103698 
0.816604 -0.011859 3.098924 -0.903813 0.320456 -0.253133 
0.586224 -0.274081 0.621317 0.950901 -0.061774 -0.275854 
0.013663 -1.196484 -0.063416 0.595567 -0.628234 0.382869 
-0.518820 -0.455269 0.433936 0.705073 0.028172 0.518280 
0.365021 -0.504095 0.045716 -0.071730 -0.093606 0.934741 
-0.993611 0.298594 2.375054 0.941051 0.261726 0.034812 
0.626527 -0.431584 2.209824 0.811498 -0.571992 -0.037662 
-0.867146 0.693903 1.650326 0.910206 0.029581 0.216944 
-0.683516 0.042624 1.062492 0.950038 0.095072 0.206484 
-0.173676 -0.129584 0.254776 -0.299836 -0.199502 0.919758 
0.818679 0.215913 3.288855 0.901005 -0.233956 0.356281 
0.630696 0.291954 0.961172 -0.901157 -0.144944 0.360306 
-0.542385 -0.048976 0.287625 -0.907973 -0.089235 -0.365680 
-1.004248 0.823763 1.949223 0.843551 0.221241 0.441123 
1.059026 0.277995 2.470721 0.879668 -0.392770 -0.221932 
-0.313600 0.320179 -0.191762 -0.575666 -0.030866 -0.814068 
0.192116 0.660347 -0.226991 0.456493 0.263175 -0.837838 
-0.098355 1.173284 0.003701 -0.503263 0.415333 -0.747196 
-0.873140 0.788236 1.409506 -0.898761 -0.427711 -0.035442 
0.506967 -0.396111 0.449155 -0.707622 -0.017859 0.528326 
-1.037620 0.361881 2.506741 -0.909626 -0.383130 -0.024704 
0.552212 -0.062146 0.603182 -0.878574 -0.082494 0.374435 
0.678871 0.213926 0.989902 0.973620 -0.160455 -0.115503 
0.797540 0.806508 1.644562 -0.829052 -0.162544 0.413423 
-0.950135 0.605563 1.907033 0.898313 0.092388 0.360659 
0.745880 0.524373 1.285057 0.963706 -0.238763 -0.097109 
-0.162325 0.215561 0.343183 -0.324885 -0.169641 0.928182 
0.203507 0.369274 0.351525 0.336554 -0.123869 0.929128 
-0.179014 1.181749 0.101872 -0.796559 0.534889 -0.248420 
0.547313 0.050262 0.606234 -0.881256 -0.128608 0.373471 
