-0.882182 -0.381952 0.855342 -0.903625 0.080608 -0.323537 
0.203052 1.059365 0.333164 0.290445 0.738140 0.437152 
0.517256 0.671763 1.154622 0.966546 0.169453 0.128177 
-0.569340 0.436037 3.046091 0.915457 -0.338855 0.191936 
0.508564 0.619818 1.550295 -0.856201 -0.409708 0.211442 
0.040467 0.857516 -0.120013 0.433107 0.359032 -0.818066 
0.784942 -0.803703 0.766387 -0.667640 -0.373881 0.451777 
-0.454663 0.380421 2.263218 0.975109 -0.131327 0.130461 
0.668559 -0.106751 0.526147 0.902745 0.106172 -0.356545 
0.008814 -0.368906 0.275592 -0.117681 -0.304817 0.935672 
0.172865 0.618072 0.466773 0.215424 0.335961 0.886809 
-0.388780 -0.474807 0.079651 -0.788204 -0.056846 -0.579076 
-0.556550 0.643895 1.543956 -0.943930 0.137225 0.083706 
-0.460057 -0.065273 0.093299 -0.810729 0.007744 -0.560066 
0.123209 0.986048 0.479384 0.194008 -0.179518 0.961271 
-0.734146 -0.270914 2.654752 -0.868066 0.492495 0.056305 
0.496296 0.412614 0.573079 -0.946142 0.015544 0.226386 
-0.600910 0.599002 1.194929 0.876056 -0.445544 0.100141 
-0.468179 0.898883 1.673372 -0.922331 0.002042 0.227888 
-0.030404 1.316373 0.269762 -0.397647 0.714070 0.518157 
-0.502573 0.646859 1.704594 -0.874169 0.214596 0.331454 
-0.533755 0.393981 0.122632 -0.771405 0.207426 -0.527629 
0.025999 -0.116059 -0.205881 0.375658 -0.127800 -0.896307 
0.464128 0.606879 0.565659 -0.940148 -0.097231 0.223364 
-0.712069 0.137552 0.549893 0.681656 -0.340308 0.516115 
0.808201 0.722430 2.273195 0.869140 0.319963 -0.372965 
-0.287741 -0.960475 0.059589 0.252240 -0.173112 0.914824 
0.025585 0.122688 0.493283 0.135010 -0.247969 0.948471 
1.006749 -0.566043 1.163400 0.847814 0.417712 -0.171480 
-0.723999 0.496219 0.827358 -0.933440 0.305359 -0.095032 
0.370226 0.878063 1.196273 -0.948029 -0.305292 0.017089 
0.921614 0.329287 2.274596 -0.858249 -0.282541 0.402869 
0.932733 0.249981 2.264653 0.796529 0.106337 -0.567618 
-0.180805 0.465889 -0.123722 -0.415702 0.013598 -0.904070 
0.713348 -0.979798 0.430408 -0.546886 -0.616730 0.509490 
0.241075 0.815297 0.390931 0.620914 0.116167 0.753154 
-1.023829 -0.333005 1.559059 -0.410154 0.401618 -0.507687 
-0.600263 0.072585 2.610375 -0.906302 0.386751 -0.009718 
0.556377 0.346213 0.272072 0.854349 0.158510 -0.376787 
-0.429552 0.616535 2.342328 0.970468 -0.207210 0.074519 
-0.859987 -0.460468 0.848065 -0.885306 0.065220 -0.355309 
0.608001 0.270111 1.512321 -0.926273 -0.298462 0.178895 
-0.254388 -0.899797 -0.021091 -0.079662 -0.086240 -0.991455 
-1.005218 -0.405024 1.211420 0.954174 -0.120124 0.263724 
1.130677 0.707741 2.837346 -0.805536 -0.390746 0.442322 
-0.576235 0.487995 3.118516 0.912491 -0.336041 0.204395 
-0.143543 1.148971 0.363545 -0.958261 -0.129879 0.062314 
0.767224 0.755838 2.209089 0.879048 0.312556 -0.357102 
0.810174 -0.741258 0.830797 0.752449 0.302547 -0.369202 
0.870759 1.014895 2.565020 0.853251 0.248945 -0.452382 
1.085075 0.412022 2.564769 -0.772517 -0.243942 0.575177 
-1.019411 -0.626817 1.279369 -0.946767 0.016693 -0.290038 
0.545915 -0.016818 0.260858 0.854269 0.045536 -0.474336 
0.111219 -0.238158 0.339339 0.130349 -0.337757 0.931459 
-0.292837 -0.187441 0.294548 -0.491386 -0.265513 0.821048 
-0.656069 0.385915 1.408454 -0.914797 0.283280 0.176198 
0.792495 -0.051973 0.873488 0.956137 0.194714 -0.170008 
-0.583474 0.663391 1.224042 0.872335 -0.454547 0.099217 
-0.916623 -0.198777 1.433140 0.236550 -0.371719 0.502243 
-0.662504 0.185086 3.059979 -0.915480 0.315001 -0.243960 
-0.445153 -0.136209 0.094823 -0.818804 -0.011627 -0.549164 
0.617349 -1.064513 0.214282 0.507841 0.615757 -0.597660 
-0.453873 0.564824 1.965747 0.874270 -0.342355 -0.287175 
0.761652 1.116021 2.418566 0.842479 0.394759 -0.364765 
0.889532 -0.350390 2.013160 -0.859318 -0.087795 0.469137 
-0.418034 1.081980 1.791302 0.946192 -0.269053 0.147208 
0.632780 -0.737645 0.525817 0.721079 0.163973 -0.512007 
-0.869575 -0.517204 0.907610 0.854386 -0.111138 0.390184 
0.898433 1.054495 2.642551 0.812251 0.452995 -0.350221 
-0.643706 0.262976 0.317873 -0.826993 0.151137 -0.481294 
-0.216885 1.129463 0.212985 -0.862549 0.469351 -0.138524 
0.799075 -0.218052 1.371004 0.805855 0.320923 0.251063 
-0.783847 0.016462 1.604444 0.565290 -0.486837 -0.052071 
0.012794 1.237546 0.369672 0.029390 0.728355 0.672305 
-0.844872 -0.056297 1.706757 0.709633 -0.538585 -0.158629 
-0.041916 0.688777 -0.160626 -0.286351 0.162493 -0.933939 
0.342935 0.797389 0.216868 0.892083 0.368952 0.095769 
-0.242860 0.492380 0.417849 -0.305708 0.032065 0.947052 
0.750391 -0.153984 0.747579 -0.843554 -0.243442 0.342835 
0.049693 0.020730 0.457472 0.149094 -0.305635 0.935282 
0.458622 0.894958 1.522127 0.933976 0.046122 -0.121326 
0.041187 0.642309 -0.163669 0.283628 0.104058 -0.946408 
-0.613278 0.496367 0.498922 -0.647591 0.704081 -0.228588 
-0.673336 0.398254 1.240521 -0.931574 0.274275 0.186271 
-0.269064 -1.110684 0.038670 0.307821 -0.131448 0.927381 
0.626276 0.338777 1.159529 0.959872 0.214938 0.017450 
0.114168 -1.120523 -0.131327 0.474806 0.252395 -0.821828 
0.106130 -0.105466 -0.176951 0.459743 -0.082579 -0.868171 
0.020767 0.500747 0.507115 0.091202 0.111893 0.978622 
0.475655 0.929249 1.598900 0.956642 0.154110 0.012407 
-0.545161 0.335461 2.826040 -0.942338 0.267311 -0.174696 
0.905661 0.133705 2.187998 -0.805020 -0.130743 0.556540 
-0.426603 0.672507 2.873794 0.927601 -0.355812 0.099738 
0.671718 -0.739237 0.586526 -0.664007 -0.278013 0.532987 
0.800630 -0.111831 1.007378 0.940901 0.210892 -0.157613 
-0.031809 1.110312 0.470683 0.028616 0.340956 0.914172 
-0.239902 1.077320 0.173020 -0.868845 0.435930 -0.217088 
0.781313 0.361549 1.941433 0.926974 0.257745 -0.210503 
-0.615390 0.342113 3.079989 -0.924667 0.274807 -0.246518 
0.688091 1.087575 2.264279 -0.824097 -0.333736 0.444319 
-0.012324 -0.056917 -0.213689 -0.376492 -0.102090 -0.899228 
0.439260 1.245682 1.719841 0.889050 0.331834 -0.310838 
0.504907 -0.074903 0.205476 0.850810 0.018782 -0.488194 
0.244802 -1.106272 0.031839 -0.324408 -0.152004 0.912486 
-0.320294 0.740885 -0.009730 -0.702035 0.512796 -0.435242 
0.979926 -0.498365 1.115280 0.865772 0.382377 -0.178286 
-0.276430 0.548732 0.394736 -0.424161 0.021141 0.872004 
-0.507962 1.255605 1.424091 -0.940439 0.336914 0.011819 
0.394857 0.888959 1.283567 -0.768631 -0.532117 0.335174 
-0.624154 -0.863109 0.539920 -0.728966 0.006738 -0.595567 
0.370716 -0.067923 0.259541 0.312208 -0.173578 0.859372 
-0.858388 -0.100588 2.102754 0.728931 -0.599970 -0.102469 
0.689531 0.550774 1.853625 0.910294 0.337970 -0.167722 
0.586995 0.479991 0.413920 0.908853 0.369437 -0.117025 
-0.561791 0.510998 1.647406 -0.932194 0.288099 0.158311 
-0.292492 0.268802 0.406302 -0.432262 -0.080727 0.885027 
-0.447485 1.019767 1.605119 0.868472 -0.458927 0.004525 
0.033850 -0.079743 0.413570 0.083825 -0.329274 0.937994 
-0.291394 -0.294012 -0.088790 -0.560893 -0.132794 -0.806324 
0.361415 0.579261 0.315008 0.280415 0.228805 0.827858 
-0.740499 0.083142 0.586703 0.712140 -0.308389 0.481326 
-0.532140 -0.977840 0.275135 0.539310 -0.258136 0.722299 
-0.231549 -0.516707 -0.065092 -0.022402 -0.255491 -0.918645 
-0.534578 -0.144572 0.270610 0.355895 -0.264642 0.796110 
0.755073 -0.740601 0.728593 -0.686588 -0.330616 0.461154 
-0.760242 0.261777 0.848298 0.865974 -0.388720 0.268059 
-0.750394 -0.918836 0.572571 0.638247 -0.439792 0.497987 
0.648023 0.174277 0.517044 0.900181 0.155620 -0.301908 
-0.630971 -0.361094 0.405101 0.527477 -0.174824 0.649449 
-0.240172 0.521161 -0.113948 -0.457975 0.012906 -0.879583 
-0.831580 -0.159717 0.702456 0.815046 -0.184561 0.368226 
-0.431358 0.286665 0.330314 -0.054965 -0.272777 0.823259 
-0.258697 -0.882517 0.064757 0.204381 -0.246433 0.868100 
-0.298412 0.899534 0.264994 -0.907039 0.253391 0.195082 
0.513637 -0.063197 0.306743 -0.462913 -0.278186 0.758209 
0.660312 0.140041 0.748850 -0.839269 -0.424057 0.262689 
-0.377939 1.076453 2.233215 -0.847736 0.433820 0.218545 
0.455816 1.189403 1.819868 -0.743962 -0.340530 0.559963 
0.289707 0.035812 -0.078907 0.472791 -0.100902 -0.871329 
0.561448 0.045179 0.414528 -0.577104 -0.308774 0.655804 
-1.049242 -0.391203 1.429950 -0.169066 0.333757 -0.735830 
0.069736 1.264349 0.326256 0.202154 0.804154 0.544386 
0.159065 -0.241918 -0.150989 0.474070 -0.131546 -0.857140 
0.195294 -0.303453 -0.134742 0.493030 -0.147552 -0.847912 
-0.826803 -0.486734 0.789891 -0.866665 0.062059 -0.382481 
0.193955 0.738147 0.416568 0.341173 0.170725 0.890350 
0.626830 -0.159886 0.509620 -0.629205 -0.245761 0.567405 
0.110380 -0.323635 -0.164970 0.401353 -0.200394 -0.878200 
0.378491 0.000655 -0.033875 0.649615 -0.059705 -0.729090 
0.507072 -0.959786 0.279049 -0.525786 -0.236524 0.738882 
0.448694 0.674266 0.234362 0.744718 0.638374 -0.086712 
0.181758 -1.108951 -0.057023 -0.546094 -0.330203 0.728004 
0.631875 0.250613 1.443678 0.964417 0.220300 -0.074091 
0.536020 0.395248 0.843352 -0.873468 -0.426133 0.144183 
-0.040981 0.880818 -0.110026 -0.456818 0.365453 -0.798483 
-0.786612 0.330500 0.924079 -0.960043 0.139576 0.045811 
0.042000 -0.979138 -0.089570 0.285133 0.259973 -0.906612 
-0.370283 0.888381 2.583074 0.980302 -0.040231 0.082180 
0.515160 0.953088 1.786065 -0.740202 -0.505797 0.390489 
0.556168 0.654082 1.711888 -0.796912 -0.235965 0.522400 
-0.515261 0.336800 2.086504 0.793860 -0.509139 -0.316546 
-0.633483 -0.475952 0.408558 -0.797058 0.052195 -0.489898 
-0.446995 0.531887 2.033757 -0.955936 0.224548 0.162713 
-0.569655 -0.649755 0.322686 -0.728633 0.043446 -0.582444 
0.332667 -0.375511 0.213019 0.549342 -0.276386 0.785381 
0.518737 -0.747379 0.330112 0.696835 0.077469 -0.606469 
0.653698 0.485062 1.799497 -0.801482 -0.172204 0.569387 
0.345378 -0.393762 0.016833 0.836871 -0.086977 -0.533181 
1.009819 0.512987 2.505611 0.839338 0.387395 -0.363171 
0.384364 -0.186754 0.020417 0.832123 -0.055533 -0.545983 
0.105223 -0.341508 0.289108 0.080074 -0.358319 0.925213 
0.157298 0.031966 0.446861 0.320048 -0.270784 0.904446 
-0.236983 1.121120 0.550759 -0.260205 -0.657791 0.690293 
-0.737681 0.340402 0.652492 -0.914406 0.283481 -0.218277 
-0.543609 0.682014 1.485590 0.841557 -0.442944 -0.126872 
-0.232708 0.259862 -0.106252 -0.433120 -0.029555 -0.897192 
-0.057727 -0.425202 0.265391 -0.051056 -0.228095 0.970099 
0.506019 0.490590 0.144051 0.824648 0.267794 -0.363701 
-0.039097 -0.622235 0.210151 -0.303111 -0.360030 0.869395 
1.145010 0.325769 2.599097 -0.769082 -0.253820 0.576286 
0.182437 -0.659046 -0.042017 0.073670 -0.166983 -0.981023 
-0.786217 0.038650 1.671059 -0.763296 0.436246 -0.311087 
-0.199832 1.196285 0.530102 0.556999 0.488643 0.631250 
-0.589272 0.430029 1.514746 0.834197 -0.394625 -0.267007 
-0.724305 0.108141 1.855150 0.757795 -0.473227 0.291998 
0.571861 0.488232 1.537381 0.942476 0.143498 -0.150216 
-0.597179 0.503423 1.511607 -0.935865 0.213528 0.091651 
-0.077060 -0.601193 -0.056773 -0.047120 -0.206603 -0.962932 
0.545924 0.657857 0.966950 0.869419 0.417366 -0.157849 
-0.102552 -0.858524 0.046110 -0.006092 -0.463733 0.856066 
0.546122 0.936993 1.869833 -0.800201 -0.283489 0.514239 
-0.008392 0.453707 -0.197652 -0.383806 0.071279 -0.919085 
0.822241 -0.279529 1.347137 0.779144 0.336930 0.315758 
-0.786371 -0.383929 0.671586 0.819437 -0.163514 0.416434 
-0.208207 1.148615 0.279486 -0.840892 0.518039 0.006028 
-0.229700 -1.218656 -0.001275 0.202023 -0.051634 -0.942743 
-0.678435 0.242424 1.715059 -0.825487 0.477453 0.268954 
-0.799436 -0.797175 0.814742 0.749897 -0.162354 0.493655 
-0.182638 -0.881375 -0.025061 -0.082657 -0.014302 -0.981909 
-0.782387 0.038027 1.322599 0.919308 -0.334744 0.013181 
0.605312 0.375812 1.545542 0.940717 0.169340 -0.169369 
0.328134 -0.237936 0.254414 0.547063 -0.250615 0.795501 
-0.886092 -0.567426 0.964410 0.857960 -0.095730 0.391079 
-0.489201 1.117287 1.232840 -0.435559 0.564266 -0.550073 
0.778200 -0.217625 0.760022 0.925674 0.167320 -0.274476 
-0.036243 -0.500549 0.244452 -0.135708 -0.256687 0.939434 
-0.811297 0.179227 0.724375 -0.932014 0.226599 -0.235099 
-0.546733 0.544332 1.546427 0.804468 -0.386661 -0.330674 
0.606614 0.179412 0.333399 0.853889 0.102746 -0.449829 
0.249888 -0.348372 -0.110564 0.524048 -0.155257 -0.835395 
-0.540535 0.351904 2.022638 0.821272 -0.505376 -0.251658 
-0.423865 0.584861 2.543644 0.966611 -0.241838 0.059183 
-0.495544 -0.467197 0.223157 -0.795147 -0.010188 -0.536940 
0.352092 0.632393 -0.051877 0.602102 0.214851 -0.714148 
-0.568192 0.808553 0.855934 0.972686 -0.192434 0.057985 
-0.478313 0.335128 2.493386 0.958062 -0.207509 0.168857 
0.253852 -0.214878 0.310813 0.446547 -0.278684 0.837370 
0.467872 -0.571408 0.192547 -0.390034 -0.176367 0.834277 
0.828284 -0.320530 1.422813 0.741219 0.366241 0.426071 
0.577259 0.166680 0.250614 0.836796 0.076211 -0.504024 
0.377758 0.725171 0.207624 0.900727 0.376228 0.121757 
0.412131 -0.659317 0.086497 -0.312545 -0.165645 0.924949 
0.841347 -0.325109 0.903198 -0.881621 -0.296477 0.260843 
-0.577172 -0.944548 0.370662 0.577143 -0.233616 0.684993 
-0.612036 0.587225 1.073398 0.876071 -0.436344 0.159137 
-0.268477 0.909646 0.094328 -0.798017 0.388556 -0.381328 
0.597331 -0.827478 0.453828 -0.607021 -0.250077 0.624121 
-0.680872 0.174556 2.009161 -0.766521 0.560403 0.306995 
-0.402453 1.274880 1.644139 0.952032 -0.247333 0.106767 
-0.718927 0.145116 1.495458 -0.844424 0.394466 -0.042291 
1.103241 0.337150 2.537723 -0.763018 -0.235521 0.593223 
0.167401 0.478456 -0.131203 0.426042 0.014686 -0.898131 
-0.689156 -0.387834 0.497388 0.671100 -0.174112 0.543027 
0.845548 0.391190 2.143538 -0.871735 -0.229977 0.424015 
0.666984 -0.099426 0.595618 -0.716107 -0.262381 0.485868 
-0.919203 -0.342190 0.914813 -0.925425 0.086413 -0.290890 
0.611572 0.327907 1.377365 0.964246 0.213297 -0.031003 
0.576927 -0.153052 0.370836 0.882941 0.052526 -0.411687 
-0.778875 -0.462759 0.688339 0.803431 -0.149079 0.442138 
-0.460930 1.112875 1.439372 0.846426 -0.518184 0.086638 
-0.561635 0.893882 1.349931 -0.917736 0.018816 0.303974 
-0.451356 1.094171 1.305902 0.969736 -0.186131 -0.060976 
0.945014 -0.758604 0.977356 0.742323 0.525474 -0.264208 
0.623135 0.231614 0.786084 -0.842634 -0.491303 0.217396 
-0.177124 1.192919 0.232190 -0.771711 0.593765 -0.121173 
0.429539 -0.051228 0.223381 -0.142972 -0.242886 0.859073 
-0.702299 -0.606474 0.582594 0.733562 -0.141116 0.534739 
-0.788125 0.229841 0.916209 0.918977 -0.295358 0.219332 
0.283442 -1.173991 0.006404 0.592361 0.055454 -0.768135 
-0.127600 0.722474 0.429408 -0.117396 0.101893 0.980546 
-0.295327 0.464975 0.375575 -0.271314 0.002913 0.959166 
-0.423072 0.797620 2.133025 -0.978815 0.082653 0.129360 
-0.059918 1.196297 0.411162 0.156097 0.677058 0.701141 
0.123022 -0.086587 0.402173 0.212743 -0.304751 0.921706 
-0.730713 0.439310 0.782015 -0.806222 0.473304 -0.206643 
0.496606 -1.123920 0.141340 -0.113192 -0.363361 0.653385 
-0.308697 -0.352888 -0.042275 -0.689291 -0.118983 -0.684802 
-0.550096 0.397329 1.899061 -0.803493 0.466650 0.354869 
0.268368 -0.487386 -0.090367 0.530579 -0.147712 -0.830669 
-1.032063 -0.513324 1.351307 -0.965408 0.091984 -0.228260 
-0.081627 0.034521 -0.192613 -0.474442 -0.018723 -0.869442 
0.723972 0.042886 0.885799 -0.905136 -0.315797 0.251784 
-0.824107 0.062861 0.609537 -0.906873 0.139888 -0.330091 
0.971031 -0.572011 1.102192 0.839234 0.391244 -0.201708 
-0.722832 0.094620 2.028143 0.750651 -0.539962 -0.016706 
0.421146 -0.965259 0.168897 0.605229 0.048335 -0.733461 
0.804640 0.079094 1.916238 -0.679535 -0.038486 0.719953 
-0.807172 -0.126348 0.640399 -0.933491 0.091662 -0.290814 
0.973599 0.974348 2.739413 0.836483 0.206973 -0.505291 
-0.706450 0.169730 1.369126 0.907007 -0.392892 -0.069738 
-0.471954 1.084936 1.376089 0.847751 -0.510985 0.112680 
0.048331 -0.271076 -0.190274 0.353701 -0.202017 -0.896787 
0.277852 -0.951064 0.059813 -0.231744 -0.176158 0.914669 
1.272382 0.777835 3.126529 -0.813464 -0.282491 0.503397 
0.574043 0.548244 0.933871 0.953565 0.234877 0.127952 
0.290465 0.429764 0.385067 0.265111 -0.042472 0.958122 
0.934311 0.965035 2.658748 0.842446 0.231603 -0.481681 
0.106361 0.284477 0.517522 0.282798 -0.061169 0.939465 
0.509053 0.481618 0.589123 -0.965065 0.061515 0.192310 
0.622721 0.379916 1.041080 0.958231 0.210858 0.055172 
-0.610829 -0.022828 0.307480 -0.851538 0.058980 -0.464176 
0.300798 1.084897 1.372938 -0.958099 -0.263525 -0.005167 
-0.379577 -0.384288 0.156914 -0.199311 -0.225005 0.883571 
0.589875 -0.141782 0.441391 -0.570948 -0.252352 0.631667 
1.135635 0.884918 2.973166 -0.810269 -0.186668 0.532213 
0.384323 0.572963 -0.004606 0.633787 0.173650 -0.645773 
-0.400515 -0.070247 0.243009 -0.187189 -0.194557 0.884458 
-0.039644 1.383515 0.157367 -0.598722 0.710086 -0.330812 
-0.520793 0.507817 2.978746 0.919912 -0.344894 0.159486 
0.331892 -0.862852 0.011224 0.636839 -0.031177 -0.748438 
-0.547425 0.292257 2.757375 0.941261 -0.278767 0.161752 
0.477771 -0.608018 0.254310 0.749942 0.027664 -0.573884 
0.863371 -0.041166 2.025162 -0.743427 -0.061063 0.639393 
-0.415548 0.647585 2.642275 -0.972429 0.188792 -0.090294 
-0.574373 0.266426 2.845314 0.932435 -0.304624 0.171654 
0.874257 -0.249644 2.001275 -0.818944 -0.077392 0.526601 
0.509135 0.740375 1.672990 -0.793510 -0.269396 0.497471 
-0.184322 1.052661 0.399808 -0.613837 0.698326 -0.103761 
0.953616 0.536649 2.427729 0.845530 0.399345 -0.337452 
0.467720 0.807292 1.290442 0.976921 0.112907 0.090337 
-0.081563 -0.814628 -0.070438 -0.128534 0.053905 -0.946805 
-0.389373 0.803881 2.788159 0.952852 0.072286 0.267017 
-0.844601 -0.068741 1.473079 -0.489132 0.354086 -0.476356 
0.741083 -0.032320 1.698962 0.842333 0.036745 -0.291673 
-0.701502 0.037538 0.424440 -0.869759 0.097261 -0.417148 
0.704409 -0.236394 1.552994 0.886989 0.041932 0.095574 
-0.718879 0.109711 1.713990 0.785129 -0.542737 -0.157721 
-0.640828 0.633313 1.118173 -0.942492 0.150418 0.249387 
0.127691 1.073396 0.478395 -0.077558 0.019992 0.929813 
-0.877647 -0.108897 1.222436 0.935151 -0.258064 0.132187 
0.636335 0.156385 0.671338 -0.786171 -0.406214 0.355738 
0.616432 0.662755 1.762654 0.925897 0.269749 -0.123426 
0.586603 0.347920 0.741267 -0.986303 -0.008728 0.036022 
0.554571 0.053290 0.250685 0.846633 0.055436 -0.488162 
1.050266 -0.567135 1.373769 0.803739 0.485205 0.098024 
-0.462014 1.072744 1.695376 -0.972386 0.092520 0.196665 
-0.839219 -0.047515 1.625361 -0.648566 0.417175 -0.391570 
0.862124 -0.310700 1.113004 -0.837486 -0.335966 -0.071327 
-0.621548 0.468621 1.350768 0.884821 -0.441274 -0.006720 
-0.544352 0.534005 0.263274 -0.792763 0.480397 -0.237647 
0.204352 0.311774 0.485848 0.437879 -0.017493 0.892076 
-0.500953 0.267589 2.480872 0.953239 -0.201943 0.201431 
-0.655073 -0.007438 0.369334 -0.862981 0.074644 -0.436934 
0.843353 -0.501600 1.856499 0.916573 0.062350 -0.236965 
0.492741 0.575000 0.668251 -0.936556 -0.271569 0.125847 
-0.444888 -0.110804 0.199493 0.104241 -0.255531 0.886959 
-0.327628 -0.544083 0.135599 -0.202235 -0.230437 0.917772 
-0.602940 0.567454 0.748763 0.915347 -0.203725 0.225316 
-0.542553 0.605393 0.660133 0.879745 -0.274730 0.368981 
-0.716214 0.265455 0.545113 -0.884107 0.216343 -0.334711 
0.158331 1.220528 0.333050 0.491903 0.812419 0.141457 
-0.215338 0.828704 -0.048946 -0.558578 0.459654 -0.677645 
-0.946665 -0.237548 1.216360 0.944552 -0.208728 0.209616 
0.468814 0.042448 0.236381 -0.416906 -0.311015 0.823917 
0.815948 -0.878972 0.676980 0.650073 0.560743 -0.395524 
0.935640 -0.473573 1.038429 0.866019 0.342665 -0.208675 
-0.511953 0.870429 1.110673 0.972795 -0.201074 -0.077966 
-0.463196 0.289772 2.225435 0.942306 -0.293209 -0.066933 
-0.658166 0.111419 2.205839 0.730760 -0.591315 -0.324471 
-0.517645 0.251554 0.072876 -0.771776 0.091755 -0.615239 
-0.759629 0.075910 1.482402 -0.729045 0.379982 -0.176530 
0.695489 0.117168 0.646701 0.928180 0.182918 -0.229185 
-0.302463 -0.403999 0.216356 -0.491081 -0.296162 0.809429 
0.710856 0.152302 0.967026 0.957323 0.202946 -0.065230 
-0.720986 0.196142 1.261757 0.908578 -0.373302 0.000025 
0.760087 -0.476812 1.642053 -0.907564 -0.042366 -0.152272 
-0.398911 0.648739 0.400878 -0.552151 0.816988 0.053555 
-0.895527 -0.156596 2.154096 0.725359 -0.629195 -0.195853 
-0.665465 0.386975 0.478649 -0.866195 0.297046 -0.282807 
-0.377144 1.148600 1.981557 0.994034 -0.079915 -0.007386 
-0.505574 -0.238368 0.221180 -0.856778 -0.016640 -0.474347 
1.169807 0.449409 2.729111 0.821812 0.350455 -0.439264 
1.329474 0.416220 2.971110 0.809356 0.332736 -0.483153 
1.322977 0.260246 2.847204 -0.792311 -0.328414 0.509593 
0.923588 0.732455 2.511048 -0.831019 -0.274688 0.478770 
-0.872142 0.009849 1.024407 -0.950904 0.219199 -0.105799 
0.153113 0.542442 0.489106 0.374301 0.075366 0.922442 
-0.463479 1.190723 1.605564 -0.961667 0.066301 0.229027 
-0.763960 0.353790 0.722624 -0.934352 0.311238 -0.153450 
0.061619 -0.043795 -0.196248 0.432446 -0.070571 -0.880242 
0.717180 0.220075 1.801839 -0.892426 -0.218070 0.284799 
-0.426195 1.050166 1.938907 -0.957463 0.029114 0.223020 
1.008011 -0.059372 2.341760 0.808925 0.086831 -0.580269 
-0.525711 0.571915 3.048767 -0.942956 0.208489 -0.239170 
0.145522 1.159232 0.089283 0.568221 0.477913 -0.642373 
-0.462120 0.466712 2.657823 0.958701 -0.258692 0.096147 
-0.490222 0.760992 1.678376 -0.888407 0.120106 0.298425 
-0.365235 0.976375 2.359925 0.989999 -0.115429 -0.037653 
0.852580 -0.348829 1.927083 -0.844461 -0.078423 0.480876 
0.739498 0.141696 1.834468 -0.833709 -0.129054 0.525312 
0.478917 0.641885 0.907418 -0.961655 -0.190961 -0.175962 
0.644528 0.459002 1.733921 -0.918091 -0.358530 0.067043 
-0.479161 0.883362 1.519823 0.805074 -0.443271 -0.177899 
1.266486 0.119493 2.641445 -0.760174 -0.272769 0.582682 
0.465381 -0.942723 0.221175 -0.522934 -0.191752 0.773304 
0.702311 -0.632788 0.642183 0.769312 0.195522 -0.432624 
0.667187 -0.407566 0.593329 -0.762420 -0.212673 0.459283 
0.227276 1.088967 0.154166 0.830016 0.438656 -0.294257 
-0.574162 0.128850 0.200302 -0.812222 0.081247 -0.536966 
-0.534590 0.336294 0.309335 0.459676 -0.476874 0.747262 
-0.403012 1.225587 1.570863 0.947287 -0.251572 -0.011633 
0.374179 1.156179 1.485155 0.958457 0.123556 0.115181 
0.510584 0.562588 0.976920 -0.816778 -0.497328 0.290075 
-0.595833 0.902210 1.146935 -0.945876 0.228025 0.129649 
1.311197 0.705850 3.133737 0.817593 0.297469 -0.489607 
-0.729388 -0.624026 0.650353 -0.806166 0.039671 -0.475674 
0.512987 0.477162 0.897212 -0.871385 -0.432885 0.152910 
-0.507534 0.544564 1.617954 0.794514 -0.334448 -0.419588 
-0.347020 -0.129819 0.274123 -0.513933 -0.230464 0.813843 
0.237835 -0.570395 0.178656 0.312574 -0.301144 0.898251 
-0.815895 0.023056 1.177424 0.928317 -0.297486 0.069579 
0.660561 -0.668686 0.572162 -0.689959 -0.256020 0.521341 
-0.001955 -0.879705 0.065041 -0.577012 -0.386234 0.703528 
0.506981 -0.535907 0.302187 0.781561 0.036548 -0.529508 
0.682360 0.093518 0.548577 0.901135 0.149716 -0.323871 
-0.777142 0.301478 0.993223 -0.953692 0.174510 0.051373 
0.824994 -0.412572 0.869527 -0.841067 -0.304799 0.301442 
1.122642 0.509639 2.695075 -0.805648 -0.301718 0.502174 
-1.099969 -0.419326 1.731524 0.648097 -0.521832 0.203035 
-0.461526 0.307027 0.006692 -0.666811 0.059595 -0.715309 
-0.224436 -0.014919 -0.116968 -0.478170 -0.079849 -0.866941 
-0.053320 1.149876 0.048879 -0.408762 0.396921 -0.809541 
-0.427569 0.730749 2.114717 0.969956 -0.190201 0.082127 
-0.711659 -0.856620 0.634016 -0.729842 0.150236 -0.523975 
0.370405 -0.289878 0.197122 0.275243 -0.215961 0.855132 
0.975192 -0.063533 2.278098 0.829885 0.090709 -0.530248 
0.657040 0.396224 1.765653 -0.904970 -0.294789 0.219327 
0.312236 0.541452 0.365408 0.405728 -0.038828 0.876138 
-0.406866 0.570376 0.047444 -0.638905 0.282216 -0.542799 
-0.151690 -0.031096 -0.157290 -0.488331 -0.052539 -0.861781 
-0.602416 0.486029 0.573122 -0.589255 0.756963 -0.196122 
0.187505 1.113362 0.529159 -0.275388 -0.065741 0.887161 
-0.367370 -1.007495 0.065003 -0.593040 -0.014280 -0.793571 
-0.860965 -0.077092 1.942756 -0.767437 0.578748 0.225468 
0.594087 0.889424 1.889611 0.898566 0.103565 -0.363449 
-0.574387 0.496187 0.315606 -0.810842 0.432364 -0.251453 
-0.956053 -0.232328 1.147490 0.947957 -0.195652 0.229145 
-0.377146 0.837079 2.675666 0.973940 -0.086756 0.124380 
-0.217163 0.824763 0.407644 -0.569916 0.040667 0.804796 
-0.530709 0.622934 1.645238 -0.839802 0.280108 0.419999 
0.552597 0.598874 1.622422 -0.876966 -0.410318 0.131408 
-0.531646 0.388286 2.869267 0.927958 -0.329216 0.152233 
-0.877514 0.093858 0.895828 -0.961875 0.155482 -0.099788 
-0.019660 0.164427 -0.221594 -0.446528 0.022036 -0.885489 
-0.460619 0.711315 1.809108 0.924377 -0.306802 -0.123217 
0.804601 1.116451 2.516628 0.796654 0.513377 -0.310582 
-0.716781 -0.447212 0.531309 -0.817021 0.079152 -0.444320 
0.682050 0.915200 2.102923 0.899927 0.264022 -0.317020 
-0.068931 0.912577 0.478501 -0.214874 -0.095362 0.963480 
0.219900 1.053094 0.481427 0.392765 -0.527546 0.667587 
-0.071621 0.442833 0.514821 -0.198047 0.076897 0.958643 
1.166201 0.522932 2.776067 -0.815148 -0.331082 0.474123 
-0.148338 0.853127 -0.073353 -0.513910 0.432854 -0.727259 
-0.190762 0.393723 0.491509 -0.364471 0.027622 0.928456 
-0.354089 0.050944 0.325304 -0.529703 -0.196156 0.823542 
1.014251 0.656058 2.612186 0.831930 0.314921 -0.451192 
-0.541335 0.538443 0.507174 -0.603304 0.757748 -0.123369 
-0.381702 0.001595 0.281890 -0.334889 -0.178835 0.868447 
-0.383703 1.102855 2.163763 -0.829894 0.449368 0.229387 
-0.520924 -0.726820 0.257152 -0.697518 0.030474 -0.630962 
0.022444 -0.543497 -0.071360 0.293146 -0.372827 -0.869760 
-0.018589 1.098345 0.018019 -0.311266 0.430175 -0.840346 
0.472148 0.664201 1.386450 -0.827399 -0.443296 0.276647 
-0.324839 -0.035125 0.319001 -0.508442 -0.223954 0.825559 
-0.338172 0.749683 0.058401 -0.791437 0.466798 -0.298188 
-0.430739 0.627830 2.801054 -0.965244 0.176546 -0.177437 
0.061191 0.712685 -0.150802 0.298081 0.205647 -0.919552 
-0.073371 0.838403 0.461538 -0.206632 -0.199175 0.949595 
-0.992095 -0.275922 2.024914 -0.771764 0.597177 0.126357 
0.159956 -0.281376 0.312712 0.193324 -0.330566 0.915856 
-0.402962 1.044711 2.008229 0.949960 -0.271493 0.077881 
0.551408 0.454715 1.059408 -0.846577 -0.439221 0.269466 
1.146298 0.379055 2.643156 -0.777491 -0.264997 0.558526 
0.685898 -0.872255 0.568359 0.667442 0.304554 -0.498867 
-0.891952 -0.772686 0.939979 0.791406 -0.240888 0.398350 
-0.309164 0.862039 0.136977 -0.879698 0.373500 -0.228565 
-0.626350 0.364172 1.470632 0.870369 -0.416422 -0.157054 
-0.606657 0.505289 1.440007 0.883118 -0.451124 -0.044029 
-0.599761 -0.076247 0.370368 0.467844 -0.276829 0.696846 
-0.678154 0.485923 0.772396 -0.617442 0.666744 -0.368395 
0.306302 -0.310902 0.250253 0.522939 -0.275362 0.801415 
-0.254373 -0.692929 -0.035912 0.095015 -0.195336 -0.965150 
0.807166 -0.345110 0.843582 -0.863895 -0.279275 0.296511 
0.838254 -0.432684 1.859796 0.906150 0.062093 -0.289622 
-0.539691 0.231925 2.600459 -0.926434 0.333974 -0.041375 
-0.429010 0.775033 2.059100 -0.973373 0.090168 0.154047 
-0.445566 0.858589 1.764930 0.867152 -0.414539 -0.140501 
-0.627360 0.604365 0.802311 -0.712479 0.535053 -0.416067 
0.292686 1.346267 1.513360 0.755515 0.567789 -0.053238 
0.606930 -0.631749 0.478227 0.752139 0.121206 -0.509607 
1.087127 0.886834 2.885541 -0.806842 -0.401735 0.430122 
0.329435 1.104914 1.528152 -0.698119 -0.309769 0.631383 
-0.691839 0.158954 1.798422 0.772756 -0.445553 0.349178 
0.692861 0.106067 1.334427 0.962376 0.217323 -0.135990 
-0.505571 0.522257 0.156261 -0.759616 0.419354 -0.340224 
0.145220 -0.720486 -0.035456 0.021287 -0.120989 -0.987432 
-0.511457 0.395467 2.775294 0.941832 -0.294359 0.132762 
-0.374572 0.881444 2.495270 0.966047 -0.229628 -0.067468 
0.041042 0.568229 -0.171678 0.342482 0.078386 -0.930441 
0.245874 -0.657020 0.141703 0.212843 -0.289948 0.886405 
0.918214 -0.537658 1.010394 0.841147 0.342856 -0.236897 
-0.043345 0.653398 0.458879 -0.039174 0.223616 0.958758 
0.940261 0.818410 2.587163 0.838900 0.279171 -0.464987 
0.611769 1.199106 2.154139 -0.843120 0.095153 0.481600 
0.637078 -0.013570 0.431557 0.880165 0.095760 -0.407078 
-0.424308 1.214615 1.855703 -0.917802 0.272585 0.201853 
-0.539729 0.824275 1.299402 0.863051 -0.477214 0.095582 
1.054885 0.961452 2.872097 0.781911 0.501421 -0.336946 
1.066017 -0.062151 2.384109 -0.789711 -0.134424 0.592534 
-0.445590 0.977133 1.666375 0.880918 -0.421482 -0.053153 
0.810351 0.175000 1.966106 -0.713352 -0.076888 0.669149 
0.888519 -0.087152 2.073107 -0.768902 -0.070372 0.607793 
0.758373 0.541836 2.009100 0.889607 0.281296 -0.352395 
-0.568777 0.741159 0.806152 0.935696 -0.236902 0.164345 
-0.527577 0.141340 2.381718 0.942385 -0.212814 0.192171 
0.539992 0.608210 0.905542 0.735383 0.561322 -0.346746 
-0.029928 -0.964901 -0.085976 -0.291206 0.250305 -0.907675 
-0.473499 -0.177180 0.151737 -0.835357 -0.012488 -0.516188 
1.259275 0.180837 2.676400 0.788725 0.324528 -0.501803 
-0.401624 0.681632 0.209992 -0.333301 0.858823 0.046108 
0.501440 -0.298377 0.248520 -0.372652 -0.208792 0.814670 
0.673297 0.240776 1.030980 0.958157 0.207492 -0.022687 
1.005108 -0.449338 1.157094 0.886977 0.391436 -0.147102 
-0.380159 1.006725 2.222356 0.962934 -0.236271 -0.040965 
-0.125357 1.171924 0.085967 -0.547952 0.429939 -0.707133 
-0.956128 -0.224542 1.607281 -0.539087 0.420419 -0.422829 
-0.604663 0.493948 3.204820 -0.879914 0.388222 -0.168151 
0.435961 0.206757 0.001592 0.702007 -0.006304 -0.684020 
-0.632273 -0.069799 2.516973 0.903469 -0.355051 0.069631 
-0.195673 1.132325 0.141617 -0.750770 0.470207 -0.379624 
0.482794 0.239995 0.044752 0.798872 0.029805 -0.595922 
-0.626237 0.417034 0.675969 0.970512 -0.043354 0.184545 
0.369784 -0.456094 0.061476 0.811130 -0.062704 -0.550890 
0.694229 -0.165378 0.596716 0.918648 0.115937 -0.320365 
-0.564993 0.823874 0.965616 0.911491 -0.023610 -0.185212 
-0.398582 0.144969 -0.026535 -0.603629 -0.009265 -0.766200 
0.566678 -0.670199 0.411948 -0.663270 -0.197420 0.603169 
0.774324 -0.011847 0.808122 0.957968 0.206040 -0.172987 
0.331281 0.383774 0.345506 0.296942 -0.085052 0.936790 
-0.137277 -0.274863 -0.157358 -0.445182 -0.160311 -0.864671 
0.726855 0.351715 1.764404 0.917197 0.197163 -0.313634 
-0.218574 0.909260 0.004886 -0.653529 0.432392 -0.613770 
-0.142542 -1.112873 -0.115246 -0.498309 0.209374 -0.822861 
-0.460988 0.363476 2.161327 0.796151 -0.439194 -0.372500 
0.686535 0.301636 1.734541 -0.945783 -0.312553 0.016534 
0.782898 -0.698233 0.778849 -0.711759 -0.339077 0.424236 
-0.603409 -0.625078 0.378301 -0.744876 0.049158 -0.556814 
0.708280 -0.314829 1.551225 -0.913486 -0.064986 -0.320313 
-0.460153 0.203993 0.002504 -0.705017 0.054266 -0.688014 
-0.450628 0.935388 1.730597 -0.939388 -0.050285 0.186489 
-0.049239 -0.896122 -0.078976 -0.212523 0.161387 -0.925002 
0.589678 0.554634 1.667904 -0.896680 -0.400449 0.076806 
-0.723686 0.204752 0.654467 0.738617 -0.422490 0.423134 
-0.626021 0.173067 2.929058 0.920734 -0.324644 0.206149 
0.099963 -0.761669 0.110875 0.104898 -0.429991 0.870805 
0.569226 -0.749938 0.416959 0.705246 0.117237 -0.566162 
-0.863160 -0.070707 1.873461 -0.780689 0.565493 0.210462 
-0.758327 -0.230039 2.567587 -0.829862 0.527172 0.114426 
-0.426872 1.447918 1.478186 -0.641176 0.127189 -0.653545 
0.502004 -0.448032 0.290238 0.818793 0.021267 -0.492304 
0.220674 -0.810880 0.092503 -0.103226 -0.291698 0.867443 
-0.606779 0.366439 0.301172 -0.821649 0.212393 -0.437374 
-0.645754 0.337952 3.164436 -0.917620 0.286399 -0.262029 
-0.787043 0.003822 2.127571 -0.729016 0.607634 0.308608 
-0.351469 0.255533 0.348625 -0.422635 -0.117681 0.882532 
0.119090 0.164242 0.492229 0.284384 -0.187451 0.926739 
0.366868 0.497311 0.353565 -0.781199 -0.013052 0.502795 
0.784786 -0.462311 1.712703 -0.914211 -0.063968 -0.040191 
-0.088995 -0.068347 -0.184981 -0.453117 -0.071192 -0.871906 
1.215270 0.210160 2.626496 -0.764497 -0.265511 0.578797 
-0.680588 -0.007871 0.492767 0.603099 -0.284712 0.575411 
-0.476392 0.564450 2.897335 -0.954568 0.191758 -0.211462 
-0.577884 0.077263 2.345686 -0.892674 0.421407 0.075684 
0.893498 0.824529 2.506963 -0.828252 -0.310310 0.463033 
0.756957 0.422395 1.970104 -0.825464 -0.187914 0.507026 
1.222155 0.143823 2.584180 0.785727 0.325319 -0.497284 
0.041469 0.938347 -0.067877 0.413720 0.507552 -0.741202 
-0.517040 0.504560 1.762977 -0.858810 0.335983 0.355494 
-0.521425 0.902685 1.291966 0.858274 -0.485390 0.116167 
-0.450081 0.405068 2.482569 0.964258 -0.206734 0.137553 
1.019450 0.371774 2.418725 0.833964 0.414927 -0.336288 
1.203893 0.559965 2.856222 0.816721 0.290914 -0.493276 
-0.819772 -0.848317 0.750727 -0.731228 0.326617 -0.435550 
-1.035370 -0.542996 1.283898 0.957542 -0.060098 0.276378 
-0.593273 0.667928 1.064614 0.871148 -0.444686 0.180897 
0.434964 -0.276664 0.149828 0.859761 -0.034398 -0.482094 
-0.781928 -0.049223 2.282021 -0.741719 0.595401 0.261124 
0.742986 0.608705 2.061117 -0.875160 -0.316953 0.354535 
-0.011278 -0.993012 -0.024105 -0.515103 -0.448166 0.707468 
0.037463 0.206509 -0.214638 0.466019 0.042959 -0.880189 
0.704820 0.661752 2.012263 -0.868995 -0.329229 0.355170 
0.210519 0.948474 0.022618 0.655129 0.426436 -0.616610 
-0.661368 -0.643699 0.513380 -0.771239 0.040632 -0.523746 
-0.740052 -0.391898 0.576743 0.783064 -0.174292 0.455577 
-0.459119 0.639288 0.285419 -0.694550 0.697160 -0.070002 
-0.511980 0.950316 1.548023 -0.881231 0.078923 0.351017 
0.299291 0.829476 0.322860 0.813324 0.231207 0.475814 
0.614981 0.275777 1.228762 -0.898272 -0.347782 0.220335 
-0.097409 -0.998128 -0.095107 -0.283867 0.259528 -0.913208 
0.541559 1.226956 2.010829 0.695806 0.640930 -0.216939 
0.950189 0.748557 2.572958 -0.831126 -0.300024 0.467323 
0.956789 -0.230468 2.198724 0.853313 0.081446 -0.500648 
-1.081632 -0.410003 1.617103 0.463053 -0.457807 0.404101 
-0.309123 0.404922 -0.073839 -0.448558 -0.034616 -0.889735 
1.320768 0.360632 2.919345 0.808096 0.336681 -0.482808 
-0.404707 -0.771138 0.082700 0.332491 -0.156245 0.913236 
-0.825545 -0.341807 0.711954 -0.879971 0.093720 -0.350953 
-0.292638 0.067510 0.371656 -0.463973 -0.216719 0.850578 
0.326847 -0.204680 -0.061987 0.618409 -0.107971 -0.754051 
-0.515036 1.066328 1.448381 -0.907745 -0.069415 0.339401 
-0.671094 0.104250 0.355646 -0.847872 0.103064 -0.459473 
0.230922 -0.427010 -0.101621 0.417062 -0.225960 -0.850604 
-0.677375 -0.074575 2.439820 0.771547 -0.558942 -0.234194 
1.002000 -0.711992 1.100077 0.777423 0.524793 -0.207707 
-0.747523 0.094920 1.650174 -0.772114 0.423949 -0.315571 
0.573549 0.551429 1.570366 0.904332 0.118755 -0.245830 
0.669910 -0.600063 0.585521 0.774425 0.163342 -0.451645 
-0.295693 -0.987314 -0.009108 -0.166418 -0.056223 -0.957210 
0.357018 0.725136 0.277742 0.854311 0.307488 0.349980 
-0.688712 0.238085 1.328843 0.901507 -0.402512 -0.037625 
0.690765 0.836746 2.082843 0.896928 0.291614 -0.306650 
-0.564105 0.900626 1.066672 -0.598167 0.529611 -0.507393 
0.219331 -1.300678 0.011337 -0.758032 -0.286076 0.344998 
-0.366292 0.254649 -0.036869 -0.494507 -0.037175 -0.847353 
0.268947 0.107640 -0.088640 0.464880 -0.078231 -0.877305 
-0.840562 -0.029887 1.811607 -0.788839 0.553163 0.218534 
0.333874 0.125579 0.350254 0.545514 -0.173269 0.817663 
0.828658 0.437129 2.084119 0.894610 0.249880 -0.364813 
0.811100 0.887383 2.372539 -0.810133 -0.315412 0.485362 
1.217573 0.079134 2.525527 0.776325 0.313496 -0.515781 
-0.248179 -1.310845 0.019453 0.608190 -0.296726 0.469362 
-0.162025 0.562256 0.476017 -0.353290 0.084316 0.929831 
0.380715 1.232225 1.604454 0.970366 0.182159 -0.117752 
-0.270219 -0.359946 -0.100365 -0.544180 -0.156398 -0.820185 
0.091362 1.213075 0.100331 0.535611 0.332051 -0.758915 
1.060319 -0.662845 1.227858 0.814590 0.520802 -0.149557 
-0.839090 -0.580936 0.868242 0.825649 -0.106593 0.428723 
0.539247 0.440042 0.656144 -0.972478 0.011606 0.123495 
-0.117483 -0.669507 -0.045361 0.018035 -0.142396 -0.985959 
-0.291277 -0.308837 0.257640 -0.497730 -0.289286 0.809164 
-0.165347 0.206359 0.490364 -0.355353 -0.137791 0.911618 
-0.751291 0.202585 1.120719 0.913584 -0.339365 0.088794 
1.120471 0.659430 2.785237 0.822977 0.278059 -0.490689 
-0.692488 0.167889 1.648517 0.778389 -0.512233 -0.331991 
0.394531 1.122853 1.355433 0.875230 0.465457 -0.101192 
-0.405203 -0.682140 0.087501 0.259163 -0.163523 0.927832 
0.333441 0.407661 -0.069277 0.484342 -0.051052 -0.871229 
-0.483393 0.623673 3.010105 0.941288 -0.226343 0.232664 
-0.514248 0.568350 0.578266 -0.605605 0.724664 -0.139637 
0.110053 0.769152 -0.112721 0.462024 0.346287 -0.784329 
-0.277367 -0.428917 -0.078949 -0.590701 -0.146924 -0.777570 
1.098021 0.787540 2.836797 -0.805941 -0.398628 0.434764 
0.563746 0.539276 1.063830 0.958468 0.215182 0.142993 
0.028926 0.685614 0.443545 0.036198 0.146600 0.978425 
-0.439034 1.218678 1.673980 -0.934172 -0.014958 0.328813 
0.397228 0.880064 1.486785 -0.786337 -0.489065 0.314116 
-0.632364 -1.019536 0.300452 0.527999 -0.543515 0.590058 
-0.430694 0.065156 0.002994 -0.731601 0.019109 -0.659142 
-0.156778 1.025274 0.486449 -0.205786 -0.302352 0.897989 
-0.548470 -1.027565 0.206614 -0.559211 0.389631 -0.642176 
0.948176 0.373132 2.332530 -0.861832 -0.347213 0.355631 
0.005022 -1.199258 -0.201702 0.283590 0.399111 -0.868814 
0.227142 -0.758883 -0.033350 0.007643 -0.144986 -0.979764 
-0.292995 0.143350 -0.075754 -0.445593 -0.077605 -0.887348 
0.844143 -0.236741 0.874108 0.929294 0.220855 -0.230575 
0.701777 0.612731 1.960904 -0.878268 -0.263543 0.398586 
0.588031 0.981143 1.930980 0.921447 0.250484 -0.247169 
-0.415150 0.688773 0.104445 -0.682179 0.645050 -0.202727 
0.823011 -0.532667 1.794653 -0.914981 -0.065459 0.108064 
-0.665988 0.195158 0.316988 -0.829736 0.121124 -0.490920 
-0.159475 0.972118 0.006902 -0.581345 0.443233 -0.662827 
-0.387104 1.150188 2.057792 0.931551 0.237884 0.104862 
0.540189 0.525318 0.443602 0.766060 0.591503 -0.106337 
0.237705 -0.888711 0.058459 -0.247586 -0.266729 0.852874 
-0.621148 0.807857 1.068000 -0.944015 0.217273 0.128938 
-0.307957 -1.056611 0.001813 -0.392238 -0.009263 -0.867962 
-0.884037 -0.122447 2.032666 -0.754126 0.596471 0.222280 
0.793182 -0.466949 1.444807 -0.773056 -0.238871 -0.524155 
0.453974 0.711815 0.842839 0.843949 0.486386 -0.218791 
-0.027659 -0.694555 0.177205 -0.364413 -0.401180 0.835238 
0.234684 1.090582 0.235483 0.881926 0.427807 -0.056073 
0.710947 0.160115 0.803092 0.964984 0.225921 -0.085132 
0.470309 -0.125555 0.159370 0.848129 -0.003911 -0.499410 
0.537298 0.554669 1.505433 0.971767 0.135601 -0.062095 
0.806966 0.328746 2.024570 -0.799364 -0.159910 0.534758 
0.978843 0.574756 2.496619 0.840367 0.370147 -0.377777 
0.404772 -0.135124 0.211419 0.036871 -0.192605 0.884928 
-0.914372 -0.157791 1.905992 0.771966 -0.545730 0.097368 
-0.796682 0.150643 1.110451 -0.942612 0.246080 0.002187 
0.735272 -0.468372 1.577863 -0.903246 -0.028581 -0.258629 
-0.516068 -0.363171 0.250791 -0.835430 -0.012820 -0.488025 
0.597618 0.735662 1.819012 -0.809739 -0.327378 0.441470 
0.842574 0.672296 2.306180 0.863599 0.341284 -0.362276 
0.400885 0.528526 0.418055 -0.903604 -0.019309 0.401413 
-0.237141 -1.046096 -0.001399 -0.064912 0.006450 -0.976612 
0.604384 -0.425984 0.462285 -0.624055 -0.201681 0.588645 
-0.667122 -0.327575 0.458883 0.581258 -0.176463 0.597962 
-0.760697 -0.614948 0.712651 0.770133 -0.122292 0.494458 
-0.073816 -0.280198 0.317415 -0.060870 -0.353008 0.928392 
-0.438282 1.181783 1.458141 0.833785 -0.518562 0.064991 
-0.774593 0.334991 0.849841 -0.950475 0.202601 -0.047312 
1.215528 0.810149 3.048593 -0.808820 -0.357888 0.460601 
-0.361077 0.744997 0.151110 -0.908102 0.373667 -0.067354 
-0.411670 0.071053 0.288710 -0.180847 -0.237969 0.843639 
0.115610 0.018507 -0.175950 0.485314 -0.026937 -0.865175 
0.824104 0.808798 2.348387 0.866722 0.286693 -0.403606 
-0.089420 0.157924 0.494258 -0.224709 -0.201798 0.939480 
-0.567753 0.785455 1.451886 -0.912988 0.075083 0.256435 
0.712887 -0.506853 1.506221 0.898580 -0.001215 0.356923 
0.128793 1.071418 0.043954 0.494676 0.433591 -0.731973 
1.103194 0.174816 2.426846 0.726970 0.115487 -0.664695 
-0.419488 0.662297 2.395726 -0.985057 0.140982 0.016194 
-0.407113 0.721608 2.616705 -0.975758 0.170932 -0.063160 
-0.430221 1.127920 1.620921 0.822538 -0.531508 -0.070493 
0.307074 0.283580 0.379073 0.423169 -0.097868 0.882301 
-0.418199 1.516438 1.505602 -0.796927 0.233334 0.313100 
0.703264 0.548989 1.930488 -0.855550 -0.230711 0.453656 
0.777334 -0.038237 0.982818 0.957628 0.199574 -0.175437 
0.447279 -0.201993 0.160052 -0.305071 -0.238534 0.897868 
0.281104 -0.104248 -0.087166 0.491127 -0.123340 -0.858385 
-0.946256 -0.193772 1.828203 0.790423 -0.527127 0.168602 
0.494161 0.774307 1.612131 -0.836307 -0.461777 0.172017 
-0.662397 0.410664 1.312569 -0.924274 0.268953 0.186318 
1.043238 0.906261 2.816640 0.830003 0.214023 -0.512749 
-0.064533 -0.916842 0.014805 -0.112258 -0.481200 0.820715 
-0.625856 0.590007 0.999267 0.878110 -0.421024 0.204043 
0.709183 0.742630 2.058991 0.868677 0.207793 -0.441300 
0.454964 0.123486 0.036303 0.807674 0.005982 -0.583004 
-0.264166 0.142506 0.411838 -0.433402 -0.194803 0.869595 
-0.678745 0.331628 1.212310 0.896453 -0.400088 0.044686 
-0.754206 0.057635 1.948542 0.742184 -0.514649 0.166377 
-0.399337 0.790538 2.626795 -0.977867 0.150129 -0.057962 
1.138007 0.277503 2.546199 0.811618 0.370262 -0.418073 
0.960148 0.680609 2.544392 -0.814739 -0.279379 0.499846 
1.054820 0.654157 2.677635 0.827564 0.300122 -0.472986 
-0.384381 0.951482 2.279521 0.961513 -0.244035 -0.030177 
0.357932 -0.796811 0.053837 0.665773 -0.023499 -0.708095 
-0.528515 0.224226 2.528780 -0.923342 0.347061 -0.000346 
-0.524414 0.983433 1.089370 0.764792 0.104656 -0.294159 
0.996686 0.147347 2.350035 -0.826701 -0.229667 0.478004 
0.063692 1.331315 0.235334 0.624695 0.666448 0.386527 
0.245125 0.674901 0.417061 0.458589 0.252925 0.812816 
-0.774804 -0.709383 0.792926 -0.820029 0.017577 -0.465552 
1.188830 0.286577 2.639754 0.809473 0.360928 -0.437447 
-0.789814 0.012152 2.033800 -0.739795 0.594776 0.304860 
0.732873 1.123978 2.355057 0.849222 0.378787 -0.363560 
-0.369552 -0.262099 0.207296 -0.313006 -0.220667 0.860731 
1.248936 0.006145 2.526649 -0.753445 -0.268325 0.595576 
1.248324 0.330287 2.775285 0.811933 0.356562 -0.449640 
0.928918 0.435670 2.308587 0.720235 0.033998 -0.685096 
-0.886253 -0.119435 1.682237 0.651649 -0.519341 -0.042435 
-0.700550 0.136614 2.079496 -0.754775 0.575425 0.306702 
0.639303 -0.047899 0.550134 -0.683654 -0.278585 0.528453 
0.169580 -0.159442 -0.150428 0.504763 -0.084228 -0.850437 
0.834258 1.049587 2.512516 0.857954 0.296537 -0.413839 
-0.953077 -0.257315 1.362128 0.153435 -0.327198 0.683827 
-0.026512 -0.471702 -0.119578 -0.080065 -0.530731 -0.832185 
0.745942 0.270927 1.867842 -0.714342 -0.090045 0.668010 
0.727292 0.050202 1.713579 -0.955707 -0.213859 -0.047447 
0.502922 0.322700 0.501034 -0.713981 -0.380168 0.498512 
0.692886 0.062913 1.483124 0.927264 0.248384 -0.042379 
-0.601932 0.336619 1.794834 -0.800718 0.465057 0.362216 
-0.878715 -0.126516 1.438275 -0.391154 0.336173 -0.562811 
-0.968550 -0.232672 1.955242 -0.781230 0.583327 0.133780 
0.893301 -0.496447 1.987401 -0.910729 -0.098267 0.391256 
-0.475120 1.168880 1.298459 0.547547 0.359061 -0.565699 
-0.579136 0.437622 0.621390 0.939225 -0.088917 0.244279 
-0.862143 -0.232604 0.734471 -0.908233 0.114681 -0.303085 
0.460292 0.375384 0.524025 -0.837939 -0.271074 0.397956 
-0.471760 1.225998 1.502723 -0.860800 -0.106547 0.432768 
0.076698 1.145407 0.053479 0.430415 0.405659 -0.793589 
0.422152 -0.009622 0.024732 0.817435 -0.021794 -0.569006 
0.326962 -0.951738 0.006468 0.593913 -0.022578 -0.794468 
0.841439 -0.348161 1.333808 -0.752670 -0.376970 -0.372899 
0.491305 -0.732681 0.265546 -0.548140 -0.178199 0.729281 
0.912442 0.894536 2.576875 0.844599 0.267945 -0.459597 
0.252880 -1.236063 -0.014655 0.130024 0.071348 -0.921687 
-0.583382 -0.882957 0.468801 -0.710385 -0.005462 -0.627212 
-0.147411 0.956655 0.466369 -0.251520 -0.178304 0.937230 
0.081608 0.469416 -0.155777 0.378776 0.041696 -0.921544 
0.489618 0.752613 1.201061 0.971271 0.141794 0.121159 
-0.339026 -0.343022 0.213022 -0.485425 -0.269659 0.805336 
0.804674 0.526807 2.137952 -0.875482 -0.309168 0.358635 
-0.469420 -0.314822 0.162778 0.221781 -0.207381 0.905632 
-0.690688 -0.264308 0.485544 -0.879602 0.053717 -0.384719 
-0.681459 -0.059294 2.777527 -0.894315 0.407214 -0.070496 
-0.380951 0.418105 0.329789 -0.114652 -0.109201 0.928488 
-0.665908 0.409402 3.300344 0.904831 -0.307616 0.282774 
-0.366268 0.958081 2.497676 -0.913892 0.366376 0.160517 
-0.555206 0.172761 2.566857 -0.917005 0.359818 -0.012130 
-0.101519 1.093568 0.465549 0.164498 0.162406 0.925661 
-0.469265 0.389510 2.549079 0.959641 -0.224538 0.137967 
-0.745674 0.038142 0.491213 -0.883861 0.109736 -0.385442 
-0.751421 -0.462876 0.614395 -0.832342 0.073069 -0.425569 
0.515079 0.317572 0.608466 -0.811360 -0.379397 0.359689 
-0.425661 0.841993 1.890363 0.969614 -0.172706 0.089242 
0.636629 -0.950535 0.404683 0.604361 0.391702 -0.556313 
0.493030 0.548142 0.907599 -0.958362 -0.220777 -0.026007 
0.279773 0.969790 0.169001 0.893567 0.382740 -0.194967 
0.292902 0.173290 -0.073713 0.455104 -0.076548 -0.883897 
0.751698 -0.071047 0.768179 -0.873087 -0.272035 0.319431 
-0.750174 -0.149130 0.582218 0.675948 -0.203012 0.491080 
0.404757 1.091016 1.518828 0.967164 0.165772 0.142628 
-0.332143 0.643574 -0.081140 -0.587079 0.211656 -0.754975 
0.457837 0.621721 0.977288 -0.928311 -0.350294 0.039366 
-0.430117 0.620381 2.265511 0.974526 -0.182548 0.067120 
1.192160 0.006688 2.482099 -0.774973 -0.250374 0.560928 
0.839524 0.180135 2.041767 -0.751830 -0.103286 0.618528 
-0.462151 1.154899 1.536008 -0.902815 -0.190732 0.253856 
-0.714567 0.351816 1.151502 -0.939512 0.240296 0.131457 
0.278541 0.805121 -0.005993 0.633188 0.502949 -0.540877 
0.328292 0.654074 0.369530 0.642404 0.031154 0.722877 
0.919725 0.515307 2.347513 0.853917 0.413053 -0.307522 
-0.950327 -0.661263 1.147758 -0.909904 0.014519 -0.342091 
0.496014 0.599034 1.175213 -0.825997 -0.465761 0.281209 
0.844700 -0.705575 0.883763 -0.725894 -0.379424 0.372889 
-0.927399 -0.177412 1.981381 -0.770188 0.587509 0.174690 
0.511093 0.854008 1.650687 0.949078 0.123629 -0.097209 
-0.374102 1.042199 2.307322 -0.873381 0.402333 0.199290 
-0.463439 1.282915 1.541871 -0.958202 0.003350 0.233605 
0.500314 -0.371546 0.284415 0.851284 0.009666 -0.458824 
0.758960 -0.403493 0.757508 -0.826472 -0.261426 0.355933 
0.151328 0.998342 0.014153 0.569872 0.432776 -0.682080 
0.684920 0.005189 0.514692 0.891288 0.123371 -0.376720 
0.269435 0.973641 0.329624 0.883197 0.196214 0.334917 
-0.987881 -0.290359 1.193925 -0.966525 0.165129 -0.190975 
0.517366 1.026856 1.793966 0.935431 0.224290 -0.211699 
0.929342 -0.191883 2.143814 -0.820542 -0.087444 0.540684 
0.888611 -0.397137 1.279826 0.759451 0.369850 0.331533 
-0.156603 0.289251 -0.147395 -0.436302 0.008076 -0.896827 
-1.108878 -0.419064 1.817166 -0.801374 0.552562 -0.050771 
-0.226886 -0.820359 0.089189 0.117639 -0.288427 0.867875 
0.661337 0.751815 1.980637 -0.829403 -0.403878 0.347727 
0.252275 -0.636971 -0.037457 -0.084675 -0.213214 -0.933050 
-0.545053 -0.801790 0.323689 0.604216 -0.145806 0.699249 
-0.168068 0.136118 -0.144537 -0.459738 -0.026686 -0.880720 
0.298557 -0.035790 -0.075778 0.481379 -0.118248 -0.865060 
-0.755815 0.271016 1.105900 -0.943394 0.229394 0.070146 
0.783740 0.204152 1.869199 0.962157 0.209423 -0.133614 
0.491167 0.607979 1.464544 -0.846106 -0.410605 0.257330 
