-0.883152 0.482191 -0.279747 -0.849714 -0.207637 0.479206 
0.689373 1.430376 0.451997 0.698961 -0.381619 0.522825 
1.662151 1.639828 0.117644 -0.159668 0.787038 -0.583592 
0.372026 0.643153 0.225089 0.871799 0.230048 -0.328750 
-0.771107 1.215782 0.257498 -0.932228 0.062599 0.306749 
1.134992 1.821046 0.561423 -0.367480 0.726191 -0.574824 
0.542147 1.352692 0.519777 -0.388391 0.470369 -0.780689 
-1.016960 0.506056 -0.520669 -0.830878 -0.256921 0.448194 
-0.663382 0.820909 0.277004 -0.613653 -0.252452 0.724404 
0.719234 1.836214 0.838545 -0.238824 0.827810 -0.499295 
0.210322 0.602974 0.579437 0.346741 -0.026428 0.912041 
1.942764 1.425798 -0.182252 -0.224961 0.682843 -0.693497 
-1.457595 1.560366 -0.721121 0.785952 -0.101537 -0.548279 
-0.467415 1.858079 0.748694 -0.619744 0.736975 0.243110 
-1.430859 1.771505 -0.740384 -0.768410 0.348609 0.529337 
0.178640 -0.875491 0.191785 0.181981 -0.241147 0.948546 
-0.145314 1.232228 0.344460 -0.726325 0.624579 -0.066734 
-0.830601 1.902592 -0.107050 0.476631 -0.741675 -0.425241 
-0.428463 2.899800 -0.504064 -0.705986 0.431570 0.541524 
-0.691686 0.762063 0.202665 -0.578163 -0.186569 0.778901 
-0.989615 1.348886 -0.111487 -0.851333 0.109307 0.459060 
0.252336 -0.183772 0.401454 0.495107 -0.250464 0.793559 
-0.304051 0.803949 0.458252 -0.741802 0.332403 0.499213 
0.364251 -0.037900 0.113230 0.260587 0.094901 -0.939111 
-0.547696 2.722723 -0.547719 -0.783103 0.389966 0.471543 
1.315549 1.311056 -0.111706 0.157807 -0.742939 0.543914 
-0.085006 -0.347577 -0.057635 -0.427475 -0.224380 -0.856761 
-1.190136 0.859079 -0.715205 0.835615 0.325294 -0.425747 
-0.608233 0.658488 0.197434 0.635105 0.453327 -0.143869 
1.452310 0.809749 -0.593687 0.677686 -0.031958 0.723286 
0.541997 0.286709 0.320674 0.701260 -0.347790 0.617904 
-0.171593 1.044141 0.472497 -0.441737 0.836076 0.266543 
0.311429 0.735114 0.104454 0.711088 0.523111 -0.431126 
1.700983 2.241893 0.852080 -0.153483 0.847719 -0.497368 
-0.533561 1.854790 0.599885 -0.776358 0.594158 0.071413 
-0.140390 0.634057 -0.030660 -0.496949 0.193543 -0.812634 
-0.170567 0.326070 -0.052002 -0.627231 0.046449 -0.764514 
0.013446 -0.458785 0.376937 0.084400 -0.208775 0.965356 
1.254273 1.103109 -0.294530 0.573374 -0.438391 0.665979 
-1.376281 1.369498 -0.618875 0.808786 0.134427 -0.543948 
-0.325980 3.000082 -0.423224 -0.724914 0.399199 0.541114 
1.313762 1.440515 0.019202 -0.271559 0.610994 -0.687362 
0.332262 -0.637435 0.211029 0.623677 -0.207085 0.748539 
2.083285 2.381686 0.990243 -0.096229 0.839546 -0.533625 
1.717184 2.382261 1.048907 -0.135718 0.820938 -0.553543 
-0.669027 0.533582 -0.059726 0.455729 0.276463 -0.686273 
-0.367577 2.185293 0.417489 -0.661545 0.632636 0.343685 
0.061021 -0.027567 0.487659 0.125914 -0.247889 0.958188 
1.924268 1.642452 0.038373 0.231411 -0.707325 0.660855 
1.747625 2.319580 0.957676 0.173928 -0.828297 0.523797 
-0.316412 0.427530 0.087822 -0.548241 0.135340 -0.767163 
0.530833 -0.124324 0.025305 -0.000908 0.079297 -0.865653 
-0.888822 0.104411 -0.433470 -0.782055 -0.198696 0.521325 
-0.817916 -0.274445 -0.348268 0.583618 0.037523 -0.712351 
0.465262 1.298791 0.666262 0.302493 -0.366630 0.741379 
-0.313083 -0.249041 0.126086 -0.245815 0.058865 -0.960941 
0.712122 0.423899 -0.040319 -0.215967 0.187405 -0.821827 
-0.640376 -0.595391 -0.170180 0.497305 0.001988 -0.807471 
-0.737748 1.423818 0.416912 -0.936178 0.125311 0.270456 
-0.004450 -0.953750 0.093457 -0.575466 -0.130503 -0.790012 
2.049100 2.201842 0.727749 -0.114939 0.846801 -0.512762 
1.330230 2.124699 0.824048 0.299462 -0.696625 0.641416 
0.049863 0.754102 -0.016895 0.423238 0.356267 -0.808170 
-0.937705 2.198993 -0.580706 -0.503548 0.702399 0.419024 
1.423831 1.559686 0.135930 0.057832 -0.891788 0.415878 
-0.970272 1.503166 -0.009871 -0.860546 0.177111 0.436238 
0.813882 -0.172826 -0.144738 0.648402 -0.094693 0.741459 
-1.197930 1.129470 -0.473359 -0.834952 -0.124654 0.501490 
1.671826 1.576609 0.063441 0.363971 -0.493609 0.743292 
0.680576 -0.677164 -0.095706 -0.383617 -0.037754 -0.912456 
-0.944252 1.048822 -0.199088 0.789380 0.075345 -0.555055 
0.401019 0.639371 0.434394 0.614201 0.273966 0.719867 
-1.006071 1.489040 -0.085604 -0.847339 0.170467 0.463222 
2.042355 2.242071 0.789608 0.126716 -0.784436 0.591965 
0.577176 0.567483 0.400373 0.221815 -0.200116 0.900914 
-0.404606 0.522712 0.249986 -0.349155 0.490910 -0.698362 
1.097314 0.579185 -0.223060 0.748852 -0.186840 0.630534 
-0.708868 0.301288 -0.071591 -0.836642 -0.238936 0.483094 
-0.096616 1.293854 0.289075 -0.696218 0.609146 -0.369195 
-0.260264 0.778530 0.515568 -0.535038 0.255356 0.772595 
-1.319141 1.615871 -0.512285 -0.803609 0.162631 0.528694 
-0.419666 0.379472 0.116268 -0.055005 0.268544 -0.859212 
1.290496 1.615298 0.213688 -0.275779 0.675941 -0.668112 
-0.386840 -1.138358 0.077336 -0.602576 0.098164 0.724427 
-0.216554 0.091900 0.479173 -0.366778 -0.256359 0.869146 
-0.177033 1.219923 0.502175 -0.886777 -0.349117 0.095173 
0.468222 0.592298 0.313419 0.027830 0.578346 -0.518443 
0.611845 0.165051 0.161729 0.726912 -0.273652 0.622338 
0.199052 1.126367 0.271064 0.757370 0.459788 -0.381012 
-0.471537 0.004063 0.193861 -0.814369 -0.263517 0.500204 
-0.094449 1.064929 0.603609 0.054164 0.080913 0.940388 
-0.398266 2.184426 0.297615 -0.622215 0.673384 0.379126 
-0.802138 0.510411 -0.244055 0.605957 0.212033 -0.620763 
1.031958 1.591291 0.361375 0.212433 -0.895244 0.297612 
-1.211014 1.915690 -0.614999 -0.783707 0.344479 0.496190 
-0.525215 -0.116424 0.011411 -0.832989 -0.163820 0.525065 
-0.117767 -1.165922 0.149696 -0.283485 -0.040185 0.930909 
-0.098681 2.600045 0.216768 0.760222 -0.479800 -0.430510 
-0.261828 -0.769484 0.205091 -0.370901 -0.260159 0.862613 
0.541822 0.820610 0.426987 -0.806470 0.098564 -0.579468 
1.400227 0.770339 -0.560307 0.698198 -0.052735 0.710309 
2.017509 2.503136 1.211831 -0.094827 0.854533 -0.507681 
-0.407316 2.626031 -0.263423 -0.780216 0.399917 0.459824 
1.038513 1.389087 0.076658 -0.436106 0.568486 -0.692970 
1.314231 2.296601 1.058511 -0.248577 0.793813 -0.548829 
-0.719880 1.073725 0.200506 0.713331 0.274223 -0.607454 
0.587603 0.217941 0.223245 0.720443 -0.306576 0.615461 
-1.167776 1.025582 -0.468407 -0.839374 -0.158927 0.495133 
-0.649550 1.275113 0.576391 -0.766543 -0.250829 0.574719 
-0.351992 0.673787 0.154390 -0.831027 0.209647 -0.437562 
-0.507501 2.299330 -0.091911 -0.721849 0.546304 0.416703 
0.604473 1.804159 0.927340 0.549571 -0.560194 0.585103 
0.126780 0.427425 0.595653 0.192356 -0.124331 0.968715 
-0.762300 -0.136713 -0.302359 0.597883 0.146722 -0.686170 
0.489277 -0.119865 0.157075 0.728514 -0.225024 0.640639 
-0.335731 -0.672425 0.188533 -0.669642 -0.174851 0.713364 
-1.387722 1.183003 -0.758304 0.822785 0.265739 -0.489059 
0.431767 1.290216 0.578226 -0.774776 0.117884 -0.601974 
0.184624 -1.079298 0.133222 0.183704 -0.098103 0.972128 
0.096201 1.293690 0.292850 0.708238 0.596461 -0.321955 
-0.260483 2.526379 0.039465 -0.685782 0.548667 0.463369 
-0.082261 0.764489 0.571448 -0.123587 -0.097819 0.977015 
0.421537 -0.434454 0.068631 0.034694 0.039133 -0.915011 
0.395575 -1.201918 0.066347 0.749724 0.226154 0.608953 
-0.483577 2.020126 0.412942 -0.767742 0.578075 0.176080 
0.414978 -0.112464 0.254302 0.666355 -0.215760 0.706474 
-0.662217 1.092502 0.311688 0.696874 0.307626 -0.623868 
0.861168 1.476966 0.269694 -0.390055 0.561798 -0.723059 
-0.195710 2.641845 0.018867 -0.730456 0.484166 0.471053 
0.521831 0.059250 0.038048 0.045706 0.112116 -0.876714 
0.056665 -0.226077 0.430892 0.082412 -0.220379 0.968601 
1.977843 2.466632 1.153459 -0.101062 0.846868 -0.519255 
-0.728376 1.541104 0.411570 0.723072 -0.009707 -0.653753 
-1.025818 1.364467 -0.211663 0.793841 -0.088561 -0.553407 
-1.100911 1.577155 -0.241423 0.796600 -0.180006 -0.552521 
0.112951 0.267523 -0.100333 0.563738 0.037797 -0.819948 
-0.226753 1.109043 0.326164 -0.866129 0.447157 -0.173193 
-0.458213 2.137375 0.231404 0.595406 -0.573324 -0.520688 
1.118865 1.458308 0.089934 0.387454 -0.668001 0.584796 
1.874637 1.405636 -0.178859 -0.200997 0.682616 -0.683915 
0.186548 -0.468452 0.026883 0.298786 -0.276955 -0.865560 
-0.486284 -0.250547 0.031057 -0.818437 -0.140697 0.549372 
-0.085053 0.584991 -0.051621 -0.458838 0.170333 -0.844614 
1.405922 0.837875 -0.540181 0.713739 -0.074493 0.691106 
-0.320246 0.862202 0.320414 -0.911965 0.352449 -0.086410 
-0.744039 1.646924 0.435026 0.729262 -0.084583 -0.660784 
-0.188020 2.401179 0.292167 0.742609 -0.522624 -0.414291 
1.147038 1.673641 0.369809 -0.190762 0.893493 -0.392933 
-0.057130 0.646462 0.584513 -0.045165 0.167328 0.973518 
0.266157 -0.252388 0.028535 0.522519 -0.083899 -0.829314 
-0.970408 1.594379 -0.013907 0.767920 -0.134214 -0.583423 
0.273675 0.092161 0.458520 0.419676 -0.262505 0.844409 
1.149562 2.049641 0.868996 0.359556 -0.674485 0.606885 
-0.087644 2.680130 0.169817 -0.780500 0.448698 0.410879 
-0.044555 0.846555 0.009956 -0.437004 0.398201 -0.797133 
-0.177704 0.528569 0.584902 -0.255368 -0.096792 0.957415 
0.138908 -0.285985 0.413174 0.166339 -0.207482 0.963212 
0.742801 0.705074 0.102901 -0.502166 0.431289 -0.748549 
2.026485 2.157730 0.671887 0.138448 -0.763023 0.615147 
0.285747 -0.360185 0.343514 0.582212 -0.237147 0.744151 
-0.149573 0.744074 0.552223 -0.197727 0.053715 0.960100 
-1.374450 1.789108 -0.684067 -0.781507 0.329518 0.522825 
-1.140765 1.166666 -0.393923 -0.833459 -0.061469 0.500903 
-0.649049 0.996055 0.414073 -0.679330 -0.345264 0.623998 
-0.675487 -0.432277 -0.228330 0.523708 0.083477 -0.759743 
1.253598 0.609608 -0.425288 0.705125 -0.091754 0.693774 
-0.475325 -0.077286 0.133480 -0.820954 -0.219949 0.513108 
1.951587 1.482183 -0.129259 -0.221718 0.688948 -0.688851 
0.386166 0.560900 0.291690 0.525498 0.522054 -0.590376 
-0.412012 -0.717709 0.078093 -0.705159 -0.082725 0.690718 
0.677296 1.774551 0.799664 -0.120453 0.599882 -0.776370 
-1.026601 0.667443 -0.470650 -0.856367 -0.260688 0.432049 
-0.560878 2.786880 -0.614927 -0.771727 0.395573 0.488688 
0.416786 0.167603 0.406851 0.602867 -0.277433 0.744503 
0.613786 0.581262 0.127648 -0.173202 0.416130 -0.765886 
0.898953 -0.351898 -0.227207 -0.461272 -0.040850 -0.870656 
1.108965 0.256211 -0.382785 -0.533936 0.033891 -0.811682 
1.776145 2.084490 0.612750 -0.181241 0.624846 -0.736772 
-0.288688 0.015931 0.050310 -0.493805 0.013743 -0.829157 
-0.434068 2.992754 -0.579223 -0.748394 0.386728 0.528856 
-0.728511 1.175418 0.324124 -0.946895 0.044853 0.277851 
0.391696 -0.068671 0.326169 0.640758 -0.238937 0.724288 
-1.047440 0.460994 -0.602060 -0.819106 -0.271429 0.442205 
-1.212952 0.834967 -0.787878 0.832804 0.350846 -0.399936 
1.087381 1.900216 0.698255 0.419852 -0.694921 0.556827 
-0.316038 -0.466640 0.110977 -0.166598 0.015755 -0.947873 
0.895536 0.494132 -0.129979 -0.465699 0.198001 -0.745655 
0.503512 1.800500 0.960927 -0.542757 0.810546 -0.037036 
0.473790 0.576481 0.235681 0.239536 0.511801 -0.644103 
0.459229 -0.195680 0.152524 0.729277 -0.210779 0.645700 
-0.878533 -0.256105 -0.388079 -0.595869 0.024982 0.703422 
-1.180235 1.986398 -0.668770 0.616713 -0.576237 -0.492383 
-0.835303 1.567909 0.225228 0.742990 -0.066846 -0.623052 
-0.734209 0.861486 0.182257 -0.940343 -0.098041 0.300687 
-0.219246 -0.124325 -0.012530 -0.610754 -0.066407 -0.781363 
0.833768 0.007330 -0.103624 0.688359 -0.145847 0.693679 
0.113302 -0.353211 0.394703 0.123131 -0.194869 0.970033 
0.674394 1.858362 0.888562 -0.230436 0.802819 -0.542950 
-0.556209 -0.731088 -0.089540 0.457927 -0.002561 -0.847790 
1.749566 2.473906 1.215011 0.051621 -0.642459 0.724784 
0.406218 0.571771 0.454137 0.537066 0.115960 0.802235 
0.821894 1.798578 0.736370 -0.208551 0.629131 -0.720738 
0.985245 0.057334 -0.285019 0.651222 -0.065159 0.747083 
-0.757704 1.322988 0.332118 -0.933072 0.095347 0.290821 
0.289173 0.471425 0.537134 0.313993 -0.120237 0.936333 
0.538686 1.031486 0.498532 0.334618 -0.436960 0.784584 
1.318106 1.264377 -0.338715 0.506289 -0.517470 0.682831 
0.018139 -1.205166 0.151623 0.290441 -0.237008 -0.900825 
-0.025606 -0.278902 0.414128 -0.027283 -0.213672 0.973860 
-0.092773 0.027306 -0.102240 -0.550312 -0.005667 -0.828518 
-0.989487 0.391115 -0.514408 -0.815615 -0.244572 0.466212 
-1.011872 1.565308 -0.064771 -0.845507 0.201706 0.463165 
0.289424 -0.585146 0.259252 0.608500 -0.252643 0.744623 
0.273369 -0.248365 0.377058 0.552734 -0.248014 0.761808 
-0.880193 1.165651 0.024250 -0.891263 0.037646 0.389358 
-0.055372 2.838689 0.045431 0.756141 -0.396956 -0.519329 
0.182117 -0.492377 0.351681 0.244420 -0.279098 0.919977 
0.136175 1.660089 1.038261 0.455201 -0.331685 0.738934 
-0.236280 1.028502 0.259805 -0.789884 0.396053 -0.381202 
0.446381 -0.594081 0.074796 0.658709 -0.119968 0.731557 
-0.978542 0.890093 -0.315117 0.807840 0.111568 -0.541682 
-0.914193 2.280260 -0.654238 0.717433 -0.468051 -0.504937 
0.759350 1.184157 0.323381 0.725013 -0.205489 0.554746 
-0.770593 -0.496463 -0.269933 -0.569316 0.077463 0.759095 
0.589186 0.433044 0.065836 -0.115782 0.233932 -0.859741 
-0.830186 2.194517 -0.446856 0.763984 -0.389687 -0.506570 
-0.327045 0.351216 0.092412 -0.402112 0.136272 -0.859118 
-0.585239 1.074617 0.409129 0.937998 0.024510 -0.251777 
-0.161422 2.396333 0.365502 0.760662 -0.502006 -0.404938 
-0.326063 0.729874 0.492478 -0.652566 0.350837 0.614429 
0.242117 -1.118686 0.110088 -0.308311 -0.119512 -0.926365 
-0.401750 -1.272268 0.077807 -0.252391 -0.016441 0.801050 
0.352197 0.055793 0.416508 0.554518 -0.262066 0.775684 
1.226991 0.740659 -0.334470 0.747711 -0.159669 0.638900 
-0.210546 -0.259852 -0.013390 -0.587373 -0.091693 -0.799532 
-0.327965 2.357359 0.167288 -0.655032 0.610214 0.421258 
1.629771 1.337431 -0.163099 -0.090676 0.715968 -0.620232 
1.859019 2.490259 1.217640 -0.169655 0.908283 -0.322772 
0.435282 -1.310922 0.064727 0.752423 0.106153 0.452896 
0.269444 0.798234 0.108287 0.652112 0.497043 -0.542714 
0.501921 0.669839 0.433901 0.115094 -0.306818 0.811474 
-0.046617 -0.446398 -0.032827 -0.256497 -0.384357 -0.879105 
-0.183079 1.055274 0.542218 -0.680134 0.657733 -0.202835 
-0.308227 -0.150511 0.111304 -0.291902 0.061756 -0.940056 
-0.605293 -0.474916 -0.107070 -0.725483 -0.068414 0.658041 
-0.447257 0.176079 0.335606 -0.729442 -0.298132 0.593986 
0.535123 -0.199577 0.059061 0.734806 -0.173476 0.654094 
-0.295801 0.611621 0.013775 -0.686164 0.140790 -0.702431 
0.029356 -0.050557 -0.119055 0.446405 -0.100711 -0.864462 
-0.065455 0.353477 0.592485 -0.127335 -0.169300 0.971582 
1.482897 1.299236 -0.144542 -0.094742 -0.897044 0.415698 
0.367239 0.698965 0.291870 0.919536 0.331012 -0.132438 
1.277761 0.427415 -0.476508 0.614792 -0.005554 0.767679 
-0.339508 0.591555 0.531865 -0.512732 -0.032681 0.841472 
2.157133 2.075294 0.524260 0.134731 -0.814965 0.560136 
-0.222881 0.212068 -0.022350 -0.657368 0.000633 -0.745163 
0.324809 -0.456931 0.114664 0.234243 0.021895 -0.941000 
-0.297157 0.864041 0.246027 -0.841111 0.372536 -0.329322 
-1.027670 1.826184 -0.267526 0.652907 -0.470020 -0.509556 
-0.216472 -0.936347 0.088669 0.207084 -0.134459 -0.957476 
1.008457 0.507002 -0.186118 -0.639245 0.202218 -0.700787 
-0.626261 2.528158 -0.522530 0.631543 -0.537800 -0.540241 
0.346953 1.602376 0.885723 0.460106 -0.662126 0.572382 
1.660303 1.735887 0.224439 0.347857 -0.521680 0.719632 
0.766625 0.852430 0.220265 0.825027 -0.043613 0.550422 
0.440855 0.300172 0.095400 0.147215 0.171280 -0.931149 
-0.528899 2.152724 0.068918 0.687863 -0.602131 -0.393569 
0.250917 0.749394 0.534552 0.459697 0.256330 0.843071 
1.089178 0.769209 -0.148161 0.705103 -0.278085 0.622010 
-0.476829 0.512949 0.451330 -0.496030 -0.072024 0.831028 
0.854158 1.753447 0.681966 0.531286 -0.619646 0.518107 
0.272680 0.639580 0.556535 0.404891 0.323885 0.818081 
1.668814 1.419611 -0.090876 0.086862 -0.807564 0.528599 
1.632214 2.220565 0.834360 -0.162222 0.853671 -0.483489 
0.435554 1.679346 0.891937 0.618463 -0.507509 0.583470 
-0.377302 0.093516 0.087743 -0.152330 0.137064 -0.926568 
-0.854207 0.884395 -0.110000 0.771314 0.204370 -0.566736 
-0.124138 -0.088778 0.466023 -0.187646 -0.234669 0.951032 
1.840198 2.120233 0.645778 -0.145759 0.839610 -0.508011 
0.910780 1.908931 0.801707 -0.272801 0.824765 -0.485573 
-0.720597 1.956445 -0.002022 0.880363 -0.281993 -0.377728 
0.183172 0.985588 0.157374 0.615790 0.415236 -0.657830 
0.026203 -0.602627 0.338501 0.304472 -0.275443 0.900996 
0.834929 0.985558 0.136650 -0.542085 0.377324 -0.731423 
-0.712190 1.162718 0.253333 0.708035 0.243268 -0.616047 
-0.937017 0.945065 -0.176060 -0.864889 -0.066421 0.443280 
0.261946 0.549924 0.553135 0.338799 -0.068756 0.921542 
0.992481 1.647885 0.396059 -0.352609 0.669115 -0.622743 
-0.927693 2.368880 -0.770485 0.688999 -0.517054 -0.504626 
1.841583 2.176932 0.737623 0.158254 -0.708836 0.668545 
1.101581 0.877792 -0.165474 -0.613797 0.342080 -0.680228 
1.195743 0.406254 -0.429935 0.671761 -0.054016 0.732557 
0.952307 1.037178 0.041870 -0.541543 0.407107 -0.707628 
-0.825064 0.625550 -0.092363 -0.885856 -0.227223 0.396653 
0.482678 -1.069659 0.019463 0.664920 0.171907 0.689109 
-0.107268 0.296488 0.575608 -0.183141 -0.187342 0.959423 
0.448010 0.080456 0.076619 0.145781 0.118753 -0.911465 
-0.305567 0.174531 0.062258 -0.471824 0.062149 -0.833393 
0.225474 1.020021 0.233404 0.732532 0.382160 -0.487591 
0.844174 1.364769 0.247242 -0.420530 0.526882 -0.727576 
1.143679 0.322130 -0.403084 -0.548157 0.037945 -0.802908 
-0.791518 1.829603 0.138283 -0.895179 0.252659 0.345874 
0.122894 1.182003 0.588607 -0.348903 0.588692 0.692661 
0.305708 -0.287415 0.110629 0.361373 0.020034 -0.923512 
-0.338658 -0.971363 0.065896 0.244244 -0.028248 -0.966509 
-1.183318 1.854263 -0.499100 -0.815460 0.282090 0.501343 
1.054688 2.195054 1.053762 -0.348705 0.790444 -0.500433 
0.580085 0.951181 0.347025 -0.705548 0.155508 -0.649134 
-0.785466 1.108451 0.183460 -0.927642 0.020993 0.323323 
0.871611 0.836300 0.102551 0.787688 -0.109890 0.573002 
0.029016 2.885600 0.139233 0.938373 -0.224630 -0.229687 
-1.449739 1.310049 -0.728902 0.813264 0.222881 -0.535558 
-1.346157 1.141651 -0.703918 0.819685 0.252756 -0.503850 
2.114686 2.226716 0.752641 0.119883 -0.804105 0.572773 
-0.663205 1.126503 0.484366 -0.761996 -0.275633 0.566814 
0.362845 1.689106 0.927102 0.038477 -0.309245 0.927296 
-0.057335 2.668254 0.247490 -0.759600 0.473310 0.420270 
-0.073733 2.774240 0.073876 0.754123 -0.417317 -0.503998 
-0.503830 -0.007223 0.124006 -0.821143 -0.234230 0.505793 
0.055506 -0.954754 0.189595 0.292946 -0.168183 0.930275 
0.302689 1.615867 0.807109 -0.813694 0.468941 -0.302946 
0.648398 0.226995 0.149958 0.727864 -0.279189 0.619093 
0.694942 1.606478 0.647585 0.643767 -0.399687 0.603871 
1.014284 1.910652 0.759368 0.464494 -0.685126 0.509512 
1.507262 1.955624 0.532347 0.258498 -0.782118 0.547991 
1.724417 1.780485 0.237184 -0.158368 0.791883 -0.583826 
0.800553 1.062205 0.195297 -0.511320 0.410479 -0.739519 
1.442556 1.374333 -0.066224 -0.113079 0.676933 -0.637196 
0.787349 1.931328 0.900109 -0.250011 0.789986 -0.552990 
0.593169 0.805619 0.353929 -0.845616 0.052023 -0.488054 
0.561329 1.560024 0.590202 -0.337350 0.521329 -0.778841 
1.325478 1.732386 0.365501 0.413877 -0.510395 0.715147 
0.102700 1.288568 0.382365 0.631401 0.697049 0.229580 
-0.249758 0.159436 0.483212 -0.413817 -0.240043 0.847089 
0.117240 0.857121 0.048742 0.501728 0.437624 -0.730508 
0.490683 -0.276700 0.040048 -0.013469 0.061749 -0.886484 
-0.311453 2.350014 0.250290 -0.678811 0.586911 0.396554 
-0.594368 0.435898 0.269280 -0.801470 -0.323411 0.454794 
-0.457834 -0.790570 0.016337 0.412213 0.011311 -0.881887 
-0.638666 2.023486 0.109652 -0.632629 0.674117 0.347562 
-0.443709 2.749373 -0.436693 0.712363 -0.447074 -0.533357 
-0.223385 0.617238 -0.006788 -0.598874 0.160823 -0.753880 
-0.266515 0.083638 0.011369 -0.668196 -0.035688 -0.736678 
-0.213377 2.242493 0.549242 0.871504 -0.423845 -0.055316 
0.874974 1.641900 0.554295 0.556034 -0.528523 0.595567 
0.503302 -0.681865 0.026329 0.619938 -0.086166 0.770232 
1.096288 1.675766 0.450188 0.446290 -0.558091 0.695505 
1.270416 1.305229 -0.189393 0.379225 -0.606411 0.635877 
1.495653 1.055210 -0.604762 -0.648643 0.180335 -0.710567 
0.537046 1.626888 0.671362 -0.236217 0.805147 -0.520627 
-0.023788 1.414055 0.299007 -0.527116 0.760096 -0.085294 
0.539149 1.753676 0.911698 0.576609 -0.539327 0.584090 
-0.730295 -0.404329 -0.266938 0.543690 0.041293 -0.751021 
-0.139188 -0.061983 -0.068093 -0.568063 -0.034749 -0.814652 
1.118276 0.169310 -0.378456 -0.537935 0.007239 -0.816307 
-1.367911 1.744688 -0.623644 0.744450 -0.353213 -0.543989 
-0.340379 -0.252592 0.332619 -0.705745 -0.237606 0.664741 
-0.216783 -0.365959 0.367104 -0.392632 -0.215661 0.837781 
2.225568 2.537413 1.243294 0.087712 -0.867041 0.489747 
0.097713 -0.115258 -0.083409 0.501357 -0.086412 -0.843315 
1.316845 0.884507 -0.440047 -0.660395 0.218914 -0.696676 
0.708162 1.086677 0.291236 -0.490153 0.415055 -0.758585 
-0.997672 0.567145 -0.490738 0.785588 0.258316 -0.512026 
-0.718488 0.914327 0.137782 0.724252 0.320471 -0.599228 
-0.905146 1.440859 0.091728 -0.882990 0.149789 0.392090 
0.495141 1.207229 0.605339 0.215412 -0.433121 0.741702 
0.337311 0.808903 0.321525 0.911425 0.336242 -0.078708 
1.369188 2.334499 1.107740 0.263705 -0.834085 0.456360 
-0.201608 0.820610 0.548507 -0.491404 0.010951 0.840990 
-1.133958 2.118175 -0.751860 -0.593026 0.646468 0.445377 
0.254253 1.039795 0.317837 0.884017 0.408525 -0.165966 
0.259784 -0.094786 0.009275 0.605340 -0.077706 -0.787422 
-0.639531 1.404172 0.650025 -0.802685 -0.196172 0.546919 
0.481481 -0.760797 0.029722 -0.315875 0.025095 -0.922797 
-0.282623 2.256456 0.448523 -0.681532 0.616778 0.348165 
-0.484475 1.786981 0.746545 0.781312 -0.361420 -0.504478 
0.890405 1.234399 0.206174 0.635254 -0.318154 0.595137 
-0.875982 0.976883 -0.045242 -0.889555 -0.046423 0.396877 
0.476416 1.045862 0.545931 -0.859250 -0.101189 -0.374507 
-0.052297 2.589993 0.315155 0.856656 -0.422358 -0.249241 
-0.409844 2.042730 0.471341 0.791573 -0.411428 -0.437484 
-0.118232 -0.584298 0.048487 -0.075872 -0.235102 -0.961058 
-0.023326 -0.545383 0.353758 -0.216305 -0.250540 0.926077 
0.184621 1.197271 0.441430 0.661831 0.725510 0.014094 
-0.486391 -0.136672 0.073338 -0.827293 -0.182071 0.523521 
-0.238754 2.368444 0.246977 0.749575 -0.514127 -0.409545 
0.058385 0.456148 -0.092573 0.497647 0.147764 -0.845682 
-0.584371 0.497277 0.407316 -0.559020 -0.250134 0.780156 
1.210278 2.095368 0.829943 -0.318451 0.806843 -0.491004 
1.214532 0.285514 -0.433730 0.590060 0.005318 0.784971 
-0.070047 3.238276 -0.187722 0.792557 -0.302625 -0.525146 
0.100542 0.508026 -0.067744 0.527352 0.144614 -0.823875 
-0.850847 1.789877 0.106736 -0.881107 0.249206 0.374145 
1.324754 1.914843 0.561666 0.329209 -0.723011 0.606156 
0.279133 0.905702 0.248353 0.830186 0.373702 -0.324477 
0.349703 0.711395 0.473411 0.739395 0.353406 0.496103 
0.821711 1.113832 0.242397 0.710983 -0.191234 0.574622 
-0.699521 -0.539999 -0.217650 0.521232 -0.024679 -0.790736 
0.307576 0.782148 0.469573 0.713565 0.324685 0.538132 
-0.022504 1.053529 0.616301 -0.032582 0.178896 0.949314 
-0.679699 0.904211 0.197639 0.703741 0.361703 -0.608861 
0.096485 0.578032 0.604059 0.162026 -0.058962 0.981157 
-0.608313 2.133003 -0.059126 0.758765 -0.484620 -0.406300 
-0.296971 2.821848 -0.263702 0.818952 -0.320264 -0.468390 
0.289706 -1.247673 0.082329 -0.516655 -0.094159 -0.824258 
-0.488945 -0.480456 -0.008578 0.312206 0.048757 -0.850443 
0.843153 1.915669 0.850579 -0.260306 0.814079 -0.509758 
0.188793 0.670040 0.570679 0.254214 0.274638 0.903687 
0.584056 1.855752 0.978520 0.082900 -0.402996 0.867616 
-0.621574 1.586581 0.769189 -0.781668 -0.196055 0.589055 
0.001698 -0.163568 0.448288 0.029027 -0.232258 0.970565 
-1.074443 1.775944 -0.241035 -0.819670 0.256018 0.511203 
0.173724 0.478749 -0.037508 0.582548 0.098957 -0.792133 
0.487697 0.157144 0.314598 0.676593 -0.299850 0.661961 
-0.343979 -0.035347 0.390418 -0.636908 -0.251710 0.713568 
0.844750 0.435448 -0.107123 -0.396203 0.186421 -0.763500 
-0.796300 0.646922 -0.025757 -0.899820 -0.222701 0.369342 
1.485529 2.288624 0.969858 -0.194588 0.799531 -0.566646 
-0.139401 1.189631 0.245827 -0.629046 0.508672 -0.536038 
-0.628778 2.753626 -0.689815 -0.743589 0.432119 0.504875 
-0.272774 -0.303265 0.063388 -0.437413 -0.037245 -0.872033 
0.280566 0.851724 0.470112 0.797107 0.190771 0.511082 
-0.543677 1.707768 0.882227 -0.769067 0.164490 0.557474 
1.474302 1.126355 -0.582789 0.609102 -0.307699 0.696124 
0.618988 -0.866233 -0.053446 -0.400843 -0.051028 -0.911598 
0.465818 0.220044 0.376339 0.640057 -0.306282 0.695735 
0.892343 -0.426132 -0.216878 -0.459361 -0.057702 -0.876015 
0.717994 1.292341 0.390364 0.719730 -0.277276 0.537296 
-0.635085 1.293690 0.462566 0.698499 0.186369 -0.655191 
-0.774290 1.435633 0.349548 -0.924313 0.133242 0.296547 
-0.251747 1.048807 0.366072 -0.892828 0.388889 -0.029787 
-0.829377 0.435112 -0.217527 -0.849189 -0.217880 0.477023 
-0.391538 0.644058 0.285196 -0.823679 0.223267 -0.301028 
-0.675435 0.569585 0.250099 -0.779338 -0.235640 0.482357 
-0.186094 0.432758 -0.027859 -0.621741 0.071936 -0.762088 
0.486346 1.726632 0.858383 -0.197973 0.830222 -0.516674 
-0.819848 1.496439 0.218493 0.737940 -0.014467 -0.619841 
0.106563 0.931658 0.605001 0.217234 -0.144876 0.959133 
-0.703243 1.766919 0.320502 0.582989 -0.408685 -0.551779 
0.789828 1.676119 0.642282 0.582038 -0.558252 0.528660 
-0.639371 1.955621 0.169425 0.777389 -0.383106 -0.436742 
0.588874 0.633516 0.242966 -0.406236 0.454429 -0.377276 
-0.382189 2.140967 0.363952 0.796248 -0.430117 -0.410987 
-0.193210 0.104855 -0.038201 -0.624383 -0.013940 -0.770827 
1.363526 1.886916 0.479749 -0.295645 0.740643 -0.600840 
-1.048668 1.934020 -0.430499 0.539870 -0.655567 -0.474335 
-0.264132 -0.417768 0.345421 -0.521544 -0.243245 0.783052 
-0.082268 -0.588817 0.327995 -0.172443 -0.308534 0.927604 
1.187285 1.516630 0.155976 0.240562 -0.790033 0.471315 
-0.596528 0.974602 0.322197 0.907512 0.125270 -0.376125 
-0.084538 0.154263 -0.112342 -0.561796 0.021924 -0.819615 
-0.019236 2.729896 0.244670 -0.530010 0.537311 0.627893 
-1.194459 1.747895 -0.374977 -0.806099 0.276278 0.521340 
0.856488 1.708173 0.604272 -0.214682 0.752528 -0.565781 
-0.550106 1.532788 0.753419 -0.209127 -0.486883 0.817968 
0.595102 1.460901 0.552430 0.745464 -0.358266 0.491242 
0.846642 0.281306 -0.074857 0.750520 -0.199536 0.628554 
0.862709 0.113418 -0.130413 -0.569004 0.146941 -0.767468 
0.972821 0.501160 -0.112049 0.753433 -0.220992 0.616772 
1.230083 2.143313 0.879807 -0.301689 0.786015 -0.532452 
-0.513627 2.865010 -0.603829 -0.786701 0.368983 0.488328 
-0.684039 0.712452 0.060069 0.666026 0.456558 -0.588224 
-0.728022 1.523604 0.480900 -0.936099 0.156105 0.257645 
-1.003810 1.667774 -0.039732 0.776230 -0.194503 -0.581190 
-0.239491 2.439440 0.258638 -0.710371 0.547204 0.401744 
1.322158 0.788977 -0.445282 0.728769 -0.113081 0.667763 
-0.500258 -0.782220 -0.044926 0.435411 0.023615 -0.863253 
0.367913 -0.274860 0.276503 0.679596 -0.225481 0.694396 
-0.760128 1.188896 0.177715 0.718430 0.204793 -0.604466 
-0.952167 0.973266 -0.243700 0.797395 0.089399 -0.549204 
-0.681692 2.201746 -0.263373 0.735489 -0.474432 -0.470869 
0.152632 1.007367 0.600311 0.270822 -0.178262 0.917231 
-0.331498 0.587083 0.107186 -0.641154 0.263768 -0.683387 
1.111324 1.515644 0.161528 -0.426377 0.552566 -0.713282 
-0.050395 -0.898328 0.214532 -0.309237 -0.191171 0.921118 
-1.196132 0.754045 -0.777880 -0.846983 -0.339804 0.371381 
-0.247717 -0.701166 0.237552 -0.406958 -0.283572 0.838039 
0.185336 -0.222100 -0.032959 0.560520 -0.088747 -0.817743 
-1.159380 1.292666 -0.396038 0.804325 0.019797 -0.546182 
0.378538 -1.003543 0.089688 0.473365 -0.092182 0.858130 
-0.235204 -0.553706 0.303218 -0.452756 -0.280235 0.820615 
0.384562 1.393214 0.649732 -0.811888 0.082260 -0.564817 
-1.183660 2.100639 -0.807327 -0.706627 0.499246 0.474894 
-1.216568 1.198671 -0.490184 0.807943 0.113250 -0.543445 
0.054889 0.416201 0.596858 0.107152 -0.134498 0.979020 
1.508059 1.657442 0.201402 0.433093 -0.383763 0.775894 
0.354395 -0.416703 0.230283 0.688801 -0.217462 0.689010 
-1.116312 0.430546 -0.685687 0.744196 0.220975 -0.504431 
0.346000 0.405727 0.118473 0.473449 0.206438 -0.799927 
-0.306325 -0.730962 0.065173 0.239246 -0.145704 -0.930967 
-0.701316 0.583248 0.183188 -0.859270 -0.237043 0.376750 
-0.443219 0.149187 0.035880 -0.033993 0.146540 -0.878738 
-0.168502 0.923633 0.579315 -0.359386 -0.108415 0.892823 
-0.242920 2.313798 0.421641 -0.690282 0.603987 0.361615 
1.119108 1.185542 -0.080237 -0.512185 0.483425 -0.681181 
0.105932 0.324601 0.584275 0.170231 -0.176548 0.964682 
0.020973 0.535184 -0.098677 0.459459 0.195256 -0.861816 
-0.002052 0.699971 0.566296 -0.027387 0.044043 0.993971 
1.609580 1.589855 0.098662 0.392631 -0.447784 0.758637 
0.610039 -0.130404 0.020130 0.727651 -0.169932 0.659508 
0.502796 1.561194 0.632006 -0.325486 0.519228 -0.786089 
-0.656282 0.491701 0.148800 -0.851711 -0.305711 0.409516 
-1.052503 1.594859 -0.163827 0.786223 -0.178051 -0.559681 
-0.839014 1.441173 0.155173 0.739581 0.014499 -0.607542 
-0.248053 2.853305 -0.216762 -0.713444 0.439042 0.526177 
2.204935 2.180067 0.667077 0.114564 -0.823286 0.554773 
-0.833997 -0.096865 -0.398575 0.605348 0.151721 -0.660637 
0.617202 0.297930 0.230762 0.719362 -0.322675 0.609967 
1.332931 1.158142 -0.399379 0.550828 -0.462646 0.681442 
0.375653 1.408679 0.751097 -0.081513 -0.543297 0.744331 
-0.516078 1.675769 0.823727 0.745345 -0.577497 -0.093665 
0.149968 -0.945954 0.172694 0.162216 -0.203749 0.961174 
-0.846605 0.228946 -0.332125 0.702709 0.189574 -0.609543 
-1.373249 1.553113 -0.599767 0.792189 -0.082589 -0.548720 
-0.354187 -0.164705 0.341858 -0.698726 -0.239089 0.670583 
-0.152735 0.992302 0.598807 -0.263433 -0.162220 0.926991 
-0.610396 1.719787 0.738190 -0.686871 0.630453 0.297176 
-0.364416 0.622002 0.204688 -0.720698 0.299565 -0.527767 
0.448865 0.280286 0.410105 0.568252 -0.260333 0.758843 
0.341693 1.516018 0.726524 -0.777270 0.142590 -0.597126 
-0.757739 1.402671 0.287782 0.723859 0.069763 -0.628826 
0.029039 0.152071 0.539162 0.098535 -0.239947 0.962686 
-1.053362 0.786646 -0.432242 0.812156 0.223026 -0.538468 
0.449391 -0.362948 0.094452 0.721071 -0.161018 0.669920 
-0.146976 0.675906 0.573809 -0.148644 0.170244 0.954766 
-0.452058 2.566725 -0.290943 -0.839725 0.342763 0.408520 
0.500980 -0.561828 0.040826 0.651968 -0.110235 0.738113 
0.740174 1.575300 0.554466 0.492738 -0.642909 0.347933 
-0.529892 0.090323 0.137185 -0.818892 -0.264082 0.493980 
-0.727857 0.606632 0.097312 -0.901243 -0.242570 0.342520 
-1.134868 2.161901 -0.813635 -0.600762 0.629083 0.452282 
1.630913 2.292169 0.938750 -0.168948 0.806563 -0.565055 
1.294923 1.160737 -0.339105 0.550664 -0.465100 0.675471 
-0.852628 2.092214 -0.364058 0.781728 -0.360440 -0.503387 
1.168887 1.201786 -0.148235 -0.507089 0.492995 -0.684202 
-0.963513 1.432177 -0.075859 0.768382 -0.050488 -0.571216 
-0.156211 0.039536 -0.060455 -0.592256 -0.018311 -0.795837 
-0.317940 -0.319588 0.340356 -0.691142 -0.241132 0.673936 
0.180060 -0.616372 0.075335 0.046431 -0.153881 -0.976174 
-0.690373 1.426336 0.512228 -0.951000 0.120730 0.235614 
-0.353324 -0.303300 0.267014 -0.740637 -0.210977 0.630466 
1.115817 0.076188 -0.368131 0.558442 0.017598 0.807620 
0.693783 0.622520 0.090434 -0.384467 0.409046 -0.774017 
1.829044 2.298700 0.910877 0.157983 -0.805933 0.562656 
1.115761 1.959239 0.732855 -0.283055 0.574442 -0.757908 
0.261572 -0.842645 0.075036 -0.110916 -0.070368 -0.973345 
-1.087297 1.412373 -0.276988 0.799738 -0.098677 -0.549655 
-0.786463 0.843761 -0.009029 0.751791 0.278001 -0.579976 
-0.998862 1.988670 -0.430690 0.513546 -0.701835 -0.463178 
-0.503267 0.355778 0.339628 -0.715125 -0.341167 0.558073 
1.284197 1.290377 -0.277833 0.498436 -0.530402 0.679189 
-0.554619 0.416734 -0.020850 0.184485 0.220373 -0.793500 
-1.091593 0.562030 -0.648224 -0.829715 -0.291667 0.420037 
-0.729006 2.095048 -0.149421 -0.521078 0.726824 0.392603 
0.105209 0.707147 -0.024498 0.415921 0.309425 -0.820282 
-0.593844 -0.230239 -0.067756 -0.785161 -0.119536 0.584636 
1.847699 2.428189 1.104226 -0.116271 0.834098 -0.537057 
-0.174942 1.053324 0.635936 -0.212564 -0.362262 0.865237 
-0.869823 -0.181974 -0.400022 0.608725 0.046894 -0.684936 
-0.270144 -0.831679 0.069180 0.095125 -0.057392 -0.977437 
1.239978 1.693143 0.340289 -0.188496 0.859419 -0.454373 
0.001436 -0.497966 -0.000475 0.205564 -0.567033 -0.795169 
-0.217138 2.920216 -0.222953 -0.755446 0.400512 0.509305 
0.735819 -0.506959 -0.137641 -0.402661 -0.015398 -0.896292 
-0.539085 0.573955 0.426952 -0.287697 -0.331551 0.844062 
-0.250309 2.171986 0.567895 0.830972 -0.467779 -0.189251 
0.600362 0.384920 0.300211 0.731320 -0.327777 0.585167 
-0.795964 2.017274 -0.192679 0.821441 -0.329950 -0.451973 
1.473044 1.155712 -0.466190 0.267660 -0.625790 0.600496 
0.921056 0.593880 -0.099927 -0.559878 0.255555 -0.726860 
-0.502842 2.524329 -0.327537 -0.811319 0.382051 0.421406 
1.671010 2.073693 0.617343 -0.198401 0.582193 -0.775200 
-0.534041 2.055056 0.246689 -0.720695 0.605288 0.279302 
-0.445974 1.978814 0.480119 0.625103 -0.592959 -0.496898 
-0.411378 2.220095 0.228289 -0.718389 0.578418 0.371917 
-0.284938 2.400248 0.129892 0.789013 -0.483806 -0.371406 
0.141377 1.122006 0.443633 0.805631 -0.047623 0.478752 
1.920310 2.318989 0.921749 -0.126168 0.823397 -0.550972 
0.474158 1.369951 0.649812 0.840377 -0.215713 0.455658 
0.639701 1.513090 0.476942 -0.350502 0.538201 -0.759464 
-0.024826 0.457954 -0.112183 -0.498828 0.153977 -0.845968 
-0.267192 -0.930066 0.139449 -0.225522 -0.221771 0.946313 
-0.557320 1.016956 0.528507 -0.734689 -0.262565 0.578612 
-0.716383 -0.619579 -0.210024 -0.554440 0.105780 0.788587 
-0.431208 -0.866649 0.042666 -0.659979 -0.042980 0.743228 
0.306031 0.487158 0.050536 0.653621 0.120164 -0.721709 
-0.486149 -0.624082 0.000640 -0.731005 -0.058381 0.663048 
-0.879467 2.245325 -0.554257 -0.514432 0.688101 0.423451 
0.876528 1.097818 0.179508 0.689850 -0.234019 0.587013 
-0.655009 2.380450 -0.423479 0.705327 -0.518000 -0.481048 
0.425459 -1.039933 0.049411 -0.351995 -0.011947 -0.931196 
0.442351 -0.708496 0.072571 0.623445 -0.106105 0.764773 
0.116575 -0.238496 -0.059880 0.485258 -0.143677 -0.843326 
1.156030 1.715795 0.455044 0.419978 -0.587668 0.682465 
-0.010792 2.935673 0.046074 0.764844 -0.370315 -0.525767 
-0.485862 -1.085333 -0.003577 -0.681608 0.244155 0.668532 
0.346189 0.541377 0.159597 0.594822 0.344570 -0.683100 
-0.218057 2.737883 -0.102944 0.778239 -0.387137 -0.485987 
-0.665119 0.313204 0.020842 -0.827709 -0.276920 0.476038 
0.970734 1.739585 0.568612 -0.277631 0.762088 -0.539112 
-0.384560 2.913363 -0.448308 -0.701121 0.431622 0.545138 
0.256245 0.132116 -0.002725 0.620982 -0.026096 -0.778505 
-0.142049 -0.245459 0.423721 -0.177400 -0.212808 0.959501 
0.999962 0.575407 -0.106676 0.755146 -0.229320 0.610946 
-0.600075 0.814822 0.361090 0.921905 0.138674 -0.315211 
-0.566874 2.590951 -0.483485 0.616222 -0.539294 -0.549978 
-0.724786 0.592152 -0.077011 0.589939 0.305290 -0.633288 
0.470194 -0.907061 0.023794 0.571390 -0.047660 0.816429 
0.475253 1.628133 0.741340 -0.105782 0.762152 -0.593991 
0.714652 0.725763 0.179360 -0.927108 0.223456 -0.246959 
-0.479722 -0.020132 -0.001297 0.046673 0.103911 -0.843764 
-0.214628 -0.026506 0.454063 -0.405140 -0.251958 0.843794 
-0.672105 1.402758 0.447754 0.708600 0.101455 -0.655852 
1.047035 0.073535 -0.336330 0.618429 -0.028900 0.772430 
0.405105 -0.244306 0.210998 0.694456 -0.203330 0.685201 
-0.939471 1.443459 0.024649 -0.872112 0.154523 0.417083 
-0.961568 0.509368 -0.445177 0.773412 0.242472 -0.532439 
-0.513121 -0.340511 -0.001369 -0.787878 -0.114467 0.587104 
0.076954 1.150606 0.187019 0.440929 0.383513 -0.797864 
-0.778913 1.292480 0.193353 0.724095 0.133834 -0.609679 
-0.358145 0.292999 0.467702 -0.497841 -0.217153 0.817987 
-0.281853 -1.162467 0.088847 0.404169 -0.103345 -0.884261 
1.350538 1.568248 0.149059 -0.333759 0.530464 -0.775039 
1.327980 2.045290 0.732900 0.279934 -0.694664 0.624792 
-0.737036 0.693901 0.002927 0.714424 0.376147 -0.588282 
0.657043 1.654793 0.703799 0.648881 -0.539389 0.468302 
-0.762109 0.091319 -0.198641 -0.800972 -0.150318 0.551571 
0.804419 1.201207 0.236341 -0.466258 0.468130 -0.738780 
-0.373926 2.743134 -0.310117 -0.623366 0.513796 0.568383 
-1.257331 1.040612 -0.579161 -0.839268 -0.220418 0.494099 
-0.411404 -0.275450 0.126431 -0.817563 -0.161275 0.546538 
0.230360 -0.905492 0.086477 -0.230271 -0.126376 -0.952872 
0.622536 1.720157 0.772957 -0.129432 0.635032 -0.736589 
-0.381199 -1.025716 0.082186 -0.558293 -0.034791 0.804889 
0.227888 1.643395 0.955199 -0.101806 0.971564 -0.147434 
-0.625088 0.612715 0.288486 -0.440644 -0.220511 0.829575 
-0.373800 -0.361436 0.174790 -0.787644 -0.173658 0.584131 
-1.417210 1.700887 -0.657921 -0.785379 0.287904 0.534650 
0.758954 0.569131 0.161386 0.777364 -0.218018 0.580106 
1.483391 2.336057 1.049367 0.228285 -0.843292 0.467307 
-0.190146 0.981648 0.159252 -0.625875 0.415329 -0.649517 
-1.331785 1.025142 -0.856625 -0.854266 -0.343287 0.372797 
-0.893247 0.194600 -0.403561 -0.796434 -0.200350 0.512608 
-0.207838 2.517401 0.194276 -0.722513 0.522130 0.422879 
0.469579 -1.375914 0.049412 0.820126 -0.199663 0.296643 
-0.488267 2.171423 0.137121 -0.722483 0.588655 0.338887 
0.364035 0.629984 0.515917 0.618460 0.078521 0.773625 
-0.719403 1.675457 0.561506 -0.933891 0.203562 0.243425 
0.372779 -0.688255 0.158534 0.616156 -0.166219 0.761642 
-1.084646 0.491495 -0.664527 -0.818959 -0.288739 0.427958 
-0.319088 2.450948 0.031451 -0.638112 0.598430 0.472510 
0.424549 1.459704 0.658153 -0.341421 0.483757 -0.798464 
0.636826 1.568149 0.620494 0.594767 -0.550387 0.368980 
1.258644 1.362668 -0.048983 0.236930 -0.712760 0.566363 
0.015227 3.010784 0.057323 0.920376 -0.219033 -0.272137 
1.179211 0.911881 -0.240144 0.647445 -0.347882 0.644089 
1.667542 1.685571 0.172298 0.351186 -0.515641 0.726089 
0.100638 -0.896729 0.207426 0.177094 -0.217386 0.951989 
-0.599183 -0.554384 -0.128929 -0.713123 -0.065920 0.666422 
-0.296764 2.315551 0.352229 -0.691154 0.584650 0.369049 
0.681752 0.892783 0.251615 -0.534557 0.352845 -0.764402 
-0.458353 -0.206946 0.081769 -0.827206 -0.167342 0.530924 
0.732548 1.892032 0.948228 0.498548 -0.598634 0.585178 
0.713759 0.293485 0.103603 0.732316 -0.271846 0.617544 
-1.377211 1.132242 -0.812112 -0.844445 -0.297413 0.424858 
-0.136441 3.018933 -0.182243 0.769931 -0.354531 -0.529202 
1.045243 1.452783 0.109931 -0.425218 0.576309 -0.695302 
-0.363707 0.375921 0.488442 -0.431923 -0.199102 0.868082 
0.204125 -0.594882 0.304356 0.336684 -0.331529 0.872257 
0.693610 -0.377724 -0.064229 0.635238 -0.098958 0.751551 
1.176721 1.776436 0.503996 0.393229 -0.639205 0.652208 
1.774918 2.262115 0.867188 -0.143825 0.843133 -0.509154 
-0.268361 0.299472 0.004745 -0.697795 0.007442 -0.713693 
0.929534 0.051059 -0.233415 -0.516398 0.071810 -0.813082 
-0.828153 0.067380 -0.352685 0.652772 0.178126 -0.636548 
1.390619 2.277262 0.996546 -0.228222 0.794554 -0.558330 
-0.269849 0.473291 0.542522 -0.326531 -0.142521 0.925247 
1.157917 1.058485 -0.158584 0.592358 -0.419748 0.648210 
-0.259309 -0.174671 0.020704 -0.590467 -0.071215 -0.787698 
-0.561065 0.218860 0.160681 -0.815341 -0.305736 0.478034 
0.187149 1.172376 0.344831 0.832057 0.519283 -0.142524 
0.360237 -0.656492 0.091464 0.022590 0.013112 -0.946072 
0.644458 -0.594965 -0.087365 -0.369844 -0.001451 -0.910723 
-0.066902 1.169204 0.562680 0.197730 0.585195 0.759140 
-1.267526 1.875768 -0.650411 0.662297 -0.491910 -0.512800 
-0.193010 1.050048 0.192860 -0.634903 0.382364 -0.663049 
-0.589362 2.114146 0.011705 0.744043 -0.529165 -0.384582 
-1.321667 1.126244 -0.637296 -0.836112 -0.223938 0.496378 
-0.613494 0.457948 -0.060254 0.300576 0.231839 -0.746791 
0.151666 0.119012 -0.069160 0.570665 -0.004515 -0.813728 
-0.422603 1.691572 1.068700 0.856101 -0.247927 -0.276344 
0.109523 -0.396905 -0.040265 0.423586 -0.245474 -0.855917 
-0.058598 1.001540 0.112601 -0.402775 0.468605 -0.765518 
1.649427 1.239076 -0.264648 0.018483 0.787885 -0.549368 
-0.526276 0.467851 0.068610 0.216440 0.283767 -0.782674 
0.783091 -0.092238 -0.103054 -0.512580 0.113455 -0.806070 
0.661527 1.033962 0.383613 0.822543 -0.023872 0.528870 
-0.926631 1.667530 0.150442 -0.869104 0.224694 0.394905 
0.658521 -0.456899 -0.074858 -0.406052 0.042219 -0.880708 
-0.672480 1.226681 0.359353 0.703012 0.216242 -0.635812 
0.566857 1.562904 0.664554 0.664588 -0.486894 0.384105 
-0.264542 2.909161 -0.275530 -0.713806 0.426246 0.533918 
-1.122712 1.521544 -0.283440 0.798401 -0.133435 -0.551106 
-0.050517 3.426564 -0.246576 0.811280 -0.259380 -0.522000 
0.744610 1.972470 1.014249 0.141169 -0.493094 0.804479 
0.120958 0.790560 0.574890 0.214762 -0.133957 0.957632 
-0.555366 1.288009 0.638973 0.941342 -0.100722 -0.039073 
0.441030 1.573937 0.790133 0.741159 -0.314029 0.535922 
0.060433 0.657803 -0.053730 0.390732 0.246376 -0.868344 
0.844008 1.992577 0.941029 -0.263614 0.790954 -0.545825 
-0.011791 0.216822 0.559098 -0.074283 -0.220259 0.970293 
1.805506 2.352679 0.996792 0.165957 -0.854261 0.477530 
-0.560782 -0.540105 -0.062209 -0.724283 -0.059105 0.666239 
0.439845 1.752296 0.938030 -0.528537 0.802506 -0.081361 
-0.137545 -0.516030 0.349297 -0.148465 -0.296776 0.936786 
-0.653720 0.793116 0.142844 0.731470 0.367482 -0.527166 
-0.846185 2.308386 -0.594108 0.730705 -0.445692 -0.507874 
-0.005171 0.035362 -0.139753 -0.455667 -0.067760 -0.862957 
-0.830349 0.228844 -0.260944 -0.810955 -0.170686 0.529731 
-0.932885 1.825569 -0.101913 -0.853048 0.263436 0.441466 
1.627614 1.788504 0.292809 0.324573 -0.589336 0.687592 
-0.645652 1.341282 0.607262 -0.813820 -0.189535 0.524783 
-1.039911 0.369040 -0.626422 -0.804869 -0.268328 0.452048 
0.029110 1.297379 0.420931 0.271848 0.758733 0.563253 
0.726180 1.643237 0.572568 -0.220413 0.853624 -0.462202 
0.850129 0.905030 0.095019 -0.571404 0.341380 -0.727270 
-0.354668 2.674838 -0.244433 0.847242 -0.302932 -0.432150 
-0.536805 -0.863490 -0.053425 -0.622645 0.071079 0.764941 
0.934788 1.796932 0.679083 0.491511 -0.643896 0.536016 
1.994799 2.424469 1.083670 0.132066 -0.868735 0.465315 
0.422192 -0.169801 0.212110 0.686266 -0.203846 0.691356 
1.766247 1.706177 0.150541 -0.171659 0.770048 -0.605653 
-0.305260 2.509396 -0.016817 0.817541 -0.401156 -0.398987 
-0.810321 1.347901 0.162301 0.731472 0.086016 -0.606041 
-1.109330 0.796633 -0.579118 0.825705 0.282966 -0.473331 
-0.162160 0.877904 0.086325 -0.568501 0.438882 -0.677724 
0.307555 0.556247 0.026291 0.679309 0.134632 -0.708893 
-0.363860 -1.231798 0.033353 0.198264 0.127341 -0.964205 
1.945811 1.991831 0.440120 -0.165319 0.730914 -0.646001 
0.734349 0.343195 -0.055665 -0.245442 0.169030 -0.805214 
-0.782284 0.203900 -0.208281 -0.820205 -0.170329 0.525068 
-0.459385 0.048513 0.018331 0.003673 0.121516 -0.862160 
-1.138321 2.051355 -0.683088 -0.747152 0.424924 0.476183 
1.882680 1.773182 0.180210 -0.185677 0.749973 -0.631253 
1.171859 1.871866 0.609492 0.374548 -0.699176 0.607010 
1.883999 1.487411 -0.102841 -0.209878 0.707159 -0.668325 
1.799462 2.391932 1.059792 0.169522 -0.882218 0.422661 
-0.492574 -1.343325 0.046115 -0.914311 0.115055 0.298795 
-0.216755 -0.053818 -0.016754 -0.618456 -0.051580 -0.775387 
-1.391639 1.307378 -0.651604 -0.827192 -0.172394 0.518362 
2.096771 2.431342 1.078299 0.112527 -0.859765 0.491105 
-0.652704 0.003158 -0.133705 0.462499 0.124346 -0.727970 
0.778646 0.405775 -0.075028 -0.306159 0.181641 -0.790592 
-0.723158 0.025240 -0.167660 -0.799269 -0.145035 0.556681 
0.567298 0.425772 0.398391 0.568312 -0.252854 0.744937 
0.732435 -0.594154 -0.127212 0.517336 0.010456 0.844818 
-0.013335 0.473014 0.601495 -0.057654 -0.107082 0.988788 
0.777924 0.264829 -0.081740 -0.303933 0.150602 -0.779253 
2.029826 2.349661 0.946961 0.125040 -0.847508 0.507837 
1.760768 1.563178 0.018528 0.322270 -0.560368 0.720438 
-0.182176 -0.331061 -0.020543 -0.542621 -0.135964 -0.817343 
-0.437674 0.579944 0.296328 -0.176245 0.556125 -0.522141 
-0.017821 1.297970 0.234303 -0.563211 0.153247 -0.767496 
0.051342 0.883946 0.605723 0.188817 -0.130297 0.962208 
-0.957753 0.814393 -0.314930 0.808872 0.138400 -0.540612 
-0.116041 2.789827 0.002751 -0.795830 0.395022 0.444722 
0.892165 0.048481 -0.160740 0.679655 -0.125309 0.706418 
-0.322696 -0.035497 0.122248 -0.250490 0.104857 -0.956464 
1.061714 0.312468 -0.284525 0.691799 -0.109857 0.700240 
-0.342912 0.722625 0.214560 -0.834667 0.399414 -0.322804 
0.740725 0.592478 0.240038 0.763637 -0.158607 0.568963 
-0.148121 -0.884506 0.197166 -0.180068 -0.235293 0.949548 
1.483481 1.605224 0.158721 0.452256 -0.352278 0.791661 
0.056047 1.346985 0.330303 0.615215 0.679625 0.101373 
0.805571 -0.428168 -0.176871 0.547005 -0.002833 0.824157 
-0.995580 1.011132 -0.296995 0.805732 0.056927 -0.543668 
2.120128 2.508721 1.210776 0.107946 -0.872193 0.470600 
0.602918 0.049899 0.107436 0.732891 -0.233350 0.632742 
2.106565 2.474943 1.150174 -0.087936 0.854977 -0.509016 
0.348378 -0.795340 0.160811 0.536887 -0.174728 0.813267 
-0.663827 1.530382 0.611562 -0.956077 0.150974 0.210240 
-1.135778 1.423811 -0.328574 0.800858 -0.069881 -0.549048 
0.768550 1.253832 0.284319 -0.445767 0.478544 -0.743682 
0.559235 -0.593005 0.001311 0.624284 -0.090818 0.764542 
0.994252 1.377474 0.138274 0.536152 -0.496790 0.623227 
1.001281 1.606847 0.457865 0.354793 -0.759277 0.490259 
-0.047019 1.099324 0.157287 -0.354481 0.427519 -0.819736 
-1.340108 1.253470 -0.606156 -0.829534 -0.163296 0.513551 
-0.889236 0.603198 -0.226337 -0.866042 -0.227052 0.440669 
-0.954786 0.885527 -0.234817 -0.856810 -0.094739 0.459612 
1.077311 1.549146 0.223985 -0.436170 0.539653 -0.718007 
0.404047 -0.365532 0.151478 0.717547 -0.187452 0.668889 
0.176356 -0.395728 0.381455 0.234204 -0.218570 0.942692 
-0.820538 1.730578 0.274179 -0.896791 0.230016 0.332932 
0.748957 0.960578 0.210388 -0.538159 0.361364 -0.749009 
-0.955567 1.139865 -0.131748 -0.861044 0.018993 0.445904 
-0.555523 2.658944 -0.516757 0.637554 -0.513322 -0.547645 
0.158569 -0.909705 0.093570 -0.126069 -0.169742 -0.967813 
-1.023272 1.881436 -0.330696 0.592691 -0.566882 -0.490667 
1.209856 0.931239 -0.306833 -0.596727 0.371171 -0.686792 
1.580007 1.200889 -0.278386 0.071183 0.810883 -0.517521 
-0.129797 1.134849 0.615413 0.365866 0.218168 0.880719 
-0.369140 0.461347 0.243901 -0.415073 0.434093 -0.756874 
-0.650519 0.587539 0.021277 0.502338 0.334403 -0.670996 
-0.440193 2.278807 0.030959 0.600430 -0.632893 -0.475845 
-0.636613 1.145469 0.385886 0.694011 0.282547 -0.637939 
-1.120553 0.743176 -0.628949 -0.855780 -0.304404 0.396177 
-1.017748 0.837383 -0.345437 -0.847510 -0.149544 0.479597 
0.031696 1.016476 0.117354 0.330862 0.468301 -0.803886 
-0.883276 0.037452 -0.458415 0.633542 0.195387 -0.621108 
0.391197 0.494741 0.247811 0.444687 0.475415 -0.712364 
0.235395 0.938836 0.182535 0.709422 0.404497 -0.543514 
1.409912 2.236438 0.928456 -0.227680 0.790406 -0.563902 
1.126682 2.163586 1.013512 0.341326 -0.717184 0.585603 
1.167154 2.164385 0.926148 -0.315325 0.754134 -0.575529 
1.298331 1.853250 0.509161 0.341430 -0.695289 0.628234 
1.066741 0.441968 -0.268130 -0.629162 0.145553 -0.734440 
-0.389560 -0.189720 0.065693 -0.108123 0.068598 -0.905225 
1.276593 2.147391 0.933145 0.302906 -0.735685 0.565204 
