-1.080868 2.189884 -0.458775 -0.895141 0.311092 0.263994 
0.888331 1.941389 1.170337 -0.465641 0.763775 -0.422819 
1.899820 2.771419 1.063366 -0.647350 0.651419 -0.395287 
-0.176864 -0.321554 0.385618 -0.249777 -0.267140 0.897337 
0.881538 0.475872 -0.089927 0.767577 -0.233821 0.593837 
1.724162 2.534312 0.974017 0.647886 -0.577835 0.477805 
1.133112 1.875331 0.779136 -0.536459 0.762388 -0.329419 
-0.859558 1.198878 0.017519 0.798460 0.230383 -0.506840 
-0.266175 0.305612 0.007190 -0.588763 -0.008552 -0.807544 
-0.556182 2.714445 0.354212 0.854150 -0.288278 -0.417295 
0.859113 0.945090 0.186218 0.819453 -0.190548 0.520010 
-1.280545 1.781399 -0.384850 0.904115 -0.187545 -0.365724 
-0.521515 1.978403 0.869327 -0.776359 0.358383 0.515084 
-0.175084 0.493013 0.579062 -0.285606 -0.040764 0.950928 
1.796169 2.495454 0.763228 0.665926 -0.580117 0.451227 
-0.632022 1.534980 0.765521 -0.955184 0.015758 0.283910 
-0.693610 2.611824 0.185343 -0.890016 0.296254 0.335939 
-0.042146 0.215947 0.573486 -0.133374 -0.184454 0.965269 
-0.218953 -0.260109 -0.016621 -0.574848 -0.076421 -0.812405 
-0.669708 2.125011 0.541919 0.780151 -0.217246 -0.546797 
-0.190517 0.978516 0.135932 -0.626357 0.422303 -0.644184 
0.910405 1.431824 0.363606 -0.611249 0.579607 -0.524863 
0.640438 1.780313 1.273289 0.560510 -0.653913 0.502738 
0.219738 0.870015 0.087260 0.613421 0.458633 -0.635789 
1.633760 2.247735 0.659981 -0.631655 0.551978 -0.510529 
-0.757163 -0.421630 -0.286181 -0.563460 0.030012 0.779735 
-0.611814 0.553793 0.204057 -0.900969 -0.287424 0.302723 
0.324826 0.437436 0.060676 0.508316 0.133920 -0.793985 
-0.137450 0.130085 0.542320 -0.267643 -0.233112 0.930527 
-0.288410 -0.539736 0.257071 -0.653963 -0.279793 0.686463 
1.161766 2.278961 1.367439 -0.562268 0.683779 -0.461987 
-0.785381 1.125510 0.169461 -0.920333 -0.103909 0.347072 
-0.256230 -0.082982 0.005295 -0.585845 -0.061907 -0.806644 
0.900834 0.546199 -0.084437 0.772460 -0.245647 0.584005 
1.596363 2.693519 1.427626 0.604868 -0.636282 0.469956 
-0.495943 1.728390 1.045179 -0.797863 0.357892 0.472017 
1.392042 2.076749 0.741046 -0.610665 0.644334 -0.429158 
0.686493 0.513687 0.193067 0.776700 -0.346126 0.521950 
-0.479861 3.159491 0.034679 -0.734542 0.483796 0.457928 
0.375581 1.565325 1.214675 0.227071 -0.454382 0.815217 
-0.323433 0.274842 0.056314 -0.306852 0.083201 -0.908260 
0.232581 0.995150 0.516198 0.761566 -0.103476 0.624150 
0.978544 0.779482 -0.065320 0.784466 -0.267646 0.556769 
1.246979 1.692923 0.275940 0.482059 -0.811803 0.216110 
-0.027978 0.750493 -0.046307 -0.281382 0.327109 -0.888628 
0.590724 -0.271860 -0.015560 0.703770 -0.170081 0.675719 
-0.090109 0.208727 -0.104892 -0.536782 0.030136 -0.840037 
-0.858957 1.040735 -0.049835 -0.891856 -0.161648 0.395261 
-0.458907 2.854663 0.397003 -0.678516 0.486796 0.540999 
-0.734044 1.510107 0.561346 -0.943040 0.011565 0.315065 
-1.267180 1.841054 -0.423074 0.871264 -0.305218 -0.342304 
0.002414 1.299587 0.201099 0.583163 0.130711 -0.748224 
1.003703 1.753731 0.789947 0.629168 -0.600161 0.467289 
0.642570 0.551051 0.333678 0.667494 -0.324812 0.603374 
-0.318411 3.134986 0.330653 0.725099 -0.446285 -0.517930 
0.684587 1.374512 0.657694 0.821778 -0.343252 0.393656 
-0.211765 -0.608344 0.052216 0.113991 -0.130067 -0.970626 
0.573228 -0.773139 -0.085100 0.551127 -0.070865 0.826256 
-0.116148 0.598243 0.585702 -0.066948 0.319868 0.941349 
-0.779681 2.033750 0.469647 -0.724040 0.490594 0.460783 
0.915234 0.750890 -0.091581 -0.586047 0.298903 -0.680423 
-0.273467 2.577627 0.829666 -0.680645 0.365320 0.634108 
-0.143298 -0.068973 -0.067478 -0.552500 -0.026053 -0.828029 
1.050347 0.230035 -0.313923 -0.543314 0.068587 -0.821149 
-0.440535 1.888932 0.991848 -0.709978 0.528076 0.460364 
0.166360 -0.905205 0.126102 0.123316 -0.317644 0.935424 
-0.520165 0.681104 0.319236 0.595385 0.431600 -0.170372 
0.490230 1.617292 1.173061 0.738747 -0.472577 0.473508 
1.710535 2.595901 1.088779 0.639355 -0.645913 0.414847 
-0.871270 0.670850 -0.342790 0.771830 0.267609 -0.522916 
1.133563 1.689064 0.405014 -0.652891 0.537292 -0.530018 
0.634426 1.319249 0.622944 -0.512417 0.587619 -0.608027 
-0.592485 0.810614 0.301769 0.951937 0.174351 -0.138545 
0.223665 -0.525689 0.307693 0.370010 -0.324325 0.857036 
-0.335775 3.224110 0.219153 -0.762363 0.449676 0.463120 
0.379410 -1.277940 0.009760 0.423699 -0.024991 0.695666 
-0.413616 1.686203 1.119336 -0.336675 0.469203 0.780408 
-0.242066 -1.081476 0.046853 -0.087975 -0.219194 0.905852 
0.112704 -0.053432 -0.086639 0.523202 -0.028636 -0.843949 
1.084352 1.014967 -0.080805 0.751390 -0.334449 0.548427 
0.583887 0.057127 0.082943 0.768635 -0.244110 0.585012 
0.256016 0.649599 -0.014092 0.619353 0.172277 -0.740826 
-0.182977 2.864892 0.733536 0.862591 -0.332093 -0.364891 
-0.364012 2.214567 0.909415 -0.746770 0.441961 0.482789 
-1.207675 1.824852 -0.223251 -0.912420 0.152382 0.363762 
-1.026296 1.481057 -0.018603 -0.886945 -0.035185 0.434032 
-0.045422 3.572685 0.332215 0.761533 -0.435842 -0.474843 
-0.219609 -0.918609 0.107367 -0.164235 -0.311529 0.932606 
-0.669863 0.646629 0.110132 -0.901620 -0.268422 0.322845 
0.144305 -0.795112 0.193476 0.152137 -0.359766 0.915797 
1.872184 2.426218 0.520904 0.674173 -0.636645 0.373440 
-0.619608 2.399900 0.469583 0.734912 -0.361194 -0.564756 
0.664570 1.004511 0.477775 0.870120 -0.102114 0.475141 
0.748958 0.808547 0.279610 0.663217 -0.286362 0.612629 
0.234964 0.550821 0.546817 0.327162 -0.021507 0.930068 
-1.173493 1.554909 -0.235011 0.869615 0.140020 -0.433631 
0.494843 0.898687 0.602581 -0.844758 0.213117 -0.488962 
1.621510 2.075291 0.358689 -0.590331 0.723654 -0.329681 
-0.645390 2.093192 0.604780 -0.801298 0.352130 0.450442 
-0.278436 0.185534 0.482224 -0.506469 -0.206873 0.794334 
1.095853 0.704136 -0.267229 -0.635599 0.181471 -0.723285 
-0.498730 -0.292053 -0.016350 -0.810764 -0.140512 0.548186 
0.228365 -0.944590 0.094125 0.139375 -0.300967 0.940842 
0.673833 1.621153 0.856566 -0.426762 0.778930 -0.395408 
1.107324 2.218672 1.371857 0.589486 -0.698637 0.403663 
1.122970 0.348046 -0.349772 0.582106 -0.060333 0.796847 
-1.081693 1.936043 -0.023363 -0.925024 0.084796 0.355610 
-0.456390 2.666982 0.527914 -0.691162 0.433320 0.572206 
0.408050 -0.631635 0.035210 -0.125960 0.072961 -0.924685 
0.212305 0.647388 0.551223 0.292470 0.317563 0.867275 
-0.323475 -0.509266 0.192378 -0.740512 -0.243906 0.615027 
0.665922 0.995965 0.389656 -0.575763 0.498356 -0.638295 
-0.467932 0.115900 0.228669 -0.837940 -0.274198 0.443092 
-0.531669 2.214228 0.704873 -0.689541 0.448052 0.553221 
1.384396 2.162324 0.935667 0.609467 -0.747678 0.259968 
-1.162447 1.168609 -0.677005 0.845281 0.389099 -0.351026 
-0.826676 1.572608 0.376717 0.768741 0.155706 -0.552117 
0.455833 -0.264757 0.047209 0.009474 0.094222 -0.891597 
-0.959250 1.593404 0.164571 0.825221 0.090605 -0.492507 
-0.568633 0.521041 0.415081 -0.572833 -0.399015 0.709033 
-0.761262 2.271824 0.293138 0.883748 -0.190780 -0.393809 
0.155212 0.724881 0.533554 0.197231 0.123646 0.949423 
-0.543079 1.678119 1.001450 -0.749967 0.415812 0.470446 
1.407904 1.944434 0.494940 0.699391 -0.463359 0.486412 
0.929219 1.294134 0.256803 -0.635257 0.526140 -0.545410 
0.453506 0.602961 0.254081 0.263685 0.605729 -0.613465 
-0.766341 0.693238 -0.084333 -0.870101 -0.285588 0.393162 
-0.861983 -0.028237 -0.396882 0.635004 0.091665 -0.666515 
0.638383 -0.472948 -0.111514 -0.396389 0.068963 -0.899124 
0.616509 1.400065 0.692685 -0.489823 0.604216 -0.607347 
-0.779780 0.914116 -0.074420 0.775491 0.338080 -0.518506 
-0.322594 0.045055 0.077423 -0.213727 0.092740 -0.949257 
-0.065397 -0.039792 0.497391 -0.134483 -0.276550 0.948354 
1.464731 1.243409 -0.510381 -0.660083 0.108684 -0.739341 
1.463234 2.509549 1.330706 0.645202 -0.680901 0.337350 
0.352581 0.202525 0.060613 0.262999 0.097882 -0.938100 
-0.666314 1.720234 0.772213 -0.948727 0.021407 0.303447 
0.502574 0.429835 0.069633 -0.036396 0.230660 -0.884520 
-0.276031 -0.861709 0.028987 0.165108 0.008379 -0.971672 
-0.897214 1.410986 0.125482 0.805362 0.169146 -0.501874 
-0.861719 0.846055 -0.279562 0.817403 0.275696 -0.503958 
-0.120262 0.621359 -0.046181 -0.453967 0.136321 -0.848537 
-0.431369 2.514583 0.640025 0.745016 -0.304284 -0.585992 
-0.364055 -0.620132 0.054918 0.112747 0.059124 -0.928041 
1.137471 1.618951 0.288796 0.602559 -0.671605 0.351263 
-1.177644 1.245360 -0.540386 0.851783 0.330633 -0.394256 
-0.197820 0.121793 -0.034631 -0.568589 -0.014727 -0.819115 
-0.892014 0.044989 -0.424165 -0.648370 -0.094388 0.639384 
-0.430084 0.578927 0.233602 -0.115585 0.517576 -0.667492 
0.061383 -0.535930 0.328516 0.116311 -0.299556 0.933377 
-0.291986 -1.249402 0.000070 0.544695 -0.377364 -0.060620 
0.983738 1.728502 0.653542 -0.480033 0.816502 -0.303848 
-0.120398 0.811959 0.014990 -0.494357 0.390628 -0.753307 
-0.679739 1.322742 0.527290 -0.951505 -0.024852 0.292380 
-0.384260 -0.022942 0.064156 -0.069154 0.113813 -0.919314 
1.381020 1.799587 0.306399 0.700943 -0.543545 0.441352 
0.586589 0.624145 0.139462 -0.235187 0.454193 -0.709965 
-0.290931 0.928762 0.385056 -0.913245 0.279627 0.185820 
-0.552077 2.571248 0.469942 -0.641250 0.445423 0.620214 
1.133338 1.372849 0.009240 -0.683773 0.478816 -0.529484 
-0.131439 0.957802 0.097027 -0.540832 0.462057 -0.678532 
-0.350183 -0.263808 0.297871 -0.742417 -0.247777 0.616575 
0.661464 0.621260 0.338390 0.506552 -0.324176 0.749982 
-0.377770 3.161296 0.218349 -0.741040 0.460256 0.483404 
0.532700 0.664441 0.361368 -0.525130 0.562644 -0.279169 
0.536722 0.068097 0.028672 -0.008347 0.130338 -0.857863 
0.382623 0.595571 0.473176 0.587849 0.089462 0.790070 
-0.481059 -0.462156 -0.021631 -0.779336 -0.115879 0.594683 
1.171781 1.601266 0.202794 0.600494 -0.675566 0.362165 
0.235866 0.722222 0.523661 0.411229 0.275047 0.849782 
-0.489524 -0.389646 -0.041660 0.366236 0.103836 -0.824436 
-0.404075 0.504371 0.202693 -0.145380 0.433499 -0.750327 
-1.144526 1.602804 -0.149068 0.871352 0.088233 -0.445604 
1.270376 1.738353 0.332261 0.432517 -0.868514 0.150649 
0.787648 0.037727 -0.127323 -0.523881 0.154838 -0.794876 
-0.204504 -0.876204 0.037642 0.160529 -0.041596 -0.975896 
0.035692 -0.281921 0.405746 0.015229 -0.283376 0.954848 
0.403621 -0.825739 0.045763 0.591731 -0.162482 0.781460 
1.063050 0.940701 -0.085000 0.759767 -0.307246 0.556266 
-0.929255 2.308661 -0.109333 -0.651214 0.643677 0.302707 
0.262421 -0.106354 0.005064 0.548774 -0.076539 -0.830596 
1.738431 2.165282 0.337704 0.655341 -0.657406 0.369096 
1.244880 1.528389 -0.073524 0.668961 -0.551945 0.465819 
0.859276 0.602889 -0.102137 -0.465292 0.228767 -0.726902 
0.269720 -0.250566 0.377670 0.559580 -0.275501 0.745190 
-0.735884 1.133644 0.276056 -0.934868 -0.084975 0.320124 
1.937988 2.627470 0.730301 0.676479 -0.629002 0.382162 
-1.263868 1.315268 -0.719171 -0.870846 -0.384624 0.298874 
-0.809129 0.169176 -0.354519 -0.784349 -0.217307 0.511686 
0.576441 -0.351877 -0.019457 0.689102 -0.160529 0.692425 
1.204248 1.212387 -0.238824 -0.707258 0.378056 -0.586216 
1.305281 1.321501 -0.341477 0.736304 -0.354272 0.567322 
-0.382658 3.348170 0.012098 -0.772348 0.459729 0.436619 
-0.758601 0.032982 -0.307946 -0.773506 -0.194415 0.539529 
-0.851862 2.544111 -0.183661 -0.802159 0.458881 0.299477 
0.085472 0.796686 0.558916 0.185467 -0.181799 0.954357 
1.116130 1.303649 -0.001941 -0.686924 0.455428 -0.542235 
0.805111 1.825922 1.088408 -0.445000 0.772838 -0.422536 
1.163094 1.448542 -0.000448 -0.681924 0.499806 -0.518217 
-0.653350 2.619687 0.259110 0.687778 -0.488888 -0.505177 
-0.116500 -0.838050 0.037083 0.036902 -0.087463 -0.993168 
1.083103 1.711747 0.521480 -0.635549 0.523218 -0.565356 
-1.218383 1.613547 -0.262845 0.874232 0.146601 -0.421284 
0.662573 0.542531 0.265342 0.793684 -0.314692 0.490754 
-0.798165 1.448285 0.400158 -0.935869 0.000031 0.333241 
0.819513 -0.426459 -0.206707 0.494248 -0.031447 0.863197 
-0.626792 -0.184656 -0.167828 0.584547 0.153099 -0.722839 
-0.950448 1.367951 0.039629 -0.897346 -0.057297 0.406785 
-0.554615 0.448669 0.404353 -0.649294 -0.404211 0.615822 
-0.977750 1.275330 -0.092946 -0.880997 -0.103625 0.431509 
0.398308 -0.760231 0.071536 0.625108 -0.173941 0.753371 
-0.884730 1.146546 -0.071607 0.812938 0.215416 -0.502140 
-0.577471 1.625501 0.929639 -0.960907 0.032878 0.269601 
0.511582 0.296007 0.324587 0.732556 -0.337134 0.578225 
0.298565 0.107230 0.457587 0.505735 -0.251880 0.795196 
-0.921863 0.460897 -0.472436 0.699495 0.280247 -0.530716 
-0.595102 -0.815174 -0.151004 -0.602562 0.118547 0.767734 
-0.189251 3.005338 0.640141 -0.798670 0.405214 0.442719 
-0.560872 -0.524782 -0.147079 0.502629 0.119095 -0.790652 
-0.121205 -0.102196 0.470626 -0.186874 -0.267403 0.941284 
-0.588647 -0.133531 -0.112989 0.523406 0.143672 -0.741326 
-0.667301 3.011787 -0.198262 0.798381 -0.437522 -0.387686 
-0.487599 0.078422 0.160210 -0.862392 -0.264495 0.412124 
-0.348493 0.465216 0.179933 -0.398384 0.341719 -0.771578 
0.130718 -1.016573 0.066381 0.065921 -0.276755 0.956996 
0.063776 -0.811487 0.042450 0.142232 -0.078361 -0.969923 
-0.811020 -0.194445 -0.345900 0.606569 0.050511 -0.712579 
0.548754 0.661220 0.206900 -0.039911 0.575606 -0.621922 
0.698633 0.424080 0.128610 0.768321 -0.321412 0.546943 
0.666110 0.704122 0.305549 0.312805 -0.350201 0.866098 
-0.475674 2.532272 0.583684 -0.683338 0.444520 0.570877 
0.031779 0.722908 0.538239 0.051039 0.024506 0.995659 
-0.522896 1.266029 0.732186 -0.382041 -0.560592 0.654818 
0.893816 0.103037 -0.213370 0.659677 -0.123133 0.733180 
0.075476 -0.738535 0.046656 0.088067 -0.096372 -0.976802 
-0.010868 1.198357 0.171813 -0.454483 0.326929 -0.805052 
-0.679771 1.854961 0.615910 0.655413 -0.201372 -0.590394 
0.668926 0.294196 -0.025120 -0.196232 0.171698 -0.804935 
0.487442 -0.118000 0.044807 0.032061 0.105942 -0.874128 
-0.211926 3.038484 0.578118 0.662209 -0.446753 -0.598266 
-0.335586 1.603859 1.272750 -0.566157 -0.134050 0.628951 
0.070791 1.209812 0.200611 0.501348 0.310880 -0.793463 
0.806494 0.197325 -0.105078 -0.554284 0.195756 -0.751509 
-0.349930 2.394666 0.795995 0.738187 -0.256987 -0.605280 
0.444640 1.239641 0.782155 -0.842142 0.081936 -0.401954 
-0.815577 0.981551 -0.083314 0.788852 0.297837 -0.512855 
0.458983 -0.973337 -0.030426 -0.398774 0.049884 -0.910899 
0.440984 0.163311 0.060945 0.105238 0.138532 -0.924235 
-0.628348 1.099114 0.462106 -0.959978 -0.068238 0.269503 
0.817833 0.596171 0.059033 0.769866 -0.317203 0.548916 
-0.227384 3.123931 0.470815 0.677871 -0.451731 -0.572321 
1.829087 2.730834 1.106193 -0.636384 0.645356 -0.417299 
-0.718567 -0.100155 -0.279237 -0.761438 -0.176284 0.563331 
-0.451966 1.981325 0.923808 -0.702597 0.522573 0.476170 
1.061619 0.772943 -0.173614 0.762380 -0.239346 0.596001 
-0.090676 0.716802 -0.041843 -0.381852 0.258703 -0.854030 
-0.340457 2.471459 0.789680 -0.755242 0.412782 0.499251 
1.768188 2.850470 1.400672 0.563536 -0.594370 0.523783 
-0.374495 0.637168 0.222515 -0.860349 0.118160 -0.373199 
1.469618 2.338722 1.077413 0.625762 -0.572058 0.516720 
-0.317527 3.031379 0.435428 0.715176 -0.439028 -0.539152 
0.184679 -0.528175 0.034998 -0.037801 -0.273018 -0.932643 
0.350377 0.620652 0.141275 0.653697 0.345314 -0.598938 
0.993299 0.837951 -0.102673 -0.697715 0.300895 -0.642728 
-0.036425 1.127322 0.141846 -0.358580 0.401478 -0.834259 
-0.411153 2.900603 0.423490 0.764354 -0.394834 -0.495378 
-0.337534 0.757190 0.224255 -0.869820 0.354735 -0.289867 
-0.225481 -0.991463 0.063877 -0.143403 -0.283789 0.945790 
-0.004083 0.031686 -0.136106 -0.434846 -0.062672 -0.875433 
-0.127239 -0.398368 0.373245 -0.085110 -0.266218 0.957650 
-0.858859 0.279218 -0.417981 0.662367 0.251846 -0.577309 
0.852430 1.667038 0.832062 0.707232 -0.530222 0.418270 
-0.624656 1.611184 0.751515 0.682056 0.212095 -0.666597 
-0.534602 -0.934408 -0.107757 0.577334 -0.017752 -0.811019 
1.600463 1.994159 0.226444 -0.581552 0.734400 -0.319209 
-0.609856 1.143349 0.558734 -0.868262 -0.216832 0.392941 
0.937797 1.107379 0.179050 0.777809 -0.303528 0.503470 
0.155367 -1.152259 0.051853 0.099736 -0.096957 0.986989 
1.659267 2.418624 0.883008 -0.630143 0.715424 -0.277722 
-0.236835 -0.610736 0.253941 -0.492373 -0.346202 0.767860 
-0.599481 2.152491 0.624541 0.697170 -0.242327 -0.628865 
0.553262 0.230002 0.222303 0.766296 -0.332928 0.541400 
-0.280613 -0.001948 0.024540 -0.480386 -0.014725 -0.844748 
0.133341 0.492214 0.593107 0.230047 -0.018744 0.968504 
0.556156 1.517099 0.839287 -0.442506 0.629458 -0.618412 
1.637304 1.945167 0.057575 -0.595769 0.720717 -0.330048 
-0.310373 -0.808566 0.127278 -0.495641 -0.250278 0.790253 
-0.661680 -0.100511 -0.201956 0.600382 0.168356 -0.699130 
-0.353080 2.933125 0.483172 0.724243 -0.429657 -0.538416 
0.170590 1.067246 0.507486 0.730696 0.541951 -0.130309 
0.108717 -0.480499 0.347247 0.080611 -0.303216 0.944847 
1.044080 0.888531 -0.132479 -0.710152 0.302013 -0.626780 
-0.871394 2.600307 -0.330506 0.882450 -0.359060 -0.301493 
-0.037505 1.207787 0.507000 0.075248 0.691601 0.697122 
-0.195048 0.331528 -0.031394 -0.558682 0.022174 -0.824551 
-0.226409 1.011911 0.207703 -0.724453 0.380690 -0.500173 
-0.215101 1.104891 0.407744 -0.348835 0.328121 0.727487 
0.683198 1.228981 0.510979 -0.550105 0.566105 -0.600929 
-0.280639 2.497712 0.826369 0.795023 -0.318287 -0.510339 
-0.910966 1.216048 -0.061428 0.821725 0.183222 -0.498124 
1.612071 2.401967 0.943255 -0.621289 0.729742 -0.263116 
0.470260 1.036438 0.708815 -0.865344 0.019897 -0.347238 
0.580126 1.476483 0.781659 -0.460041 0.621921 -0.612015 
-0.977518 1.336377 -0.041375 -0.886833 -0.078696 0.424557 
-0.025038 -0.338208 0.383046 0.026374 -0.281846 0.956352 
0.302504 -0.046226 0.031738 0.402970 0.001812 -0.882460 
-0.629322 0.672761 -0.020518 0.518023 0.299614 -0.644254 
1.354938 1.871309 0.447150 0.730650 -0.362976 0.537838 
0.639364 1.783166 1.199627 -0.392747 0.806130 -0.417235 
0.046196 0.644192 0.566188 0.033492 0.203436 0.965001 
-0.567664 0.294111 -0.072735 0.267657 0.172109 -0.760536 
-0.712173 0.119384 -0.196477 -0.792696 -0.173332 0.550508 
-0.791748 0.683504 -0.240013 0.679293 0.243625 -0.566726 
1.106324 0.822676 -0.212047 0.753918 -0.222709 0.610154 
-0.358246 0.016772 0.391942 -0.684327 -0.246062 0.671936 
0.221250 1.104970 0.649485 -0.150039 -0.301956 0.811307 
-0.442780 0.468591 0.088131 0.168660 0.259522 -0.814250 
0.140748 -0.116710 -0.069436 0.536051 -0.041996 -0.837045 
0.157189 0.391230 -0.046018 0.480941 0.053893 -0.869720 
-1.054373 1.299573 -0.240231 0.851878 0.177859 -0.461734 
1.700097 2.325751 0.662520 -0.642662 0.558829 -0.491638 
-0.801289 2.508206 -0.033155 0.881828 -0.311269 -0.343612 
-0.158382 1.196796 0.270424 -0.744555 0.546647 -0.317643 
0.613646 1.558108 0.844937 -0.462914 0.607159 -0.626720 
0.304565 0.569332 0.522855 0.461691 0.001930 0.862288 
0.798625 1.715376 0.933410 -0.382454 0.753289 -0.464937 
0.760708 0.805730 0.134504 -0.582766 0.526734 -0.617911 
0.554362 1.120436 0.729103 0.670317 -0.404403 0.618991 
1.460757 2.292473 1.016034 -0.605420 0.737305 -0.271576 
1.707284 2.479732 0.906698 0.651285 -0.563744 0.489141 
0.583314 0.965367 0.432889 -0.761925 0.285006 -0.540857 
0.041174 1.380429 0.322592 0.540602 0.733684 0.315310 
-0.793936 2.564804 -0.077000 0.878104 -0.332778 -0.338615 
0.391504 -0.906673 0.033661 0.538297 -0.166406 0.819767 
1.429587 2.238118 0.977001 -0.599001 0.759432 -0.238064 
-0.010577 0.385727 0.603122 -0.076381 -0.075294 0.990237 
-0.182483 0.045955 -0.043614 -0.564065 -0.021128 -0.821464 
-0.298491 -0.607338 0.218551 -0.686371 -0.269453 0.672250 
0.585418 1.155320 0.662352 0.876065 -0.170609 0.422334 
-0.306178 3.199533 0.287018 -0.769900 0.443515 0.456304 
-0.333801 -0.360875 0.292705 -0.737179 -0.260213 0.619379 
-0.728806 2.610137 0.060601 0.786118 -0.414537 -0.413762 
1.173428 1.360324 -0.053670 0.718322 -0.447746 0.511299 
-0.701948 1.653469 0.722018 -0.945509 0.038997 0.309386 
0.371490 0.710503 0.385433 0.920761 0.322129 0.189661 
1.103252 0.965880 -0.199073 -0.712684 0.311415 -0.621906 
0.022464 0.834038 0.576011 0.138555 -0.224226 0.956909 
0.781454 1.612924 0.732035 -0.528792 0.574106 -0.606034 
-1.228551 1.887408 -0.375168 -0.928012 0.191262 0.305053 
1.215416 0.801289 -0.369755 -0.608840 0.125450 -0.760431 
0.129391 1.129962 0.594752 -0.329916 0.191011 0.895469 
0.352750 0.124681 0.071203 0.244753 0.103185 -0.946731 
-0.180559 3.527288 0.167973 0.755671 -0.453629 -0.471502 
0.601669 0.474774 0.332772 0.675688 -0.355070 0.595874 
0.954626 1.982138 1.175787 0.661886 -0.559602 0.479969 
-1.163435 2.079092 -0.521117 -0.895588 0.314479 0.278294 
0.262209 0.821028 0.474770 0.687456 0.175690 0.638260 
-0.271213 2.784172 0.691345 -0.780563 0.373835 0.497630 
-0.643189 0.623580 0.174746 -0.913386 -0.257926 0.292877 
-0.085992 1.049647 0.133813 -0.414294 0.441660 -0.768600 
-1.077007 0.681037 -0.612905 0.755520 0.269876 -0.469684 
0.722392 1.900060 1.324924 0.315001 -0.529199 0.730865 
0.497687 0.196723 0.287283 0.737805 -0.312709 0.584516 
-0.688712 1.528320 0.657163 -0.948365 0.014808 0.301440 
0.404650 -0.339753 0.068623 0.086488 0.079217 -0.912392 
-0.500838 -0.186983 -0.038160 0.283231 0.118956 -0.811996 
-0.881632 1.598251 0.302077 0.791652 0.122333 -0.530375 
1.417564 1.703585 0.018852 0.471725 -0.834965 0.227009 
1.712373 2.274018 0.570337 0.652177 -0.674394 0.337735 
0.220035 0.028301 -0.023557 0.534878 -0.041697 -0.840539 
0.462388 0.206845 0.349386 0.704857 -0.290573 0.634123 
0.343954 -0.458984 0.207036 0.701345 -0.257046 0.660941 
-0.306969 2.279790 0.932517 -0.402837 0.357685 0.811046 
-0.555673 0.398121 0.220702 -0.865444 -0.354238 0.349871 
0.308372 -0.773076 0.146855 0.494012 -0.263716 0.793000 
-0.291854 0.098681 0.031965 -0.449639 0.009418 -0.856083 
-0.666011 -0.679086 -0.201175 -0.542897 0.083786 0.829620 
-0.949473 0.384369 -0.500213 -0.759584 -0.231782 0.491334 
0.853228 0.116858 -0.156020 0.683769 -0.160041 0.697106 
-0.027096 0.396306 -0.120519 -0.485184 0.096786 -0.865664 
0.479941 -0.776646 -0.025583 0.620868 -0.113176 0.771350 
-0.191682 0.577000 0.565661 -0.303871 -0.005632 0.940337 
-0.737463 0.556285 -0.199584 0.581672 0.222092 -0.611350 
1.118678 2.114486 1.180180 -0.534369 0.715539 -0.443449 
1.062727 1.248341 0.098293 0.724937 -0.434545 0.498937 
0.608874 0.535272 0.403570 0.540527 -0.344935 0.716627 
1.723502 2.424079 0.769369 -0.643902 0.695528 -0.294528 
0.591694 -0.516838 -0.061700 0.637897 -0.130648 0.749287 
1.536550 2.296995 0.872674 -0.637697 0.652923 -0.387223 
1.219648 1.456488 -0.091441 0.711921 -0.468778 0.507972 
1.530382 1.676375 -0.234608 -0.542986 0.753808 -0.351465 
0.883576 1.360267 0.398650 0.765034 -0.388738 0.444451 
-0.322929 0.494402 0.501291 -0.415969 -0.120298 0.882481 
0.726591 1.340875 0.586169 0.813320 -0.332553 0.411687 
-0.492746 0.479828 0.017307 0.194125 0.219392 -0.821411 
-0.620162 2.039066 0.652087 0.716080 -0.184696 -0.619809 
-0.646448 0.459735 -0.131904 0.414092 0.201385 -0.695029 
-0.721687 0.958995 0.167527 -0.927868 -0.147840 0.320630 
-0.632317 2.446064 0.410781 0.750259 -0.368437 -0.532869 
0.850853 1.244927 0.320800 -0.613938 0.535308 -0.564059 
-0.601358 2.950357 0.025159 0.864391 -0.336004 -0.362495 
-0.795714 0.749287 -0.117957 -0.877697 -0.264233 0.389909 
-0.541696 0.357348 -0.054696 0.226410 0.179412 -0.792931 
-1.124052 0.850327 -0.661892 -0.795769 -0.309899 0.396360 
-0.779691 1.062863 0.128489 -0.915993 -0.127620 0.351087 
-0.052147 1.352348 0.314067 -0.613299 0.682255 0.131825 
1.542343 1.780125 -0.069507 0.540976 -0.771801 0.280202 
-0.221469 3.313574 0.305783 -0.776441 0.443266 0.446264 
-0.073247 0.349395 0.602346 -0.167402 -0.096784 0.974127 
1.030206 0.968499 -0.025217 0.766304 -0.299678 0.545384 
0.111773 0.384676 0.598831 0.205900 -0.069479 0.968870 
-0.784715 2.015690 0.389460 0.871209 -0.085483 -0.451029 
1.215225 1.009939 -0.284717 0.747931 -0.213422 0.618822 
0.154891 -0.333269 0.388867 0.166972 -0.266123 0.942577 
-0.400274 0.270432 0.048903 -0.023915 0.157130 -0.929810 
-0.135846 1.247392 0.422170 -0.461180 0.794478 0.293723 
0.976439 1.839769 0.935306 -0.487529 0.704767 -0.479650 
-0.542423 3.024232 0.061254 0.845239 -0.355758 -0.382286 
0.210496 -0.002325 0.475033 0.392954 -0.265032 0.852232 
1.030826 0.147898 -0.305648 0.571356 -0.059373 0.805713 
-0.186641 1.172734 0.638333 0.527221 0.394255 0.707223 
0.522466 0.144762 0.031866 0.003144 0.140763 -0.874514 
0.392965 -0.973403 0.007039 -0.319426 0.058709 -0.945282 
-0.543046 2.506758 0.521049 0.799492 -0.292180 -0.524411 
-0.673037 1.154477 0.318820 0.713138 0.399095 -0.538590 
-0.382160 1.893238 1.045016 -0.246471 0.352265 0.875256 
-0.685430 2.355523 0.374809 0.810598 -0.325064 -0.474827 
-0.654592 2.689183 0.217192 -0.911065 0.262137 0.311801 
-0.312375 -0.687742 0.008039 -0.004644 -0.044751 -0.874625 
-0.678240 -0.607926 -0.216079 -0.560102 0.050706 0.807380 
-0.862875 1.961527 0.369010 -0.920912 -0.035383 0.383233 
-0.501507 1.010448 0.610397 -0.777924 -0.314019 0.515949 
-0.794317 1.059664 0.020138 0.774901 0.305940 -0.517065 
-1.086622 0.754113 -0.627680 -0.789980 -0.295365 0.414407 
-0.490644 0.556846 0.091195 0.314935 0.314240 -0.724113 
1.548177 2.210824 0.743963 -0.622510 0.515799 -0.558213 
-0.088010 -0.903660 0.140830 -0.153283 -0.308414 0.926728 
-0.594649 1.034141 0.505482 -0.703478 -0.426426 0.552089 
-1.012457 1.747571 0.191123 0.844552 -0.001170 -0.501575 
1.434681 1.872348 0.302702 0.731295 -0.377672 0.523265 
-0.236111 -0.220911 0.399495 -0.486370 -0.268404 0.781003 
-0.571093 0.730723 0.303135 0.894026 0.358379 -0.015779 
-0.468061 1.802710 1.008101 -0.696958 0.540402 0.466163 
-0.761225 1.654996 0.550978 0.739359 0.139096 -0.607386 
1.564882 2.622385 1.346178 0.652958 -0.684687 0.318653 
0.385460 0.571237 0.305176 0.446468 0.568001 -0.523236 
-0.032518 -0.989609 0.093336 -0.351975 -0.242090 0.898198 
-0.038834 -0.261065 0.414132 -0.020523 -0.280458 0.955617 
-0.442450 0.020866 0.220684 -0.825160 -0.240001 0.485081 
0.139251 0.718267 -0.027731 0.445091 0.275016 -0.808598 
-1.025044 1.866540 0.142930 0.803160 -0.214481 -0.486599 
0.103520 -0.351341 -0.058340 0.418861 -0.199030 -0.868085 
-0.214501 3.190334 0.432910 -0.789386 0.430574 0.436194 
0.601696 1.671405 1.133404 0.697325 -0.499391 0.496372 
0.847636 0.302157 -0.096349 0.737082 -0.213554 0.628738 
0.307345 -0.550771 0.231943 0.670036 -0.282469 0.685455 
-1.124606 0.925897 -0.671501 -0.835436 -0.354630 0.349541 
0.226713 1.048056 0.573389 0.577515 0.693751 -0.342573 
1.365983 2.205996 1.022802 0.597204 -0.545571 0.578874 
0.975472 0.760425 -0.148353 -0.626852 0.259052 -0.675922 
-0.188304 3.100530 0.549629 0.655889 -0.452751 -0.599402 
1.805791 2.600371 0.934971 -0.644720 0.674063 -0.346289 
-0.059851 -1.046276 0.055916 -0.250747 -0.237341 0.924496 
-0.498749 3.066147 0.107801 -0.695662 0.508700 0.489004 
0.803254 1.203724 0.352672 -0.602022 0.535886 -0.577961 
-0.255141 -0.493024 0.303237 -0.490576 -0.290458 0.788592 
-0.100685 1.284074 0.295926 -0.698032 0.609572 -0.113341 
0.584992 0.730704 0.392124 0.415200 -0.380802 0.755239 
1.684920 2.218879 0.532449 -0.634277 0.614972 -0.440848 
1.505270 2.294670 0.951297 -0.608310 0.759713 -0.219002 
1.087052 1.314705 0.063649 -0.681773 0.472529 -0.532396 
-0.767992 2.713788 -0.147946 -0.892330 0.335612 0.295806 
-1.127774 1.933080 -0.174657 0.804130 -0.377813 -0.377030 
0.115432 0.812048 0.013823 0.488865 0.388058 -0.757912 
1.218620 1.900186 0.739037 0.618803 -0.646758 0.435402 
0.468101 0.115768 0.285855 0.725968 -0.280549 0.614631 
-0.647471 0.734479 0.018785 0.616501 0.345767 -0.585311 
-0.603022 2.643717 0.358124 -0.729301 0.430625 0.523447 
0.251235 1.047461 0.294336 0.880931 0.414939 -0.172792 
0.018991 -0.138063 0.460956 0.041024 -0.285350 0.954574 
0.904438 0.257973 -0.189991 -0.552192 0.151657 -0.780734 
-0.511871 0.232470 0.210102 -0.864079 -0.315574 0.376115 
0.309736 -0.109288 0.394301 0.586821 -0.264216 0.737930 
-0.782745 2.386399 0.145052 0.878329 -0.284474 -0.371742 
-0.597535 0.020487 -0.079991 -0.830989 -0.173890 0.509879 
0.549502 1.224838 0.666865 -0.492976 0.579180 -0.637741 
0.137497 -0.209608 -0.060756 0.503063 -0.095425 -0.844727 
-0.850195 0.911048 -0.204663 0.808689 0.277059 -0.506402 
0.465179 -0.879973 -0.029013 -0.345906 0.054389 -0.933136 
0.554482 -0.088460 0.042392 0.769176 -0.203465 0.605004 
1.667953 1.894995 -0.090793 0.608152 -0.712401 0.314467 
-1.155334 1.309505 -0.379184 -0.878365 -0.238471 0.394376 
-0.375065 -0.188663 0.260889 -0.769674 -0.218506 0.589246 
0.664473 0.320269 0.118054 0.768366 -0.300594 0.557198 
-0.506815 2.960690 0.211926 -0.659007 0.527967 0.523618 
-1.047753 0.579870 -0.583030 -0.744287 -0.235645 0.479816 
1.396296 1.532068 -0.261186 -0.498015 0.790374 -0.345139 
0.488468 0.014085 0.047570 0.057756 0.119442 -0.880270 
1.064532 1.934644 0.997478 0.609458 -0.707324 0.321127 
-0.654529 2.990910 -0.131702 -0.868649 0.358085 0.329742 
-0.308266 -0.482880 0.075941 -0.175932 0.023941 -0.925347 
1.215789 1.390365 -0.124566 0.719981 -0.440606 0.519401 
-0.418071 -0.454886 0.017771 0.183451 0.082398 -0.882313 
0.199554 1.468223 1.289821 0.059107 -0.883126 0.263931 
-0.965271 2.457889 -0.456459 0.874776 -0.382782 -0.291209 
0.536543 1.089981 0.582080 -0.695856 0.367913 -0.572653 
0.074212 -1.076151 0.053252 0.232077 -0.197078 0.936468 
1.448371 2.102705 0.698791 -0.615135 0.639909 -0.430173 
-0.398661 -0.018081 0.287412 -0.769002 -0.205015 0.595027 
-0.407141 0.377399 0.063745 0.019530 0.187307 -0.914300 
0.413376 1.476555 1.077304 0.858561 -0.308789 0.367189 
-0.274970 -0.399504 0.055955 -0.380352 -0.022653 -0.885359 
-0.616492 0.098846 -0.089518 -0.839349 -0.183300 0.496145 
-0.694897 -0.382114 -0.251710 0.554728 0.065872 -0.758395 
0.836685 0.377405 -0.075518 0.762227 -0.226491 0.601527 
-0.973893 1.407644 -0.016327 0.841536 0.102677 -0.488668 
0.823210 0.886432 0.129576 -0.628525 0.420595 -0.637564 
-0.495230 2.160134 0.774572 -0.678572 0.486059 0.537864 
0.635081 -0.358199 -0.061845 0.660117 -0.150080 0.721938 
0.223825 -0.419732 0.003803 0.443795 -0.159791 -0.840634 
-0.078405 0.775770 0.553117 -0.138842 -0.126099 0.968358 
0.284639 -0.399694 0.066756 0.388758 -0.014313 -0.893668 
0.043796 0.438157 0.598931 0.110739 -0.037959 0.984987 
-0.373853 -0.764407 0.079948 -0.677863 -0.160802 0.706176 
1.018107 1.052217 0.000061 -0.686641 0.384434 -0.592005 
1.255346 1.499832 -0.139930 0.710983 -0.470958 0.511339 
0.034290 1.098385 0.582027 -0.033923 0.304310 0.920855 
1.496268 1.322626 -0.522086 0.698521 -0.102054 0.707552 
-0.457856 -0.594926 -0.015349 -0.760127 -0.098338 0.624291 
0.568444 0.465520 0.411151 0.532580 -0.374269 0.723545 
1.443747 1.599764 -0.217640 -0.521244 0.761967 -0.358885 
-0.177419 -0.775858 0.197912 -0.187536 -0.367222 0.908321 
0.240845 -0.844804 0.147877 0.215024 -0.332937 0.911346 
-0.842852 1.132435 -0.007399 0.793992 0.253850 -0.509239 
-0.030822 0.325332 -0.133594 -0.506147 0.072987 -0.856982 
0.244269 -0.991189 0.036455 -0.209098 -0.007556 -0.969308 
-0.531932 2.040764 0.818638 -0.812455 0.313009 0.483246 
-0.675751 2.439536 0.355026 -0.860384 0.298476 0.407358 
-0.113488 3.170799 0.588618 0.807947 -0.388958 -0.426383 
1.757202 2.807283 1.344472 -0.608815 0.646830 -0.451481 
0.803652 -0.180836 -0.192480 -0.454309 0.070146 -0.867731 
0.479342 1.235097 0.852006 0.153420 -0.624623 0.587107 
-0.879642 1.668510 0.358591 0.789501 0.088014 -0.549678 
0.503715 1.525653 0.925790 -0.419421 0.627107 -0.642664 
1.084224 0.407963 -0.327767 -0.543230 0.084431 -0.813413 
0.759720 1.082783 0.330327 -0.598731 0.499697 -0.609620 
-0.416248 3.212722 0.103819 -0.723338 0.490297 0.475491 
1.163974 2.057295 1.066755 0.551046 -0.586635 0.587357 
0.723753 0.734488 0.251673 0.402077 -0.307760 0.848391 
1.168771 0.956783 -0.271928 -0.703290 0.226827 -0.668137 
-0.629502 0.369056 0.020596 -0.863139 -0.272565 0.411936 
-0.310588 -0.309035 0.121116 -0.213906 0.067558 -0.968540 
1.503444 1.837315 0.087974 -0.649450 0.602322 -0.444668 
-0.608025 0.636847 0.320367 -0.577645 -0.333740 0.734754 
-1.014594 2.181445 -0.277183 0.844678 -0.409207 -0.334233 
0.620746 0.322491 0.180149 0.767215 -0.328550 0.543498 
0.991034 1.036497 0.066796 0.770144 -0.305092 0.525917 
-0.961631 1.472788 0.104844 -0.904147 -0.018141 0.400939 
-0.619347 3.104751 -0.194871 -0.800468 0.441241 0.385851 
-0.719347 1.433748 0.455379 0.725646 0.265192 -0.571490 
-0.524909 3.099690 0.011625 -0.732399 0.485085 0.454668 
-0.162145 3.238039 0.462853 0.681074 -0.452328 -0.568087 
0.342885 -0.368651 0.101103 0.222449 0.062616 -0.934650 
-0.677074 1.311320 0.435156 0.709930 0.342118 -0.561501 
-0.085998 -0.797011 0.203577 -0.194621 -0.347000 0.905930 
0.784595 1.653590 0.887257 0.725545 -0.527735 0.379747 
1.396219 1.816350 0.235733 -0.667538 0.551385 -0.489815 
0.404269 0.587672 0.395267 0.049071 0.651874 -0.419080 
-0.180859 1.104116 0.573031 -0.796952 0.362020 -0.376987 
-0.281362 2.431461 0.885598 -0.486092 0.360269 0.766556 
-1.045558 1.177646 -0.290232 -0.874268 -0.210307 0.415902 
0.553030 1.586255 0.963344 -0.310361 0.879610 -0.312542 
-0.689676 1.032363 0.187185 0.727156 0.400910 -0.534861 
0.345045 -1.025292 0.045605 0.353470 -0.201826 0.890996 
0.377312 0.365525 0.473607 0.462568 -0.160348 0.859762 
-0.699719 0.868929 0.054632 0.760649 0.396371 -0.507644 
1.216878 1.654205 0.220073 -0.643659 0.583578 -0.477132 
-0.600704 0.411822 0.120872 -0.864508 -0.319393 0.376889 
-1.130333 2.028774 -0.336738 0.804960 -0.443435 -0.336699 
0.183857 0.785170 0.026395 0.552965 0.446668 -0.662600 
0.295165 -0.897731 0.096069 0.306272 -0.271121 0.878661 
-1.134430 2.066892 -0.403595 -0.911148 0.251594 0.280858 
-0.722971 1.689866 0.641023 0.721684 0.133511 -0.635709 
0.143140 1.246025 0.395544 0.622311 0.741845 0.104654 
-0.101897 1.289673 0.367987 -0.624175 0.702639 0.248949 
0.969733 0.079569 -0.274616 -0.515871 0.066955 -0.836549 
1.165756 0.625115 -0.363547 0.669299 -0.103107 0.732808 
1.046828 0.550023 -0.239521 0.707728 -0.168516 0.672628 
0.382127 -0.439326 0.138357 0.720022 -0.222851 0.650607 
0.567564 1.366052 0.730244 -0.474874 0.603074 -0.623065 
-0.593090 1.224087 0.512904 0.675810 0.417098 -0.582232 
1.294135 0.824732 -0.429691 0.649773 -0.085507 0.746595 
0.496423 0.616467 0.467594 0.102392 -0.470658 0.852151 
1.000832 1.915787 1.062631 0.585471 -0.650540 0.479953 
-0.739404 1.289315 0.394449 -0.944592 -0.030942 0.310026 
0.126889 0.248089 0.573796 0.233628 -0.159261 0.951813 
-0.364251 -0.296663 0.230238 -0.777945 -0.220404 0.577078 
-0.873666 0.472466 -0.394427 0.714310 0.262822 -0.547230 
1.528500 2.380558 1.048748 0.631203 -0.569188 0.511879 
1.387018 1.562703 -0.185004 0.487307 -0.810685 0.300263 
-0.650634 0.653641 -0.086901 0.492934 0.263709 -0.664910 
1.175053 1.919442 0.824367 0.580599 -0.697312 0.416947 
-0.922735 2.201861 0.004973 0.929338 -0.148535 -0.329384 
-0.320274 2.683472 0.691967 -0.762648 0.387917 0.512862 
-0.522494 0.030096 0.041175 -0.860785 -0.209418 0.453386 
-0.755384 1.370965 0.423338 -0.941837 -0.015117 0.317507 
-0.776480 0.099030 -0.332930 0.630286 0.216349 -0.630942 
0.623542 0.120133 0.063016 0.769097 -0.245035 0.584526 
-0.507970 0.532796 0.482306 -0.479470 -0.420396 0.746014 
-0.400610 -0.505321 0.070148 -0.791463 -0.144344 0.575268 
-0.817656 1.780065 0.469362 0.727228 -0.057614 -0.587064 
-0.512649 0.957997 0.558772 0.937804 0.126208 -0.316180 
-0.715619 0.860841 0.130730 -0.940651 -0.172108 0.286071 
-0.641950 0.621478 0.260321 -0.825677 -0.272595 0.394421 
-0.322605 2.186726 0.960229 0.928370 -0.231073 -0.156051 
-0.698464 2.711258 0.063064 -0.910095 0.283658 0.295882 
0.194833 0.315345 -0.040355 0.508148 0.015868 -0.859039 
-0.981994 1.696346 0.240655 -0.911067 0.048901 0.398286 
0.249964 -0.558438 0.035226 -0.032971 -0.154993 -0.915753 
1.012289 1.458411 0.289595 0.715974 -0.492288 0.451064 
-0.677741 2.673123 0.145469 0.696369 -0.494657 -0.480561 
0.357909 -0.615429 0.146979 0.662107 -0.227559 0.705661 
0.743510 1.273568 0.527797 0.816092 -0.292616 0.431776 
0.265892 0.993745 0.435514 0.891319 0.229605 0.285437 
-0.290270 0.729676 0.499410 -0.542696 0.296750 0.764774 
-0.046780 0.463967 0.597442 -0.114717 -0.021337 0.983899 
-0.782047 1.263257 0.291490 -0.934283 -0.046772 0.329908 
0.532044 -0.834576 -0.063467 -0.376712 0.045249 -0.921237 
1.802261 2.539023 0.829008 -0.650025 0.673706 -0.334464 
0.695916 0.590854 0.004868 -0.306525 0.278501 -0.780572 
-0.823192 0.835666 -0.210559 0.807264 0.304312 -0.501687 
-0.817904 1.749697 0.537041 -0.930170 0.038117 0.350694 
0.216006 0.937849 0.131423 0.663195 0.426931 -0.609067 
0.456358 0.263839 0.052774 0.076945 0.154277 -0.926119 
-0.356107 -0.468259 0.144751 -0.775583 -0.204609 0.580620 
-0.936576 2.460851 -0.357757 -0.828182 0.445155 0.281893 
1.187374 1.734988 0.522467 0.625289 -0.613767 0.399440 
-1.018208 0.785524 -0.530091 -0.836492 -0.312019 0.392828 
-0.579698 3.114492 -0.124409 0.833941 -0.394766 -0.375421 
-0.465303 -0.107488 0.082984 -0.860178 -0.196424 0.460514 
-1.054479 2.121743 -0.245159 -0.926835 0.185039 0.274792 
0.505619 0.599890 0.200006 0.054237 0.525730 -0.667238 
-0.140696 1.123762 0.430833 -0.830356 -0.060955 0.414326 
1.084576 1.645223 0.438926 0.495631 -0.782877 0.227906 
-1.133565 1.194447 -0.487405 0.847975 0.314582 -0.415718 
-0.455647 3.143819 0.105056 -0.709092 0.500167 0.482404 
-0.464873 -0.077892 0.001280 0.108621 0.116818 -0.838710 
0.941071 1.628665 0.552051 -0.594994 0.560637 -0.561148 
-0.033989 3.656348 0.275004 0.746860 -0.447991 -0.490616 
0.722857 -0.122097 -0.082476 0.682150 -0.170864 0.694173 
-0.746870 1.601165 0.602693 -0.940574 0.029184 0.321847 
-1.203429 1.155891 -0.744030 0.831857 0.403833 -0.337351 
0.435859 -0.534733 0.029627 -0.128584 0.082485 -0.910800 
1.569752 2.065277 0.428692 -0.577773 0.736671 -0.319808 
0.420040 1.535112 1.027474 -0.344774 0.800084 -0.436246 
0.694745 1.833410 1.278068 0.624936 -0.616321 0.456372 
-1.001266 0.695133 -0.539792 0.747801 0.316192 -0.471327 
1.018668 2.033586 1.168384 -0.504961 0.739061 -0.429260 
-0.423803 1.659554 1.054461 0.795836 -0.374503 -0.462352 
0.762316 1.223276 0.413832 -0.585411 0.556880 -0.579708 
-0.654349 1.658010 0.812251 -0.951245 0.039592 0.294636 
0.810636 1.897173 1.218185 0.685496 -0.552096 0.454608 
0.858370 0.675707 -0.100809 -0.473505 0.243167 -0.732850 
-0.822070 1.680543 0.521722 -0.930649 0.044918 0.347783 
-0.545941 1.722508 0.858195 0.701813 0.132250 -0.617162 
0.001293 0.926949 0.014862 0.364264 0.500608 -0.781913 
0.930405 2.078786 1.330504 -0.503351 0.737036 -0.433892 
0.678221 -0.361299 -0.126215 -0.413661 0.078598 -0.885634 
1.055019 2.170844 1.360488 0.600251 -0.682852 0.407711 
0.500674 0.976405 0.646480 0.519476 -0.501828 0.617709 
1.558022 2.480229 1.146773 -0.619329 0.653410 -0.431483 
0.724344 0.540899 -0.051589 -0.288178 0.211415 -0.799200 
-0.460707 1.815233 0.936728 0.708908 -0.213559 -0.662879 
0.505417 1.293484 0.760298 -0.461286 0.596264 -0.645049 
-0.861383 2.040925 0.367295 -0.883729 0.137189 0.426103 
0.807842 1.767608 1.009899 -0.381174 0.699020 -0.556364 
0.142177 1.133583 0.487956 0.961862 -0.042337 -0.048402 
1.474274 1.873704 0.230086 0.720830 -0.415921 0.500812 
-0.543987 1.039298 0.559384 -0.657400 -0.435075 0.581369 
1.461879 2.213074 0.889876 -0.615292 0.443951 -0.642028 
-1.006918 2.305353 -0.380226 -0.766024 0.527105 0.279479 
0.541977 1.343535 0.820695 0.867179 -0.283357 0.367080 
-1.101729 1.141541 -0.431373 -0.872264 -0.285622 0.391283 
-0.062902 0.543766 0.593052 -0.131231 0.018906 0.983525 
0.313471 0.600105 0.014374 0.674690 0.152272 -0.707749 
-0.359298 3.253268 0.155232 -0.756626 0.456166 0.466329 
0.519070 0.238192 0.030687 -0.000644 0.154319 -0.886620 
-0.361006 0.376210 0.146327 -0.185850 0.284653 -0.893472 
-0.098550 0.278682 -0.100274 -0.539271 0.037749 -0.838945 
0.530183 0.874176 0.544834 0.651896 -0.422192 0.618062 
1.230679 1.902317 0.668270 -0.527720 0.785380 -0.278888 
0.050926 0.230164 0.576229 0.138157 -0.175931 0.966667 
-0.978521 1.897594 0.191798 0.758211 -0.294719 -0.504076 
0.437572 -0.726878 0.023298 0.643480 -0.139955 0.743713 
0.157361 -1.077792 0.036489 -0.065876 -0.052536 -0.990141 
-0.571803 0.776549 0.366265 -0.711062 -0.261376 0.594010 
-1.265221 1.348848 -0.639523 0.859554 0.359992 -0.353618 
0.370401 -0.176730 0.095324 0.224588 0.084141 -0.928742 
-0.795502 1.165975 0.106324 0.770055 0.290684 -0.517618 
-0.443251 -0.773323 -0.026090 0.446589 0.069138 -0.867733 
-0.625625 1.477120 0.648515 0.684957 0.278638 -0.631226 
-0.674149 0.072134 -0.157165 -0.800233 -0.168608 0.546378 
-0.649605 2.792335 0.099800 0.672510 -0.524901 -0.492952 
-0.454466 0.597834 0.517237 -0.374534 -0.408270 0.801282 
-0.742419 0.549934 -0.126127 -0.862982 -0.254985 0.429161 
-0.069787 -0.972353 0.031216 -0.139359 -0.054694 -0.973756 
-0.634880 0.551748 0.132986 -0.881021 -0.311717 0.343293 
0.221746 -0.872936 0.042433 -0.189906 -0.034050 -0.971907 
-1.032799 1.602743 0.070152 -0.896640 0.012308 0.423840 
-0.318067 2.883640 0.565802 -0.754963 0.409273 0.509277 
-1.068991 1.069381 -0.479910 -0.867574 -0.311242 0.374493 
-1.189145 1.305089 -0.459019 0.856359 0.292180 -0.416698 
-0.700269 0.858557 0.225787 -0.941355 -0.167704 0.262203 
-0.626426 0.312470 -0.116789 0.380532 0.180095 -0.703716 
-0.127717 -0.230421 0.427526 -0.153133 -0.268061 0.949049 
0.710623 1.416109 0.590830 -0.527629 0.597407 -0.580528 
0.376407 -0.363000 0.197232 0.730643 -0.235956 0.637407 
0.274596 -0.671718 0.205731 0.495507 -0.308560 0.773859 
-0.010082 0.109494 -0.142155 -0.467881 -0.015238 -0.866506 
-0.135180 -0.925081 0.032360 0.053896 -0.067962 -0.990834 
0.322191 0.055562 0.042987 0.348923 0.039534 -0.904120 
0.919346 1.510772 0.400409 -0.600628 0.593085 -0.516975 
1.014150 2.131044 1.315647 -0.521710 0.717657 -0.451650 
0.144469 0.870045 0.048523 0.542412 0.427665 -0.704410 
-0.476957 0.203490 0.266054 -0.827736 -0.296030 0.444799 
-0.452416 0.334688 0.010306 0.070299 0.169980 -0.882296 
-0.048522 1.316020 0.249880 -0.617882 0.489243 -0.547412 
0.603765 0.237518 0.156228 0.767536 -0.304715 0.555221 
-0.615844 2.705085 0.298027 -0.747222 0.440066 0.486446 
-1.031754 2.115649 -0.159561 -0.937961 0.139950 0.276286 
-0.338320 3.324119 0.114522 -0.768089 0.457921 0.446815 
0.976682 1.619213 0.486043 -0.611025 0.564032 -0.542155 
0.628697 1.321001 0.698825 0.844325 -0.292360 0.393112 
-0.515773 2.273321 0.669767 0.785676 -0.210141 -0.562957 
0.283424 1.488511 1.182832 -0.651990 -0.289128 -0.649108 
-0.833897 0.754168 -0.204197 -0.863716 -0.268226 0.423221 
0.589934 1.199574 0.603804 -0.515121 0.570388 -0.628437 
-0.783115 -0.331166 -0.312727 0.587901 0.001865 -0.751953 
0.025132 -0.185019 -0.105302 0.379630 -0.167473 -0.888105 
1.179567 2.241149 1.310140 0.604958 -0.670954 0.422369 
-0.693905 0.650182 -0.168672 0.507704 0.232067 -0.663883 
0.422957 -1.119260 -0.018910 -0.472382 0.049487 -0.878067 
-0.739624 -0.033681 -0.295491 -0.767296 -0.185822 0.551057 
1.307811 1.201271 -0.354767 0.733485 -0.250369 0.614648 
-1.285532 1.860961 -0.513885 0.893627 -0.282880 -0.328287 
-0.831033 2.235100 0.229959 -0.705193 0.528988 0.410635 
0.466603 0.311964 0.381689 0.640401 -0.270154 0.686263 
-1.173783 1.496475 -0.281824 0.866410 0.172674 -0.430803 
-1.144044 1.156591 -0.593595 -0.867830 -0.348715 0.338210 
0.886180 0.178048 -0.175007 0.684358 -0.156848 0.697877 
0.071600 0.456896 -0.082028 0.450434 0.104046 -0.882265 
1.726052 2.753288 1.303561 -0.609026 0.641816 -0.457549 
0.503406 1.590777 1.108972 0.826455 -0.492969 0.211244 
-0.091435 -0.009649 -0.098624 -0.527165 -0.014081 -0.840904 
1.042375 0.449617 -0.284482 -0.555882 0.119742 -0.791580 
0.661261 1.198056 0.590106 0.848901 -0.219867 0.430202 
1.827684 2.651999 0.989056 0.653035 -0.618057 0.425680 
-0.766078 2.183534 0.350453 0.883716 -0.135033 -0.414253 
1.174717 1.964049 0.883190 -0.563704 0.679788 -0.455089 
-0.146533 -0.961492 0.095062 -0.108287 -0.298539 0.944227 
-0.611783 1.360512 0.678376 -0.959383 -0.017974 0.272273 
0.471896 1.302951 0.922667 0.700986 -0.323341 0.610907 
0.806809 1.369236 0.500496 0.786526 -0.373492 0.424026 
-0.581556 0.748713 0.207870 0.697699 0.296966 -0.075041 
-0.499977 3.180990 -0.034070 -0.760402 0.467169 0.433565 
-0.363971 -0.559703 0.122524 -0.749339 -0.187821 0.617481 
0.836442 1.589862 0.613225 -0.554369 0.583529 -0.570843 
0.341383 0.706675 0.469646 0.699018 0.350005 0.575451 
0.005470 0.266941 -0.160083 0.495700 0.062441 -0.865940 
-0.481655 1.489530 0.927601 0.917299 -0.315443 0.135712 
0.640075 1.734921 1.133660 -0.393066 0.824701 -0.382455 
-0.214030 2.911512 0.674100 -0.795016 0.389356 0.461677 
-0.905543 0.615768 -0.382769 -0.830771 -0.260945 0.445666 
0.272442 -0.253587 0.020659 0.473626 -0.052901 -0.854544 
0.700564 1.667219 0.966091 -0.319880 0.757514 -0.496663 
1.073234 1.091424 -0.056031 -0.698028 0.379557 -0.583761 
-0.606365 1.955043 0.732552 -0.825051 0.382790 0.359051 
-0.734488 2.227861 0.408479 -0.766318 0.377311 0.509550 
1.323677 1.532167 -0.163459 0.574633 -0.692176 0.387682 
0.271555 0.268162 0.516519 0.448095 -0.155033 0.847974 
0.805644 0.855596 0.204889 0.834236 -0.215214 0.498259 
-0.554318 0.098945 0.012459 -0.861008 -0.212975 0.452078 
-0.459308 0.175027 0.007294 0.072732 0.147485 -0.860599 
1.141109 1.022673 -0.237474 -0.713564 0.320644 -0.617260 
-0.134072 0.314983 0.590428 -0.252528 -0.115863 0.955020 
1.528337 2.519513 1.242789 -0.602268 0.636074 -0.476555 
0.427560 0.060899 0.068457 0.131212 0.122628 -0.921005 
1.567616 1.883344 0.051658 -0.575981 0.741125 -0.315142 
0.656351 1.690302 1.057693 -0.294134 0.705583 -0.603254 
-0.748176 2.411515 0.201970 0.866188 -0.311776 -0.385351 
0.520243 -0.975480 -0.065324 -0.474168 0.041617 -0.878214 
-0.524508 0.601691 0.442573 -0.462051 -0.424229 0.761974 
-0.263651 2.878404 0.636025 -0.777250 0.394174 0.486112 
-0.489825 2.727754 0.445033 -0.668725 0.458420 0.576986 
1.012819 1.373798 0.238602 0.725423 -0.457531 0.466908 
-0.000632 1.153878 0.553188 -0.034877 0.553065 0.822129 
-0.702311 2.933016 -0.207150 -0.867608 0.371049 0.322521 
-0.788992 2.338943 0.223924 -0.769129 0.451106 0.395806 
-0.575428 0.327105 0.122444 -0.863883 -0.302261 0.388284 
-0.720243 2.280864 0.363713 0.845556 -0.264645 -0.445320 
1.196263 1.567479 0.100338 0.609682 -0.666037 0.389921 
1.439416 1.341269 -0.468620 -0.685337 0.205813 -0.680082 
-0.825930 0.050584 -0.385302 -0.731818 -0.174073 0.561083 
-0.173088 -0.506345 0.024349 -0.079007 -0.283466 -0.916753 
-0.962652 0.299302 -0.497498 0.691120 0.172514 -0.575764 
-0.401695 -1.039110 -0.007269 -0.692631 0.030153 0.688749 
-0.433618 -0.874664 -0.031696 0.433321 0.060278 -0.883243 
0.154954 -0.641016 0.277443 0.255569 -0.406715 0.874058 
-0.729958 2.554017 0.110233 0.809388 -0.387017 -0.406429 
0.537602 1.072325 0.679079 0.354957 -0.593868 0.617330 
-0.104752 0.960586 0.588458 -0.200374 -0.149124 0.962470 
-0.618902 0.392223 -0.111096 0.362320 0.189767 -0.717053 
-0.542861 2.880242 0.234847 -0.634610 0.544718 0.539219 
1.619514 1.879367 -0.031293 0.580325 -0.738480 0.286636 
0.177844 1.215566 0.537319 0.884229 -0.390411 -0.206962 
-0.656023 1.929629 0.684538 -0.796511 0.435557 0.360923 
-0.490744 2.590023 0.531633 0.776722 -0.321858 -0.536956 
-0.916388 1.289388 -0.010320 0.820544 0.168680 -0.497713 
-0.319400 -0.040707 0.089933 -0.211920 0.088117 -0.956438 
-0.412359 2.598731 0.614931 -0.714082 0.455908 0.524710 
0.314074 -0.298260 0.341921 0.648710 -0.275381 0.692916 
