-0.569315 -0.873465 0.318167 -0.612257 0.041077 -0.744077 
-0.036967 -0.282422 -0.181366 -0.336911 -0.210953 -0.902627 
1.162890 1.120529 2.910279 -0.720098 -0.416653 0.544649 
0.510335 0.607015 0.299324 0.779776 0.582214 -0.141511 
0.643698 1.161623 2.113378 0.829954 0.381904 -0.375043 
0.820092 0.493920 1.882549 -0.689753 -0.247190 0.656488 
0.271987 -0.053121 -0.080134 0.488260 -0.106845 -0.861835 
-0.274262 0.287755 0.440511 -0.394480 -0.060639 0.905652 
0.004379 -0.262351 0.333451 -0.033375 -0.366236 0.926463 
1.138423 -0.365419 1.090158 0.768550 0.475023 -0.292654 
0.016746 1.418018 0.182639 0.386263 0.818869 -0.119866 
0.567450 1.028265 1.857112 0.833638 0.310847 -0.420362 
-0.973749 0.107066 1.439489 0.455877 -0.489473 0.308087 
1.498589 0.787459 3.062929 0.709106 0.455067 -0.538328 
1.051122 0.897719 2.579385 -0.728773 -0.423392 0.534843 
0.654840 0.078215 0.370267 0.828187 0.138877 -0.497700 
-0.099650 -0.217388 0.359766 -0.123467 -0.333808 0.934129 
0.484744 0.634372 0.191279 0.782117 0.543010 -0.219125 
-1.255196 -0.459333 1.297702 0.878063 -0.143964 0.430734 
-0.646404 0.676224 1.491161 -0.881662 0.346966 0.099798 
-0.566952 0.482063 0.601396 0.875180 -0.272246 0.322272 
-0.320835 -0.026055 -0.055682 -0.516670 -0.085408 -0.837276 
1.433591 0.170846 2.496024 -0.672422 -0.327371 0.657169 
1.018902 0.961492 2.589171 -0.732655 -0.441511 0.516630 
-0.169574 1.224195 0.431516 0.274942 0.896775 0.297729 
-0.517252 1.025620 1.469642 -0.915227 0.161746 0.234609 
0.166027 1.427210 1.489138 0.650624 0.480600 -0.406973 
0.118680 0.105941 -0.161941 0.474888 -0.010892 -0.873076 
-0.779991 0.525811 0.978089 -0.924305 0.303250 0.030648 
-0.625780 0.504968 1.847455 0.805269 -0.541107 0.064839 
0.247153 -0.488165 0.222600 0.318336 -0.296214 0.898001 
0.618073 0.561497 1.197852 0.910289 0.382936 0.024086 
-0.926336 0.123088 2.738379 -0.786386 0.577033 -0.135070 
-0.976054 0.096719 1.361850 -0.853101 0.442790 -0.137431 
-0.865991 0.264585 1.893106 0.632379 -0.609056 0.312063 
-0.073332 0.702321 -0.139248 -0.318873 0.195558 -0.910632 
1.015007 0.614436 2.268548 0.692859 0.192082 -0.668413 
0.161311 1.116551 0.081688 0.551036 0.442129 -0.701037 
0.243959 1.205720 0.582127 0.760500 -0.380793 -0.524850 
0.578339 0.531945 0.428172 0.701077 0.636459 -0.218430 
0.891729 -0.579291 0.754499 0.684277 0.334463 -0.470006 
-0.629839 0.679218 2.901138 0.825787 -0.516279 0.218153 
-0.325764 1.348861 1.642622 0.957145 -0.231718 0.088193 
-0.938742 0.156937 1.151006 0.854691 -0.433470 0.173601 
-0.410998 0.113251 -0.011241 -0.627945 0.014939 -0.750867 
-0.591618 0.679948 0.781963 -0.633051 0.589572 -0.480393 
-0.651883 0.767328 3.045125 0.869898 -0.201327 0.412438 
-0.157493 -0.318333 -0.135678 -0.455787 -0.168777 -0.859528 
-0.569257 -0.693980 0.275233 -0.639609 0.090838 -0.686240 
1.130527 -0.011463 2.134284 -0.755942 -0.211095 0.594178 
-0.699410 0.294857 0.531057 0.555880 -0.488419 0.604463 
0.482875 0.487862 0.540334 -0.913477 -0.125703 0.320078 
-0.637996 0.493135 1.683418 0.752033 -0.526125 -0.264636 
0.006176 0.843769 0.482592 0.119734 -0.218538 0.960638 
-1.058713 0.036010 1.105537 -0.887805 0.335581 -0.257263 
-0.939613 -0.321134 0.781966 0.767607 -0.239683 0.491389 
0.378867 0.920503 1.284438 -0.639765 -0.651521 0.394101 
-0.816559 0.303949 1.682288 0.678872 -0.659497 -0.282811 
-0.026539 0.759181 0.454637 -0.074592 -0.084477 0.977451 
-1.222124 -0.273151 1.258347 0.882615 -0.223311 0.401470 
0.736789 0.358915 1.072158 0.904689 0.363090 -0.080933 
-1.084086 -0.002070 1.456406 -0.263386 0.402834 -0.676046 
0.841256 0.141132 1.537623 -0.828248 -0.446473 0.061317 
0.941599 -0.699230 0.767400 -0.567085 -0.487410 0.504812 
0.009252 -0.601233 -0.046976 0.508070 -0.183913 -0.793910 
-0.237652 1.046443 0.337927 -0.854999 0.451661 0.216139 
-0.924754 0.224683 0.959902 0.855813 -0.395450 0.288339 
1.070845 -0.030874 1.995608 0.870387 0.278113 -0.356813 
0.318307 0.547678 -0.084877 0.529655 0.053453 -0.835017 
0.729923 0.361091 1.292620 0.903252 0.379875 -0.104273 
0.135486 1.130255 0.354359 0.908338 -0.090546 0.238167 
-1.181805 -0.048776 1.666547 -0.508682 0.568371 -0.393792 
0.639021 -0.076071 0.450135 -0.505423 -0.316676 0.687283 
-1.064829 -0.005201 1.176122 0.856071 -0.364242 0.305782 
-0.850316 -0.554569 0.680276 0.680093 -0.199045 0.601098 
0.925484 0.242463 1.878048 -0.603203 -0.123453 0.778317 
-0.831274 0.550549 3.136913 -0.826364 0.427565 -0.351999 
0.738538 0.066262 0.505252 0.844505 0.187075 -0.451790 
-0.099593 -0.664443 0.184387 -0.209090 -0.407038 0.884207 
0.598852 0.728018 1.710013 -0.777396 -0.483371 0.302879 
-0.144041 -0.570127 -0.059203 -0.089225 -0.260492 -0.951461 
-0.877565 0.270816 1.807898 -0.672939 0.700282 0.235085 
0.698847 0.413105 0.671372 0.867571 0.460623 -0.123758 
0.237604 0.659539 0.435330 0.437895 0.256196 0.815372 
-1.127750 0.029729 1.950968 0.627661 -0.697224 0.136877 
0.237210 -1.064818 -0.003357 -0.016772 0.028450 -0.982905 
1.284917 0.746153 2.753999 -0.714664 -0.450082 0.534312 
-0.118485 -1.157378 -0.138114 -0.473200 0.235250 -0.836802 
0.111589 -0.633017 -0.039237 -0.019233 -0.145626 -0.988282 
0.119869 -0.338160 0.302429 0.100942 -0.349530 0.928072 
-0.668737 0.674700 1.174082 -0.905688 0.348413 0.157700 
-1.309534 -0.134385 1.906376 0.652764 -0.736037 0.068804 
-0.171910 1.010245 0.042182 -0.598833 0.420818 -0.669674 
0.848643 -0.804828 0.577226 0.545498 0.501296 -0.536516 
0.839854 1.087240 2.412580 -0.730050 -0.447817 0.509688 
0.724801 0.524256 1.658832 0.779520 0.268283 -0.483299 
1.057384 -0.196351 1.224046 0.737696 0.456144 0.164109 
0.813866 0.204415 1.511043 0.877529 0.398143 -0.145368 
-1.037834 0.096753 1.736644 0.620905 -0.692478 -0.103748 
0.243406 -0.579785 0.182983 0.311527 -0.310447 0.895644 
0.346347 1.093821 1.590036 -0.557409 -0.524248 0.600583 
-0.061342 -1.185585 -0.167177 -0.299482 -0.499332 -0.225969 
-0.900327 0.252248 2.895209 -0.805814 0.510891 -0.264939 
-0.760134 0.337074 1.729545 0.737462 -0.629140 0.113405 
0.077316 0.740847 -0.126583 0.312170 0.276945 -0.887202 
-0.309272 0.879541 0.247206 -0.913131 0.282849 0.095408 
-1.041288 0.029171 2.438994 -0.654739 0.725477 0.115899 
-0.286431 0.948697 0.293043 -0.917685 0.296517 0.175682 
0.691918 -0.690975 0.480007 -0.556037 -0.300189 0.655683 
-0.709317 0.257533 2.355596 0.697946 -0.643404 -0.175422 
0.701781 0.675478 1.713522 0.791660 0.318449 -0.433753 
0.489906 1.123990 1.812477 0.868706 0.393022 -0.255724 
-0.734955 0.369450 0.554212 -0.823453 0.337613 -0.383172 
0.775827 0.050735 0.568804 0.853036 0.207849 -0.428950 
0.697992 0.055817 0.445294 0.838607 0.162612 -0.470232 
0.573112 0.249785 0.412068 -0.535544 -0.412479 0.703689 
-0.176558 -1.051341 -0.067670 -0.278482 0.153903 -0.918455 
0.170685 1.049533 0.388727 0.600061 0.732907 0.026318 
0.166640 0.984410 0.028248 0.591956 0.432100 -0.664351 
0.038072 -0.321957 0.306272 -0.009402 -0.367795 0.924708 
-0.173622 0.549014 -0.121808 -0.409107 0.043332 -0.899781 
0.560246 -0.395195 0.327230 0.780578 0.081540 -0.538140 
0.730066 0.363927 1.222732 0.903789 0.374880 -0.094604 
0.699208 0.412467 1.335209 0.904157 0.387823 -0.075969 
1.049965 -0.085745 1.939741 -0.746678 -0.192556 0.588466 
0.971374 1.169275 2.682272 -0.707257 -0.527409 0.468583 
-0.036038 0.066131 -0.200378 -0.435360 -0.023034 -0.884916 
-0.704159 0.420057 0.509594 -0.812272 0.358349 -0.369451 
-0.564251 0.572945 2.258459 -0.917165 0.379733 -0.002197 
0.472154 0.369365 0.358109 -0.596342 -0.363881 0.683745 
0.744564 -0.449133 0.574585 0.733667 0.216989 -0.520068 
0.337116 0.972274 1.255900 -0.833096 -0.236018 -0.171926 
0.384321 0.921736 1.102715 0.394890 0.640421 -0.503494 
-0.579785 0.764764 2.903289 0.828723 -0.518601 0.202382 
-0.714774 0.473948 2.763295 0.858649 -0.444233 0.235345 
-0.077361 -0.551261 0.228771 -0.128061 -0.314864 0.930430 
-0.127501 0.424789 -0.130526 -0.388608 0.026318 -0.917607 
-0.463918 0.952939 1.998257 -0.948176 0.241761 0.114225 
-0.678609 0.581529 2.860082 0.836309 -0.489814 0.229923 
0.989081 -0.198797 1.730540 0.857421 0.186882 -0.134429 
0.996173 -0.568769 0.885922 -0.635418 -0.458912 0.449777 
0.343847 1.003360 1.457127 -0.635475 -0.641544 0.396460 
-0.480920 -0.113490 0.143713 -0.804261 0.028688 -0.564683 
-0.146704 -0.446548 0.262324 -0.123903 -0.327190 0.933236 
0.614854 0.491635 1.083907 -0.745861 -0.557719 0.333264 
0.929019 -0.351766 0.820628 0.772494 0.330246 -0.400986 
0.546506 0.458511 0.627137 -0.947561 -0.111531 0.224333 
0.781429 0.885719 2.151092 -0.740632 -0.310698 0.587879 
0.395635 0.380671 -0.020589 0.586489 -0.009161 -0.787483 
0.829064 0.191719 0.852248 0.903863 0.362039 -0.187596 
-0.544365 0.034984 0.280465 0.318914 -0.369178 0.817707 
-0.071427 1.332176 0.181056 -0.651894 0.655183 -0.264137 
1.106803 1.116093 2.825037 -0.694175 -0.532620 0.482274 
0.075378 0.258913 0.525828 0.210884 -0.096263 0.956703 
0.387785 0.913779 1.358846 -0.651245 -0.635688 0.385375 
-0.609668 -0.807707 0.344799 0.521676 -0.183716 0.768864 
-1.183292 -0.016044 2.115997 -0.618461 0.758964 0.109642 
0.632249 0.313411 0.713757 -0.670635 -0.590456 0.403989 
-0.522124 0.683169 2.105571 0.945261 -0.283130 0.123362 
-0.371368 1.253706 1.988639 0.943217 0.138232 0.196421 
0.607175 0.039511 0.424267 -0.506320 -0.349781 0.702662 
0.099987 1.292852 0.274125 0.619697 0.704919 0.265033 
1.265950 0.937664 2.884398 -0.697375 -0.503605 0.506843 
0.855871 0.612066 2.026992 -0.781078 -0.357488 0.505430 
0.996499 0.682236 2.280857 0.734894 0.393093 -0.549023 
-0.510968 0.771711 2.347408 -0.951602 0.295103 -0.034845 
0.582721 -0.223963 0.341517 -0.392116 -0.264269 0.777162 
-0.835717 0.269972 1.588029 0.714953 -0.635964 -0.133854 
-0.232430 1.079668 0.169870 -0.839938 0.435260 -0.277089 
0.311578 0.172858 -0.053523 0.458375 -0.083993 -0.882419 
0.598081 0.345631 0.336168 0.822925 0.212192 -0.417921 
0.475615 -0.099062 0.149113 0.818324 0.021751 -0.548543 
0.485893 0.870858 1.540244 0.909228 0.234724 -0.162685 
-0.559749 0.832418 1.563562 -0.916100 0.252488 0.046665 
0.690704 0.279581 0.554082 0.860384 0.276661 -0.319158 
-0.675737 0.350178 2.234481 -0.798234 0.581442 0.030353 
0.161950 -0.072459 -0.141593 0.495328 -0.061785 -0.858162 
-0.250572 0.774774 0.407017 -0.558760 0.181216 0.802158 
-0.256220 0.723618 -0.078365 -0.531038 0.386918 -0.720149 
-0.533518 0.700835 2.377416 -0.935795 0.330683 -0.058287 
0.731108 -0.944102 0.331832 0.450118 0.571827 -0.624995 
0.265798 1.323752 1.537892 0.791029 0.479362 -0.370586 
-0.506183 1.132639 1.282392 -0.862843 0.477722 -0.071595 
-0.651235 -0.198787 0.391242 -0.845468 0.081415 -0.466276 
0.450923 0.886224 1.392800 0.949588 0.270027 -0.003286 
1.342129 0.810311 2.875035 0.720346 0.418408 -0.548809 
-0.400480 1.262166 1.851818 -0.935179 0.333757 0.086214 
0.177356 -0.004987 -0.131658 0.486253 -0.056543 -0.864372 
0.176806 1.216682 0.353909 0.460998 0.822617 0.065328 
-1.143629 -0.004580 1.724911 0.573034 -0.668542 0.040422 
0.967980 -0.080096 1.036090 -0.824148 -0.399813 0.162866 
0.834778 0.151932 1.372695 -0.868877 -0.406301 0.221304 
0.653371 -0.937620 0.294044 0.482842 0.418004 -0.667995 
-0.046608 -0.798724 -0.056246 -0.203494 0.067300 -0.943995 
0.583247 0.176998 0.225167 0.803281 0.103725 -0.557690 
0.205950 1.091005 0.129179 0.738905 0.429832 -0.451987 
1.006289 1.027596 2.613881 0.747669 0.394700 -0.531202 
1.074772 0.247856 2.176109 -0.703814 -0.212109 0.659988 
0.709538 0.405746 0.935302 0.907299 0.368928 -0.044453 
-0.655588 0.519508 0.495945 -0.787515 0.544418 -0.217691 
-0.365022 1.399501 1.577663 -0.808811 0.480725 0.181242 
1.368266 0.157833 2.453211 -0.690458 -0.293851 0.654440 
-0.553246 0.630155 1.671040 0.835313 -0.510076 -0.017286 
1.002507 -0.221997 0.925825 0.823141 0.363499 -0.333870 
0.534506 -0.753091 0.279167 0.614793 0.113199 -0.697432 
-0.752790 0.453314 1.297860 -0.866026 0.468594 0.089719 
-1.027535 0.047523 1.418507 0.348184 -0.453341 0.429318 
-0.104406 1.240155 0.144511 -0.644735 0.491715 -0.536338 
0.787893 0.563064 1.823835 0.853407 0.491136 -0.127540 
0.180088 0.942430 0.455501 0.416291 -0.100636 0.857956 
1.262405 0.531246 2.535510 -0.671436 -0.350094 0.645522 
-0.816230 0.334212 0.688483 -0.852161 0.367345 -0.319036 
-0.498540 0.620355 0.252943 -0.701971 0.688010 -0.167359 
-0.645942 0.486018 1.774101 0.803445 -0.506905 0.206451 
0.584583 0.573159 1.417829 -0.765682 -0.531981 0.301460 
-0.808838 0.627642 3.185318 0.802301 -0.490160 0.321464 
-0.150331 1.235336 0.281716 -0.654660 0.711221 0.031811 
-0.272058 1.604533 1.530556 0.829200 -0.181146 0.272348 
0.385675 -0.088606 0.004374 0.728832 -0.038965 -0.658199 
1.490401 0.510720 2.812831 -0.687250 -0.442805 0.570995 
-0.669895 0.553689 1.560551 -0.884543 0.403119 -0.032982 
1.344640 0.365463 2.488221 -0.654565 -0.337708 0.674448 
0.231314 -1.314666 -0.007652 -0.852805 -0.407985 0.171217 
0.404471 -1.081712 0.051487 0.481058 0.126076 -0.812643 
-0.191486 -0.792747 -0.020774 -0.049071 -0.067541 -0.991368 
-0.887390 0.047775 0.692914 0.713028 -0.329738 0.479470 
-0.173931 -0.205903 -0.135733 -0.505474 -0.099608 -0.847572 
-0.641180 0.646556 1.277345 0.774677 -0.595558 0.143572 
0.293021 0.849056 0.100843 0.794341 0.419972 -0.345485 
-0.972615 0.097816 1.289438 0.839311 -0.442901 0.188164 
1.297906 0.608111 2.653159 -0.685310 -0.387695 0.605706 
0.685357 0.381920 1.143264 -0.785722 -0.507558 0.313550 
0.795822 -0.210009 0.667476 -0.688457 -0.308495 0.513013 
0.499417 0.601958 0.372974 0.715172 0.651037 -0.098703 
0.275850 -1.436016 -0.018922 -0.523736 -0.763858 0.007492 
-0.023597 0.526528 -0.170678 -0.363695 0.073776 -0.927152 
-0.460577 1.073318 1.129278 0.766720 -0.023866 -0.243239 
-0.874676 0.208239 0.757490 0.737785 -0.448237 0.422875 
0.430768 -1.017052 0.062085 0.481324 0.176774 -0.806551 
-0.454479 0.655778 0.194531 -0.696129 0.702908 -0.127975 
0.773873 0.270072 1.589785 -0.882798 -0.419931 0.206786 
-0.783590 0.350056 2.139791 -0.678622 0.694101 0.204960 
-0.453532 -0.021912 0.251003 0.008557 -0.279571 0.877094 
0.876034 0.098465 1.415094 0.842762 0.407215 -0.068023 
-0.593188 0.527133 2.417369 -0.886964 0.436039 -0.059205 
-0.798155 0.190567 2.386455 0.636312 -0.711144 -0.243321 
0.342257 1.239113 1.597398 0.863204 0.371548 -0.333905 
-0.357287 1.226519 1.629722 0.901505 -0.387131 0.043864 
-0.742491 -0.945265 0.344849 -0.473801 0.549944 -0.629201 
-0.433825 0.480880 0.041260 -0.636359 0.207864 -0.621479 
0.505907 0.922819 1.702079 -0.616721 -0.505410 0.546200 
0.460797 0.711016 0.824746 0.747294 0.610883 -0.255782 
-0.066990 0.466998 -0.154643 -0.375043 0.051988 -0.923035 
-0.938050 0.223129 2.952270 0.797479 -0.513829 0.295714 
-0.748366 0.558339 0.911739 -0.907967 0.345622 -0.014787 
-0.582407 0.617066 1.838444 -0.840934 0.470829 0.213014 
-0.656625 0.743380 0.926188 -0.718540 0.584954 -0.306237 
0.399005 0.464608 -0.005785 0.622568 0.064187 -0.710293 
0.229697 -0.306250 -0.108800 0.521648 -0.133348 -0.838815 
-0.956119 0.140255 0.823117 0.814144 -0.389494 0.370757 
-0.133354 0.237188 -0.151709 -0.448586 0.007444 -0.889504 
-1.067700 -0.634140 0.952879 -0.743099 0.270200 -0.491851 
-0.172514 -1.135009 -0.093163 -0.380147 0.144548 -0.857802 
-0.259633 -0.763963 0.104393 -0.021449 -0.287656 0.876984 
-0.603615 0.540885 2.565039 0.890198 -0.394839 0.211465 
0.137241 0.227798 0.511783 0.313157 -0.120132 0.926662 
1.018379 -0.006322 1.922006 -0.711397 -0.175374 0.634909 
0.751425 -0.235683 0.596448 -0.622799 -0.293480 0.570472 
0.614868 0.235799 0.470547 -0.579239 -0.412398 0.659041 
-0.864475 -0.485606 0.690790 -0.765796 0.131528 -0.533914 
1.009281 -0.658478 0.857048 0.633103 0.494357 -0.422516 
-1.369019 -0.191811 1.821590 -0.670723 0.708159 -0.123953 
-0.075970 1.190538 0.429231 0.210543 0.672874 0.697835 
-0.812294 0.348735 1.177070 0.819937 -0.506606 0.160363 
-0.124301 -1.086856 -0.113896 -0.403474 0.238053 -0.870694 
-0.531009 0.931421 1.019233 -0.570952 0.580793 -0.477230 
0.154521 0.882966 -0.035426 0.557730 0.418187 -0.696453 
-0.357814 1.315100 1.830329 0.928427 0.204196 0.216521 
0.799612 0.159770 0.693313 0.875963 0.294589 -0.310754 
0.648243 1.234645 2.191198 0.816185 0.402529 -0.385690 
-0.001279 0.772796 -0.141135 0.380666 0.247795 -0.889299 
-1.051733 -0.064033 2.612148 -0.715388 0.685564 0.012296 
-0.372397 -0.684623 0.050633 -0.665253 -0.014027 -0.709287 
0.782868 1.142044 2.370520 -0.732260 -0.454482 0.499478 
-0.572403 0.806435 1.627720 -0.865588 0.373752 0.223833 
-0.539411 0.130520 0.145154 -0.775967 0.097993 -0.597069 
0.900268 0.038300 1.374746 -0.811349 -0.440527 0.047347 
1.216115 -0.332897 1.368263 0.707212 0.569326 0.115828 
-0.857140 0.147232 2.412913 -0.761972 0.623884 0.008745 
0.875466 -0.252792 0.781861 -0.769882 -0.346828 0.432109 
-0.329686 0.715548 -0.018790 -0.613882 0.497696 -0.533460 
-0.392520 -0.047453 0.277783 -0.297799 -0.192209 0.891175 
0.872897 0.290965 1.840159 -0.826585 -0.334538 0.367379 
0.719522 0.426394 1.625594 -0.849803 -0.474357 0.182996 
0.711742 -0.222535 0.539832 0.841783 0.163078 -0.436639 
0.019040 0.089202 0.495544 0.121221 -0.285222 0.945175 
0.932165 -0.424864 0.818929 0.744248 0.341930 -0.415122 
1.521464 0.292930 2.650640 -0.658760 -0.393229 0.636598 
-0.853478 -0.014096 0.645438 0.660495 -0.307574 0.520528 
-0.902856 0.139200 0.633069 -0.864140 0.230865 -0.400058 
1.106590 -0.274397 1.072321 -0.778074 -0.482822 0.306892 
-0.406444 0.511948 0.432074 0.773109 -0.375982 0.469780 
0.301659 1.016186 1.311361 -0.874569 -0.389794 0.002331 
0.269970 0.922913 0.122897 0.809237 0.377795 -0.357326 
-0.585478 0.619290 2.652225 -0.893450 0.404007 -0.189877 
0.158763 -0.982300 -0.009521 -0.248500 -0.415212 0.847148 
0.886550 0.251373 1.775825 0.783971 0.199973 -0.536426 
0.951805 0.383099 1.993700 0.861410 0.357409 -0.306668 
1.176138 -0.345673 1.149597 -0.751043 -0.532473 0.286872 
0.946030 -0.000567 0.987502 0.890934 0.328255 -0.278454 
-0.673560 -1.020573 0.205162 -0.406399 0.633247 -0.656541 
-0.710514 0.414143 0.790259 0.674170 -0.598209 0.394895 
0.709126 0.408909 1.026135 0.906160 0.364246 -0.043574 
1.129410 -0.162088 2.045794 0.853902 0.245310 -0.430356 
-0.351175 -0.432017 0.041059 -0.780455 -0.056565 -0.604567 
0.481778 0.977026 1.654312 0.912588 0.252076 -0.170798 
-0.113020 0.992246 0.004347 -0.513778 0.458708 -0.705222 
-0.488785 -0.490988 0.192288 -0.736400 0.026926 -0.611748 
1.440886 0.496698 2.735415 -0.681181 -0.417324 0.593692 
-0.218391 0.852098 0.418171 -0.617888 0.023677 0.779477 
-0.374479 0.491990 0.343465 0.020600 -0.031042 0.739050 
0.787723 -0.315787 0.640872 0.785504 0.229065 -0.468296 
0.655375 -0.837269 0.421959 0.579671 0.217593 -0.651065 
-0.973674 -0.016484 2.603898 0.713400 -0.679049 -0.040436 
-0.444410 1.007081 1.594675 0.792108 -0.540786 0.229129 
-0.816093 -0.390757 0.599919 0.698715 -0.246924 0.556984 
0.484877 -0.450746 0.172503 -0.258269 -0.203484 0.903318 
-1.136738 0.024572 2.074802 0.608513 -0.741732 -0.014877 
0.428145 -0.219279 0.115055 0.824769 -0.014297 -0.544869 
-0.584496 0.561382 0.463139 -0.554241 0.764490 -0.237466 
-0.758354 0.189502 0.553963 0.597585 -0.407592 0.588284 
0.424715 0.690045 0.195002 0.684518 0.711658 -0.110044 
0.131961 0.628810 -0.131135 0.368970 0.115646 -0.903603 
-0.817296 0.277224 1.430429 0.817046 -0.564775 -0.002011 
-0.670938 0.653469 1.351784 -0.883079 0.362505 0.144242 
-0.194665 0.771471 -0.072800 -0.544452 0.436611 -0.677452 
0.807742 0.920989 2.218551 -0.730382 -0.346930 0.577664 
-0.820708 0.346858 0.857449 0.751553 -0.528548 0.356304 
0.852223 0.116341 1.649408 -0.896143 -0.358567 0.010896 
0.805940 1.260556 2.498540 0.691273 0.602527 -0.386773 
-0.959016 0.114334 2.817917 0.784150 -0.555897 0.207695 
0.513186 0.761446 1.179457 0.928190 0.337446 0.069685 
-1.059045 0.073069 0.864625 -0.913737 0.274438 -0.297525 
-0.092957 1.160694 0.080314 -0.482642 0.408917 -0.762824 
0.996886 -0.143797 0.924727 0.853343 0.349460 -0.319946 
-1.141539 -0.328387 1.089944 -0.878376 0.159088 -0.403314 
0.285011 -0.337827 -0.070818 0.584018 -0.134146 -0.784683 
0.526812 0.311718 0.355515 -0.502237 -0.427190 0.744934 
-0.930320 0.221169 1.948837 -0.645805 0.723708 0.234171 
-0.539356 0.910751 1.534452 -0.917871 0.214420 0.110466 
0.425160 -0.846249 0.091726 -0.345728 -0.184188 0.908785 
0.135302 0.591437 0.501274 0.355047 0.098389 0.927978 
0.974123 0.130599 1.880315 0.903330 0.319360 -0.253334 
0.530200 0.726712 1.097670 0.921214 0.360102 0.100102 
0.562724 0.053582 0.361868 -0.459539 -0.349610 0.750338 
0.929302 -0.374162 1.498151 -0.902185 -0.165461 -0.393117 
0.319173 -0.100660 -0.055894 0.551401 -0.099749 -0.812175 
-0.383450 0.472695 -0.028673 -0.577865 0.068360 -0.762882 
-0.644461 -0.701253 0.381889 0.558966 -0.203433 0.720845 
-0.932795 0.221711 1.078597 -0.888307 0.372623 -0.132173 
0.437946 -0.053562 0.074934 0.806020 0.002811 -0.578593 
0.008095 0.021434 0.470866 0.087101 -0.316585 0.943494 
-0.901107 0.216743 1.610919 -0.644477 0.545155 -0.342825 
0.197782 -0.640736 0.172078 0.225202 -0.350154 0.893806 
1.471153 0.571692 2.844331 0.700482 0.458588 -0.542878 
0.838993 0.177971 1.156999 0.899917 0.352761 -0.206977 
-0.664994 0.588944 1.478373 0.780434 -0.600120 0.003035 
1.135121 0.359113 2.342198 -0.749853 -0.358978 0.522734 
-0.773951 -0.917144 0.401088 -0.497431 0.528579 -0.615530 
0.429726 0.769890 1.071522 -0.851814 -0.338697 -0.094476 
0.033117 0.009278 -0.198461 0.417645 -0.054756 -0.888016 
-0.063880 -0.148369 0.391406 -0.099212 -0.330692 0.936579 
-0.656015 0.206190 0.433179 0.484595 -0.428177 0.686617 
-0.060027 0.052646 0.478630 -0.166349 -0.298885 0.934589 
-0.551530 0.623227 1.982619 0.848266 -0.465863 -0.174003 
-0.633344 0.745119 1.387061 -0.889766 0.313389 0.168227 
0.640511 0.458274 1.267070 -0.782182 -0.526425 0.292931 
0.946926 -0.178985 1.650967 0.858042 0.174427 -0.016929 
1.311998 -0.370171 1.326955 0.762353 0.597514 -0.174978 
0.209107 0.189765 0.468324 0.385112 -0.151610 0.897850 
0.975242 -0.405088 0.884902 -0.708317 -0.424803 0.417028 
0.108003 0.159677 0.501715 0.247314 -0.198159 0.936461 
-0.787671 0.230400 2.318889 0.608188 -0.729572 -0.291761 
-0.140218 0.915175 -0.019780 -0.566172 0.432434 -0.674875 
-0.758052 0.390164 1.353986 0.801631 -0.577598 0.051450 
0.490645 0.413870 0.085534 0.760561 0.172652 -0.541235 
-0.382893 -0.468300 0.130420 -0.082466 -0.223674 0.939968 
1.271132 -0.490577 1.223944 0.707244 0.626718 -0.247808 
0.028390 -0.202359 0.363634 0.025292 -0.349765 0.931291 
-0.254202 0.643590 -0.104004 -0.512262 0.170690 -0.822601 
-0.502217 0.823186 1.606156 0.767390 -0.495195 -0.106477 
0.940717 0.675571 2.225081 -0.771802 -0.495709 0.392292 
0.333927 0.797480 0.304050 0.882448 0.282712 0.358835 
0.390369 0.920231 1.449584 -0.660642 -0.620364 0.378098 
1.490944 0.703288 2.983164 -0.702187 -0.462230 0.541445 
0.404003 1.198051 1.767901 -0.620434 -0.429220 0.648536 
-0.509624 0.600009 0.371440 -0.591005 0.759014 -0.159735 
0.805989 0.187290 1.074930 -0.830986 -0.435442 0.314686 
-0.173216 1.202051 0.343194 -0.881196 -0.233146 0.350436 
0.814541 0.673625 1.976649 0.809399 0.443387 -0.357148 
-1.209166 -0.139290 1.400601 -0.084414 0.348592 -0.817018 
-0.027379 0.333111 0.546822 -0.139660 -0.023558 0.983651 
0.084055 -0.719335 -0.049945 0.061743 -0.040644 -0.968520 
-0.323547 0.310583 0.391956 -0.351584 -0.064547 0.919707 
-1.130292 -0.060204 1.120454 -0.891459 0.300746 -0.325462 
0.142843 -0.794192 -0.037390 0.049550 -0.027228 -0.979957 
1.071226 -0.234234 1.294970 -0.701942 -0.508772 -0.237625 
-0.138016 0.325084 -0.142700 -0.427078 0.017548 -0.900982 
0.007339 1.183319 0.433440 -0.006693 0.640946 0.761185 
0.696969 -0.087409 0.491626 0.856132 0.152188 -0.437249 
-0.257097 -0.431857 -0.086696 -0.467054 -0.163929 -0.840495 
0.739297 1.039514 2.184829 0.808751 0.405594 -0.408829 
-0.755150 0.395953 0.627231 -0.834673 0.383261 -0.329112 
0.072059 0.350891 -0.171860 0.426931 0.043884 -0.899965 
0.851466 0.862288 2.244310 0.777596 0.463560 -0.422293 
-0.520089 0.793390 1.794365 -0.903910 0.314143 0.146779 
-0.652948 0.546234 0.856425 0.813216 -0.454808 0.211511 
1.082433 0.678448 2.429281 0.736489 0.548260 -0.384222 
0.271633 1.177031 1.404569 -0.759595 0.150953 -0.569985 
0.279779 -0.539513 -0.066228 0.543186 -0.116397 -0.822750 
1.133193 -0.549982 1.063057 -0.654661 -0.535277 0.366931 
-0.025089 1.204527 0.086324 -0.457570 0.345804 -0.803458 
-0.461171 -0.458995 0.133251 0.166783 -0.194952 0.941080 
0.626817 1.075687 2.038417 -0.671138 -0.407627 0.606218 
1.146871 0.936049 2.725882 0.735725 0.397475 -0.544611 
1.114697 -0.210499 1.149454 -0.787866 -0.490129 0.164465 
0.650751 0.147695 0.340615 0.818872 0.141249 -0.516063 
0.477124 0.742270 1.246609 -0.690997 -0.610185 0.356823 
-0.234801 -0.159544 0.350036 -0.402333 -0.287999 0.857439 
-0.607028 0.405167 0.637422 0.663702 -0.567526 0.469860 
0.573744 0.016631 0.263963 0.821421 0.087158 -0.525065 
-0.688560 0.386687 2.530666 0.872591 -0.378028 0.291577 
-0.698454 0.727170 3.094612 0.852227 -0.307309 0.383966 
-0.745712 0.458777 1.422190 -0.852407 0.468966 0.087111 
0.415325 -0.235888 0.189548 0.045772 -0.187098 0.928047 
0.913792 -0.787021 0.638765 -0.512014 -0.600416 0.512722 
-0.346371 -0.231215 -0.008587 -0.710978 -0.059449 -0.673830 
0.296028 1.330024 1.678162 -0.795606 0.165530 0.530285 
-0.292809 0.943120 0.223414 -0.919870 0.351416 -0.058971 
-0.524281 0.753683 1.854029 -0.913298 0.338381 0.116194 
0.863652 0.570262 1.964155 0.834132 0.437233 -0.282137 
-0.714454 -0.306670 0.456156 -0.789262 0.129612 -0.503951 
1.108480 -0.357676 1.896201 -0.876627 -0.241655 0.279243 
-0.166761 -0.636763 0.181692 -0.229918 -0.368535 0.896741 
0.614165 -0.240460 0.405684 0.847701 0.097523 -0.458622 
-0.712202 0.623731 0.937282 -0.915198 0.334906 0.046988 
-1.168070 -0.001525 2.013579 -0.639604 0.742310 0.093320 
0.576574 0.855714 1.647217 0.870349 0.357877 -0.187471 
0.428624 -0.710425 0.091797 -0.285688 -0.185026 0.930926 
-0.314906 0.761901 0.344755 -0.789746 0.229954 0.508849 
1.055159 0.649465 2.367731 0.739531 0.571072 -0.352996 
-0.865198 0.284686 2.008219 -0.656509 0.714487 0.232242 
-1.202019 -0.306352 1.180008 -0.901078 0.161698 -0.378765 
-1.000554 0.095604 1.508308 -0.436687 0.462915 -0.507182 
0.442774 0.924937 1.200034 0.848394 0.492459 0.000047 
-0.656507 0.435889 0.419279 -0.790369 0.367328 -0.384149 
0.711019 0.566556 1.784404 -0.831680 -0.460136 0.291507 
0.246820 1.029426 0.336957 0.867623 0.424859 0.225052 
1.177746 0.518388 2.393487 0.703972 0.424031 -0.552061 
0.010437 -0.993175 -0.022394 0.527369 -0.436492 0.706272 
-0.589697 0.755693 1.091043 0.759725 -0.587730 0.260621 
0.723381 0.850385 2.019246 -0.732945 -0.528564 0.399976 
-0.203935 1.220088 0.492357 -0.834366 -0.412453 -0.318113 
1.130361 -0.474723 1.071223 -0.688709 -0.523505 0.348020 
-0.617348 0.458105 2.409934 -0.865501 0.481821 -0.035751 
0.285327 0.022202 0.374476 0.445869 -0.229707 0.857616 
0.161727 -0.864138 -0.034742 0.080105 0.018684 -0.977314 
-0.346591 0.038648 -0.042247 -0.539064 -0.056422 -0.819259 
0.399545 0.100461 -0.009102 0.641479 -0.026448 -0.738513 
0.473646 0.418844 0.526157 -0.826346 -0.270923 0.420290 
0.644050 0.417053 0.906821 -0.730893 -0.598132 0.315923 
0.974309 0.215677 1.928876 0.891918 0.332102 -0.243106 
-0.033974 -0.077871 0.424053 -0.084315 -0.326092 0.939291 
-0.626985 0.235096 0.230159 -0.779267 0.150252 -0.576672 
-0.414670 0.181886 0.354525 -0.279012 -0.257597 0.834663 
-0.674283 0.284744 0.466429 0.523164 -0.461626 0.656706 
0.786138 0.272337 1.095181 0.902524 0.356826 -0.139270 
1.480876 0.619955 2.900835 -0.700454 -0.465945 0.540584 
0.222653 -0.828326 0.089735 -0.115391 -0.311819 0.871840 
0.390932 1.001010 1.397887 0.960576 0.241196 0.015833 
-0.437756 0.050028 0.032758 -0.757676 0.043932 -0.637563 
0.351259 0.732008 0.285172 0.886493 0.263712 0.318542 
-0.430942 -0.817425 0.092832 0.318845 -0.181284 0.913975 
-0.556506 0.826890 0.949937 0.943114 -0.232894 -0.090192 
0.225015 0.876690 0.414146 0.662867 0.008898 0.735571 
0.599464 -0.492309 0.378029 0.727497 0.122466 -0.577830 
-0.682765 -0.561505 0.419036 0.604665 -0.230790 0.660308 
0.252327 -0.211919 0.322879 0.423127 -0.286087 0.848036 
-0.649305 0.349856 0.509489 0.512782 -0.543594 0.621202 
-0.903443 -0.470483 0.748597 -0.780564 0.133467 -0.517799 
0.650962 0.890393 1.902695 0.828800 0.325278 -0.398975 
0.485809 1.005375 1.730910 -0.622478 -0.563141 0.489377 
0.863835 1.239971 2.561806 0.708859 0.562589 -0.415325 
-0.347748 -0.378051 0.205693 -0.417565 -0.277228 0.827418 
-0.912107 -0.619535 0.797832 -0.760605 0.091645 -0.563344 
-0.830514 0.288339 1.752730 0.654976 -0.566006 0.455453 
-0.873880 0.213487 1.439627 0.662933 -0.534520 0.136616 
-0.067555 -0.712184 -0.044641 -0.114583 -0.034663 -0.964985 
0.402707 0.976658 1.329758 0.955195 0.258953 0.042025 
-0.154053 -0.851018 -0.041508 -0.078430 0.021260 -0.974594 
-0.977326 0.117318 2.336385 -0.655621 0.715079 0.138448 
0.001693 0.919211 -0.089292 0.373105 0.473108 -0.791754 
0.358464 -1.387685 -0.011018 0.928752 -0.032659 0.148095 
0.819327 -0.526722 0.667665 -0.640768 -0.351418 0.538631 
1.010078 -0.058971 1.858324 0.823040 0.196144 -0.447678 
0.447876 -0.816926 0.160759 0.592449 0.062099 -0.750030 
-0.591329 0.915326 1.097238 -0.866979 0.444523 -0.057558 
0.675441 0.487504 1.605781 -0.825544 -0.490073 0.212945 
0.242418 -0.902605 -0.018412 0.050455 -0.042725 -0.995036 
0.568446 0.672477 0.970464 0.816722 0.504108 -0.119233 
1.007206 0.712347 2.349836 0.748278 0.539118 -0.377263 
-0.883813 0.255458 2.091240 0.635360 -0.695425 -0.037900 
0.396468 0.593949 0.416730 -0.812346 -0.044513 0.430981 
-0.948069 -0.392874 0.800408 -0.806671 0.152401 -0.479910 
0.887217 0.057089 1.049913 -0.864299 -0.385188 0.311143 
-0.992827 0.153985 2.088335 0.592161 -0.703649 0.064643 
0.428415 0.429691 0.452763 -0.783425 -0.292602 0.510301 
0.361537 -1.014702 0.024110 0.507142 0.046741 -0.845386 
-0.087380 -0.221982 -0.166299 -0.408164 -0.152525 -0.880690 
-0.535429 0.810023 2.841788 0.838957 -0.512521 0.171563 
0.945291 0.457597 2.034011 0.842471 0.369215 -0.353475 
0.977780 0.307050 1.994078 0.865825 0.335635 -0.299784 
-0.149158 -0.999184 -0.028167 0.224670 -0.445551 0.845283 
-1.013843 -0.052726 2.675868 -0.756388 0.647691 -0.045731 
-0.881102 0.146973 2.650254 -0.792735 0.579833 -0.091247 
-0.381493 0.624966 0.434041 0.735319 -0.166731 0.421105 
0.498997 0.822215 1.596164 -0.723472 -0.590624 0.267311 
0.939378 -0.029567 1.372939 -0.777637 -0.460290 -0.053909 
0.300658 0.095250 0.386293 0.454026 -0.210091 0.859947 
0.037501 -0.795523 -0.053243 0.236272 0.071659 -0.941574 
0.204635 0.632243 -0.114728 0.442941 0.141225 -0.864119 
-0.087718 0.383480 0.534814 -0.233444 0.029569 0.957584 
-0.899114 0.198129 1.356724 -0.847957 0.482906 -0.062487 
0.650096 -0.006127 0.478795 -0.541037 -0.339852 0.662332 
-0.548881 -0.239665 0.255512 0.262569 -0.250476 0.847801 
0.993109 -0.371639 1.637473 0.896270 0.184578 0.145240 
0.958271 -0.037299 0.882940 0.894852 0.309143 -0.315999 
0.390178 -0.293722 0.080551 0.827240 -0.041640 -0.547009 
-0.795922 0.355582 1.806936 -0.696323 0.666674 0.253387 
0.772780 0.291336 1.189505 0.902329 0.365676 -0.137621 
-0.109402 0.463873 0.520029 -0.264581 0.079581 0.946301 
-0.747681 0.697031 3.134502 -0.814289 0.491156 -0.283349 
-0.300148 -0.406957 -0.028870 -0.679523 -0.108815 -0.699558 
-0.484873 0.864795 2.355583 -0.960972 0.272134 -0.019989 
-0.537911 0.836065 0.855040 -0.769757 0.521393 -0.352266 
-1.175151 -0.061440 1.587456 -0.388718 0.502161 -0.521339 
-0.526271 0.510871 0.202285 -0.729581 0.459206 -0.360855 
0.529234 0.543471 0.597618 0.563898 0.792195 -0.091340 
0.763481 0.735043 1.971337 -0.791722 -0.401070 0.460049 
-0.453649 1.033278 1.515628 0.725472 -0.614214 -0.002607 
0.650933 0.178695 0.513016 -0.602292 -0.398147 0.628491 
0.648774 0.758659 1.807397 -0.704528 -0.398984 0.551244 
0.396741 -0.554821 0.098572 0.727509 -0.010196 -0.635258 
-0.716097 0.412453 2.652744 -0.846483 0.482174 -0.158689 
-0.993340 0.115804 1.135756 -0.879581 0.378132 -0.188394 
1.232528 -0.299376 1.231647 -0.775428 -0.559321 0.235650 
-1.121118 0.042889 1.829752 -0.676749 0.711842 0.077481 
-0.524191 0.755332 2.564710 0.900966 -0.411756 0.100873 
0.280482 0.814783 0.030288 0.675212 0.476566 -0.489310 
-0.853400 -0.841628 0.548988 -0.562618 0.461655 -0.581880 
0.380776 0.195978 -0.016552 0.569006 -0.038829 -0.794577 
-0.719678 -0.124864 0.469664 -0.865174 0.112602 -0.430750 
-0.725460 0.511776 1.081027 0.795900 -0.528931 0.233982 
-0.470537 0.928955 2.240016 -0.958655 0.251048 0.025814 
-0.660583 0.517583 2.684299 -0.871003 0.437842 -0.194149 
-0.476675 0.505066 0.115500 -0.686687 0.365962 -0.464465 
-0.479536 -0.797533 0.155166 0.393083 -0.190819 0.858306 
0.748365 0.149440 0.516965 0.842250 0.211294 -0.440520 
0.556555 0.615131 1.355573 -0.744658 -0.555110 0.317108 
-0.648182 0.491252 0.699420 0.944782 -0.201484 0.234112 
-0.572485 0.118448 0.323388 0.369676 -0.401387 0.779619 
0.160485 -0.899513 0.048203 -0.168602 -0.387398 0.860090 
-0.141007 1.011084 0.491116 -0.198168 -0.202418 0.954047 
0.256022 -0.901636 0.057420 -0.215782 -0.268692 0.875062 
0.231395 0.193208 -0.097601 0.459226 -0.045016 -0.882771 
1.310937 0.872433 2.885241 0.724597 0.407153 -0.551316 
-0.621064 0.783246 1.305771 -0.903421 0.291555 0.182285 
0.965922 0.996205 2.537747 -0.738615 -0.439090 0.510162 
0.439327 0.303620 0.349813 -0.101384 -0.287544 0.823382 
-1.036012 -0.669124 0.887538 -0.711141 0.310911 -0.504328 
1.228648 0.765449 2.697370 -0.714223 -0.435062 0.544034 
0.081387 0.893797 -0.065150 0.504190 0.382755 -0.750873 
0.881119 -0.059868 1.597443 -0.898621 -0.289099 -0.136845 
0.914153 0.630636 2.139754 -0.790926 -0.412839 0.444314 
1.130037 0.443130 2.349068 0.677104 0.157358 -0.712215 
0.211557 1.058937 0.475109 0.616778 0.648832 -0.391971 
-0.584141 0.743697 1.592862 -0.913225 0.296127 -0.020521 
-0.871767 0.051290 0.619027 -0.871861 0.202282 -0.393883 
1.497371 0.195415 2.539440 0.652413 0.340064 -0.673464 
-1.112243 0.018046 1.665641 -0.536482 0.563623 -0.403156 
-0.342281 -1.099667 0.011556 -0.516659 -0.009364 -0.846106 
-0.886335 0.471563 3.153358 -0.812703 0.453438 -0.355943 
1.159473 0.826590 2.655834 0.729805 0.442040 -0.518403 
0.007884 -0.703728 0.190487 0.465796 -0.369196 0.799657 
-1.074136 -0.425880 1.009735 0.805448 -0.186559 0.481379 
0.577093 0.471806 0.337767 0.834979 0.382206 -0.271695 
0.435046 1.309802 1.908625 -0.798010 0.046616 0.523960 
-0.824606 0.208652 2.601287 0.829544 -0.452923 0.261179 
1.043416 -0.221451 1.481770 -0.668314 -0.528163 -0.430218 
0.685012 1.274926 2.329468 -0.808362 -0.214904 0.516746 
0.130980 -0.025320 0.436628 0.237200 -0.292486 0.921161 
-0.595825 0.573192 2.003819 -0.832121 0.507291 0.145721 
-0.857923 0.405265 0.937222 -0.923595 0.290149 -0.060602 
-0.061905 0.341262 -0.179574 -0.424448 0.048113 -0.901543 
-0.256724 0.413886 0.439773 -0.296786 0.020316 0.951191 
0.387972 0.479847 0.406485 -0.837816 -0.187055 0.496543 
0.075842 -0.539565 0.233443 0.117890 -0.307024 0.934342 
0.896011 0.131821 1.746338 -0.905226 -0.363950 -0.039242 
-0.551953 0.952738 1.359178 -0.917128 0.200549 0.227144 
-0.272010 -0.831170 0.083001 0.075364 -0.265432 0.883977 
-0.462174 0.914120 2.504382 0.909759 -0.407770 0.017161 
-0.785753 0.254139 0.499268 -0.826415 0.244845 -0.447913 
-0.918241 0.151225 1.418319 0.822004 -0.502494 0.108938 
0.967968 -0.131996 1.734683 -0.896613 -0.280706 -0.034497 
0.524845 -0.462140 0.237858 -0.334181 -0.217088 0.844725 
0.566922 0.876808 1.715989 0.883798 0.334993 -0.181186 
0.818126 0.499047 1.782418 0.867891 0.385019 -0.299796 
0.359737 -0.268121 0.232159 0.379194 -0.243943 0.843533 
-0.582888 0.722841 2.844734 0.839627 -0.502659 0.195912 
0.818650 0.027134 0.643720 0.863546 0.231309 -0.401370 
-0.529024 -0.879738 0.256162 -0.598416 0.041669 -0.757721 
1.031933 -0.203235 0.988532 -0.804654 -0.430245 0.329841 
1.176715 1.061038 2.870485 -0.695958 -0.519410 0.492896 
-0.712658 0.413283 1.902386 0.719673 -0.592324 0.116286 
0.410078 -0.938212 0.103776 0.542418 0.052381 -0.803590 
0.446939 -1.152027 0.086837 0.238309 -0.181424 0.692283 
-0.467596 0.953583 1.863068 -0.945697 0.230182 0.139649 
-0.488803 0.864431 2.158592 0.892921 -0.394306 0.186588 
0.268852 0.248034 -0.075688 0.450797 -0.051750 -0.888265 
0.119952 -0.135238 -0.159263 0.465931 -0.088886 -0.865247 
-0.464487 -0.617628 0.136745 0.263501 -0.192026 0.908740 
-0.551048 0.709507 2.645201 -0.905006 0.376474 -0.173809 
0.785573 0.216892 1.004352 -0.812234 -0.454276 0.331353 
0.650520 0.220948 0.331842 0.813963 0.154638 -0.516218 
-0.359303 -0.616029 0.039799 -0.697484 -0.029643 -0.681805 
-0.876462 -0.319279 0.682773 0.740098 -0.252768 0.512185 
-0.689567 0.471071 1.853827 -0.724128 0.614621 0.292121 
-0.575077 0.909505 1.188584 -0.931416 0.221470 0.222376 
0.316499 0.333959 -0.044833 0.433359 -0.059726 -0.898177 
-0.630683 0.457643 2.487300 -0.859977 0.486644 -0.073098 
0.785636 -0.636113 0.612918 0.661628 0.269428 -0.538675 
-1.097435 -0.477155 1.055943 -0.841586 0.120397 -0.463989 
0.172890 1.329728 1.514577 -0.912199 -0.342845 0.079818 
0.815375 -0.070434 0.671247 0.875028 0.222698 -0.380229 
-0.422788 1.085720 2.339817 -0.889209 0.444308 0.061335 
0.507957 -0.006710 0.271128 -0.376578 -0.324950 0.822895 
-0.952300 0.171661 2.901125 0.789913 -0.536209 0.254925 
-0.584509 0.527687 2.309680 -0.897630 0.418624 -0.011667 
0.271187 0.785267 -0.040616 0.593351 0.519998 -0.610197 
0.556908 -0.696082 0.312611 0.636981 0.121060 -0.673198 
-0.612697 0.712888 1.323740 0.769692 -0.605556 0.134614 
0.995600 0.335295 2.080535 -0.693829 -0.222416 0.655159 
-0.693065 0.371761 0.664965 0.588886 -0.596043 0.511194 
-0.356567 0.406798 0.351431 -0.240334 -0.017963 0.962861 
-1.302653 -0.181859 1.597665 -0.351029 0.517976 -0.490474 
0.337822 0.769106 0.091943 0.803914 0.466424 -0.274462 
0.638619 0.391064 0.477260 0.852072 0.331905 -0.270073 
0.479996 0.827185 1.264595 0.938223 0.306660 0.043539 
-0.693980 0.349450 0.430303 -0.802915 0.277546 -0.457942 
-0.619294 0.601937 2.718104 -0.884409 0.403351 -0.218579 
1.063995 -0.334844 1.008718 -0.747226 -0.466441 0.347533 
-0.273450 0.922424 0.130229 -0.820222 0.373816 -0.337053 
0.570334 0.651646 1.157849 0.916917 0.367931 0.058950 
0.863664 -0.083750 1.524346 0.896547 0.276512 0.127012 
0.236927 1.121725 0.563182 -0.200623 -0.334950 0.777212 
-0.768700 -0.753939 0.603889 -0.694248 0.062680 -0.648034 
0.682106 0.448669 1.544417 0.915342 0.350201 -0.153583 
1.511682 0.873822 3.151743 0.711248 0.452083 -0.538092 
-0.530909 0.895248 1.253264 0.750898 -0.614737 0.209353 
-0.578589 0.399681 0.569224 0.622631 -0.559374 0.524391 
0.000348 0.461555 -0.190400 0.382517 0.078787 -0.919158 
0.016052 -0.900194 -0.077755 0.409879 0.170931 -0.861179 
-0.080297 -0.478358 0.255787 -0.086925 -0.284718 0.947952 
0.685342 0.257931 0.692473 -0.690472 -0.530441 0.414880 
0.519768 0.702243 1.534984 -0.739933 -0.545127 0.319486 
-0.133596 0.844477 -0.069360 -0.503337 0.413488 -0.741719 
-0.704715 0.375987 2.169473 -0.744617 0.632605 0.120586 
0.095783 -0.863936 -0.073560 0.167636 0.109065 -0.943442 
0.103199 0.553295 -0.143192 0.378262 0.059736 -0.913944 
0.547261 0.597576 1.045576 -0.710153 -0.604311 0.348353 
1.418468 0.245310 2.498034 0.658714 0.301016 -0.680800 
-0.892231 0.220212 2.814158 -0.801987 0.532706 -0.208313 
0.647697 0.435515 0.988308 -0.747788 -0.544299 0.349376 
-0.949285 0.167193 1.632859 -0.554022 0.526986 -0.474241 
0.680902 -0.158027 0.490115 0.862013 0.137934 -0.429003 
-0.459895 0.145754 0.031397 -0.737985 0.069132 -0.657622 
0.669262 0.103868 0.526423 -0.599067 -0.376479 0.621117 
-0.412201 1.201876 1.679332 -0.943751 0.190978 0.222620 
0.192211 -0.088130 0.394315 0.333925 -0.284503 0.888475 
-0.871279 0.198534 0.612986 -0.853651 0.254020 -0.401239 
-1.037936 0.007901 1.352522 0.834037 -0.417695 0.248676 
-0.228607 0.040154 0.419224 -0.373755 -0.254475 0.884216 
-0.264816 0.121275 0.422804 -0.395209 -0.225967 0.883378 
-0.749817 0.124784 0.431037 -0.828896 0.172790 -0.480173 
-1.035874 -0.040801 0.854758 -0.888440 0.244924 -0.341097 
0.896592 0.357029 1.901415 -0.627800 -0.167996 0.736672 
-0.474489 0.885260 2.034750 0.903878 -0.365601 0.177190 
0.465229 0.860678 1.458945 0.950203 0.264764 -0.037892 
-0.629501 0.665588 1.091308 0.768124 -0.579999 0.241033 
0.944438 -0.258376 0.847915 0.808704 0.328591 -0.372597 
-0.550269 0.668051 1.792137 0.876243 -0.449315 0.064896 
-0.794561 0.349634 1.284499 0.813264 -0.541757 0.092333 
0.031235 0.570952 -0.163876 0.335752 0.087167 -0.933046 
0.046488 1.365611 0.239511 0.553556 0.707954 0.417989 
-0.610250 0.825181 1.139470 -0.927151 0.266417 0.201016 
-0.230441 0.823833 -0.034357 -0.575746 0.475307 -0.654740 
0.913828 0.181434 1.815419 -0.904260 -0.389529 0.047280 
0.733378 -0.007704 0.521930 0.852734 0.178979 -0.437143 
0.723956 0.367173 1.493784 0.905540 0.378874 -0.145671 
0.777519 0.381156 1.647667 0.814763 0.304904 -0.409967 
1.174116 -0.415802 1.136063 -0.718953 -0.540759 0.307137 
1.414470 0.431172 2.638897 0.688148 0.446513 -0.550921 
-0.475285 0.652696 0.597519 -0.559568 0.708868 -0.255929 
-0.501571 0.896722 2.697908 -0.899877 0.389919 -0.125991 
-0.500509 0.779192 2.084548 0.923948 -0.326347 0.150558 
-0.576973 -0.935852 0.254411 -0.542204 0.208904 -0.731647 
0.280756 1.272031 1.469419 0.647281 0.618277 -0.425320 
-0.268452 -0.916718 -0.021508 -0.051551 -0.054724 -0.995137 
0.595448 0.625520 0.916815 0.714792 0.614858 -0.286861 
-0.441228 1.103083 1.621555 -0.932590 0.061353 0.166403 
-0.335619 -0.069012 0.318998 -0.488304 -0.238680 0.834563 
0.055405 0.536779 0.510320 0.158640 0.121924 0.963912 
1.257018 0.681871 2.663155 -0.697954 -0.405687 0.580371 
0.446509 0.891244 1.266851 0.944329 0.290671 0.054471 
-0.430167 1.025402 2.551460 0.975947 -0.096157 0.163358 
0.630553 0.004447 0.356945 0.833000 0.119593 -0.492952 
0.252038 -0.099806 0.359760 0.424744 -0.265355 0.856476 
0.756614 0.305394 1.506130 0.900518 0.390791 -0.164103 
-0.920474 0.406925 3.145646 -0.804578 0.471649 -0.355103 
0.597378 0.390176 0.693262 -0.947921 -0.144906 0.181377 
0.891529 -0.472147 0.767990 -0.671252 -0.385637 0.482796 
-0.200802 -0.940651 -0.023974 -0.090002 0.048057 -0.981985 
0.543582 0.425204 0.216623 0.809245 0.269229 -0.407373 
-0.450360 -0.954254 0.149965 -0.561895 0.025561 -0.804432 
0.919860 -0.025803 0.819827 0.888036 0.286952 -0.336850 
-0.832071 0.500897 3.084520 0.805338 -0.495266 0.312734 
-0.232055 0.212713 0.462527 -0.391876 -0.128040 0.898447 
-0.078036 0.221333 0.517915 -0.200822 -0.138098 0.955259 
0.575496 0.258583 0.185732 0.791820 0.104782 -0.580772 
-0.674965 -0.827246 0.457020 -0.641545 0.081799 -0.693142 
-0.416904 1.083731 2.111288 0.882255 -0.430619 0.131589 
0.256685 -1.233414 0.026895 -0.165946 -0.091297 0.972517 
0.860985 0.135487 1.255672 0.898265 0.356259 -0.245409 
-0.378225 1.222741 1.494998 0.734160 -0.606319 0.162621 
-0.552115 -0.327394 0.272654 -0.801037 0.042117 -0.533898 
-0.196059 0.393581 0.498227 -0.344689 0.029011 0.935984 
0.095283 0.783203 0.455768 0.168536 -0.120960 0.962171 
-0.901420 0.239409 1.177266 -0.872843 0.421163 -0.088111 
0.518775 0.835707 1.684916 -0.707622 -0.409473 0.523861 
-0.439842 1.048386 1.250756 0.905447 -0.383619 0.044989 
-0.825467 -0.217413 0.585880 -0.814636 0.180298 -0.451524 
-0.699056 0.292973 2.293617 0.610316 -0.717628 -0.331121 
-0.248742 -0.895092 0.057571 0.226673 -0.292019 0.865086 
-0.532770 0.450464 0.548620 0.809060 -0.346030 0.388978 
-0.600269 -0.994026 0.192921 -0.462952 0.420718 -0.706201 
0.527978 0.138173 0.326232 -0.446976 -0.372654 0.774507 
-0.458113 1.027266 1.676210 -0.932555 0.122014 0.147195 
0.690425 1.168455 2.205541 0.814098 0.392940 -0.405233 
0.468391 0.559728 0.526097 -0.936965 -0.078314 0.299502 
-0.292823 -1.054344 -0.017185 -0.102482 0.006769 -0.966486 
0.622805 0.454575 0.668365 0.521940 0.800091 -0.218375 
0.733586 0.313008 0.740116 0.897699 0.373411 -0.165524 
0.527272 -0.556769 0.245668 -0.384534 -0.218148 0.822477 
-0.423096 0.033510 0.290814 -0.172622 -0.244307 0.869775 
-0.430670 -0.140748 0.217351 -0.059711 -0.225274 0.911504 
1.071702 0.035885 2.047019 -0.719558 -0.188280 0.635569 
-0.882959 0.215602 1.257003 0.839475 -0.488866 0.099293 
0.766847 0.309789 1.004436 0.904006 0.353459 -0.104968 
-0.544324 0.860657 1.147297 0.751396 -0.601964 0.255057 
-0.794259 0.218376 0.611331 0.645602 -0.423897 0.540633 
-0.333961 -0.556629 0.012946 -0.712457 -0.053529 -0.672134 
-0.409573 -1.177701 0.062448 -0.487819 0.109832 -0.793453 
0.171149 0.798649 -0.066196 0.515011 0.415564 -0.721024 
-0.292392 -0.755433 -0.023294 -0.231384 -0.113339 -0.893388 
-0.364252 -0.151147 0.268954 -0.413674 -0.232662 0.848256 
0.856858 0.192032 1.680589 0.832310 0.256117 -0.336029 
0.965687 -0.302356 1.618922 0.883839 0.177629 0.125707 
1.009637 0.184185 1.984339 0.873088 0.312188 -0.299311 
-0.640156 0.118237 0.404452 0.446813 -0.392431 0.713237 
-0.101786 0.314468 0.533718 -0.260017 -0.031891 0.950980 
-0.343192 0.240755 0.381711 -0.410180 -0.116986 0.890891 
1.001444 0.066353 1.905340 0.900786 0.317140 -0.255184 
-0.199495 -0.515197 -0.061846 -0.031354 -0.294112 -0.921688 
0.519790 0.432650 0.150824 0.798323 0.251831 -0.443384 
-1.063832 0.082427 2.307691 0.577218 -0.785962 -0.207682 
-0.799482 0.484035 0.913872 -0.912648 0.325726 -0.047377 
0.046549 0.192687 -0.200187 0.467110 0.036378 -0.879411 
0.177137 -0.543900 0.218007 0.215433 -0.345419 0.909757 
0.185482 0.303909 0.509180 0.393473 -0.031280 0.911316 
-0.362116 1.433601 1.516819 -0.795762 0.464702 -0.262440 
0.341804 0.998836 1.165199 0.322589 0.629572 -0.522931 
1.331113 0.740775 2.807891 -0.707021 -0.467705 0.528864 
-0.439089 1.228953 1.452978 -0.938699 0.052340 0.299963 
-0.838695 0.446243 3.034546 0.807142 -0.498033 0.306830 
-0.381134 0.619656 0.320590 -0.117826 0.268993 0.592464 
-0.231745 -0.347454 -0.107156 -0.527026 -0.146576 -0.833339 
-0.045941 1.077226 0.032033 -0.334436 0.465965 -0.806854 
-0.503890 -0.654810 0.200004 -0.661515 0.055257 -0.679487 
-0.231088 -0.471202 0.235073 -0.299474 -0.301246 0.904010 
0.378887 1.026074 1.608243 -0.616100 -0.375390 0.684931 
0.766856 0.101426 0.668500 -0.711059 -0.385815 0.511379 
-0.317851 0.486825 -0.082116 -0.510165 -0.013542 -0.858691 
0.568806 0.521066 0.528113 0.615493 0.725837 -0.169547 
-0.544126 0.223589 0.121951 -0.760834 0.118078 -0.619070 
0.674844 -0.353600 0.476941 -0.545398 -0.267763 0.654934 
-0.612380 0.826057 1.068705 -0.935271 0.264909 0.204268 
1.102475 0.171858 2.179359 -0.691724 -0.185534 0.686009 
0.649053 -0.644252 0.432815 -0.573968 -0.269211 0.667261 
-0.771962 -0.443672 0.539458 0.668326 -0.242486 0.589959 
-0.561426 0.710633 1.737186 -0.837773 0.391947 0.262085 
-1.046052 -0.391267 0.954456 -0.838251 0.147179 -0.451127 
0.237536 0.571454 -0.104397 0.456335 0.064228 -0.868881 
0.691744 0.139079 0.407651 0.827206 0.164665 -0.492931 
0.351376 -0.161721 -0.025269 0.667197 -0.071900 -0.713185 
-0.573180 0.700530 2.773465 0.857383 -0.475548 0.184535 
-1.217444 -0.066199 1.755735 0.598498 -0.685822 0.066280 
0.168065 -0.793373 0.118463 -0.058950 -0.352286 0.876512 
0.397804 1.010963 1.504860 0.946973 0.214484 -0.068847 
0.391318 1.305851 1.841849 -0.794602 -0.049121 0.523756 
0.678288 -0.587595 0.478840 -0.602048 -0.278410 0.635231 
-0.729432 -0.671539 0.522329 -0.694255 0.087794 -0.632802 
