-0.754862 -0.116094 1.389997 0.973017 0.124186 0.037348 
-0.955796 0.222060 2.086714 -0.968387 -0.189629 -0.111815 
-0.530070 0.550757 0.392883 -0.796319 0.547135 -0.163065 
0.619157 0.014857 0.494885 0.930628 -0.006647 -0.338980 
-0.569712 -0.055530 0.284011 -0.892777 -0.054378 -0.410032 
-1.040850 0.506266 2.357319 0.978619 0.104592 0.090517 
-0.517215 -0.012596 0.308077 0.560807 -0.176167 0.697246 
-0.564091 -0.615527 1.875853 -0.889321 -0.393913 -0.070353 
-0.328212 0.031558 -0.146361 -0.582954 -0.121486 -0.784442 
0.464411 -0.030909 0.233016 -0.514728 -0.177610 0.770437 
0.547569 -0.257243 0.404647 -0.622351 -0.092787 0.620783 
-0.806552 -0.186460 2.109260 0.785924 0.323605 0.421378 
-0.829640 0.775228 1.532987 0.923508 -0.123064 0.264321 
-0.786688 0.143329 1.526374 -0.970490 -0.223724 -0.065707 
0.025875 -0.696014 -0.060245 0.261390 -0.182295 -0.941604 
0.815548 -0.620802 0.969552 -0.946418 -0.190825 0.211315 
-0.545950 0.331577 0.173101 -0.881050 0.056383 -0.421739 
-0.739181 -0.353196 2.120388 0.833782 0.339408 0.338284 
-1.023919 0.508300 2.199379 -0.918988 -0.240661 -0.291569 
0.974184 0.822199 2.308665 -0.908386 -0.087525 0.210295 
0.923914 -0.232102 2.676149 0.921366 -0.368277 -0.024839 
0.035570 0.919122 -0.148831 0.422033 0.469306 -0.760236 
-0.004240 -0.422985 -0.234471 -0.219368 -0.457498 -0.842175 
0.384526 -0.654071 0.064642 -0.322859 -0.048665 0.931775 
0.937035 -0.150496 2.357368 -0.885693 0.366371 0.195859 
-1.076910 0.790351 2.484780 0.929011 0.189991 0.172506 
-0.899889 0.097128 2.942972 -0.947827 -0.291905 0.107128 
0.199452 0.359697 -0.225595 0.520160 0.022565 -0.842875 
0.793331 -0.214120 1.898921 -0.914501 0.334376 -0.122702 
-0.636549 -0.322151 1.653785 -0.878762 -0.363091 -0.037790 
1.025173 0.741787 2.458199 -0.936584 -0.055529 0.122477 
0.842646 0.944813 1.853818 -0.879702 -0.218413 0.379308 
0.831617 -0.700527 1.065822 -0.950576 -0.178575 0.114241 
-0.777190 -0.098975 1.871370 0.958599 0.227813 -0.114026 
-0.880510 0.640618 1.619773 -0.881174 -0.300128 -0.249497 
0.718431 -0.273453 1.613357 -0.904761 0.319278 -0.110453 
0.657454 -0.976939 0.557390 0.751564 0.333210 -0.460280 
0.617035 -0.587407 1.450613 -0.880446 0.319338 -0.249114 
0.555553 -0.122279 0.343193 0.902871 -0.036682 -0.402896 
-1.035880 0.437563 3.084816 0.937824 0.330865 -0.006703 
-0.979619 0.292199 3.033472 -0.949572 -0.290435 0.090012 
-0.298486 0.020234 0.237218 -0.444507 -0.199511 0.864328 
-0.942937 0.215919 3.106218 -0.943458 -0.312839 0.089109 
-1.128935 0.714435 2.533291 -0.970715 -0.191941 -0.106744 
0.150779 0.025978 0.316565 0.277096 -0.216582 0.935016 
0.790581 0.447874 1.546647 -0.899083 -0.113956 0.270982 
-0.457422 0.651619 0.296893 -0.798883 0.586275 -0.048440 
0.571819 -0.571585 1.503579 -0.852010 0.417813 -0.256025 
0.150051 -0.080147 0.290894 0.248823 -0.210879 0.943383 
0.413430 -0.101688 -0.024561 0.851517 -0.096488 -0.510715 
0.649469 0.121395 0.650297 0.968318 -0.014912 -0.228933 
-0.055054 -0.077563 0.300162 -0.122966 -0.224478 0.965164 
-1.123227 0.773976 2.635319 0.949429 0.222159 0.120112 
-0.655008 -0.330078 1.508379 0.942226 0.229261 -0.109836 
-0.746283 -0.294844 1.329435 -0.958576 -0.117695 0.092246 
-1.079206 0.615697 2.345320 -0.988166 -0.107973 -0.103804 
-0.911615 0.423891 1.759740 -0.944595 -0.168293 -0.204371 
-0.965109 0.087489 2.509362 -0.911275 -0.379145 -0.119273 
-0.256596 -0.684819 0.107425 -0.181288 -0.147082 0.883371 
-0.922703 1.129811 1.731726 0.840058 0.024798 0.506057 
-1.121015 0.674827 3.022647 -0.957727 -0.281515 0.028054 
-0.190535 0.956800 0.375752 -0.491033 -0.108323 0.810596 
0.803476 -0.151558 1.282945 0.969053 -0.094117 -0.138471 
0.607659 0.646866 1.031748 -0.956731 -0.090170 0.225901 
-1.044803 0.576801 2.273575 0.974306 0.101260 0.181539 
-0.322408 -0.522235 -0.062660 -0.703734 -0.182338 -0.656723 
0.989708 0.279765 3.211465 -0.959820 0.087700 -0.237662 
-0.363491 -0.270749 -0.072526 -0.775254 -0.143878 -0.587907 
0.364976 -0.448370 0.084968 0.158961 -0.133002 0.882948 
0.470805 0.109055 0.051760 0.865310 -0.053131 -0.489550 
0.963137 -0.129459 2.761829 0.926843 -0.342608 -0.024237 
0.888322 0.702674 1.778484 0.962057 -0.072078 -0.104487 
-0.500214 0.613979 0.213212 -0.854584 0.469581 -0.142594 
0.548506 0.505558 0.392892 0.851522 0.455398 -0.172851 
0.134097 0.452588 0.407473 0.309609 -0.075077 0.940116 
0.614717 -0.445313 1.556472 -0.864727 0.407269 -0.189682 
-0.587165 -0.647858 2.018808 0.895566 0.375731 0.187609 
-1.097464 0.638147 3.090458 0.968255 0.211832 -0.042355 
-0.530888 0.248133 0.135405 -0.867010 -0.016552 -0.479429 
-0.218226 -1.300441 0.076365 -0.198881 -0.074865 -0.934497 
0.292435 -1.108499 0.098394 -0.093664 0.039314 0.836451 
-0.739406 -0.775273 0.895026 -0.932462 0.041771 -0.206819 
0.314778 -0.633723 -0.037955 0.677930 -0.172603 -0.683249 
-0.895504 0.918264 1.552810 -0.898685 -0.357194 -0.129239 
0.882822 0.555542 1.784452 -0.820333 -0.121076 0.482548 
-0.236299 1.089037 0.179860 -0.883745 0.425123 -0.038863 
-0.935634 1.484339 1.550941 -0.957559 0.094481 -0.136779 
0.138386 0.888241 -0.116853 0.547709 0.427079 -0.698360 
-1.126973 0.691529 2.734298 0.958332 0.238799 0.059381 
-0.240442 0.433359 0.338817 -0.260619 -0.104706 0.954106 
-0.811506 0.592750 1.304857 -0.958909 -0.262846 -0.031682 
0.917894 0.666908 1.884649 -0.856932 -0.222266 0.388318 
0.745605 -0.290908 1.013822 0.964165 -0.019482 -0.124337 
-0.543659 0.284408 0.444055 0.700872 -0.287744 0.611255 
0.082227 -0.859146 0.061494 0.012972 -0.317961 0.895922 
-0.707127 -0.224548 1.771020 -0.839977 -0.381099 -0.225109 
-0.616120 0.425645 0.536276 -0.767854 0.537765 -0.304045 
0.626624 0.342726 0.571608 0.894670 0.291208 -0.221697 
-0.237211 -0.604489 -0.074344 0.109786 -0.341668 -0.924065 
-0.856354 0.449154 1.623913 -0.894666 -0.267012 -0.247361 
-0.296941 0.812206 -0.019654 -0.711733 0.495666 -0.412663 
0.345004 0.755986 0.231517 0.819533 0.322699 0.411735 
-0.772766 0.650167 1.272666 0.909051 -0.140960 0.326467 
0.385335 0.300627 -0.110742 0.699057 -0.044380 -0.686049 
-0.896001 1.424319 1.523713 0.911095 0.326718 -0.039450 
0.464957 0.197768 0.007690 0.860414 -0.047886 -0.502956 
-1.057399 0.549070 3.280589 -0.948179 -0.307777 0.058565 
0.406617 0.455260 0.372511 -0.887299 0.135049 0.413842 
-1.017739 0.923911 2.197287 0.895007 0.125204 0.299089 
0.735080 -0.382081 0.862533 -0.951128 -0.112800 0.240455 
-0.752569 0.516798 0.834538 -0.949275 0.018926 -0.236046 
0.816363 1.083354 1.709703 0.990971 0.051299 -0.085408 
-0.949035 0.121524 2.237374 0.931427 0.233778 0.210537 
0.286204 -0.053011 -0.171104 0.542527 -0.146357 -0.818969 
0.190941 -0.429244 0.198750 0.252907 -0.225882 0.937031 
-0.778975 0.319281 1.475151 0.951859 0.041229 0.178575 
-0.664306 -0.056861 0.486737 -0.928129 -0.037370 -0.330563 
-0.259045 0.204313 0.299879 -0.387155 -0.168974 0.903216 
0.139249 0.592271 -0.230822 0.416303 0.170157 -0.872890 
1.108604 0.809516 2.438108 0.981965 0.109325 -0.150461 
-0.476380 -1.098696 0.201375 0.595206 -0.421706 0.659440 
-0.581785 0.266555 0.532364 0.760562 -0.277573 0.543291 
1.030343 0.584864 3.194819 0.968450 -0.037032 0.230230 
0.734827 -0.187493 0.910613 0.961958 -0.014445 -0.242886 
0.327850 0.040109 -0.144261 0.596531 -0.122902 -0.771981 
0.005200 1.102287 -0.045982 0.291621 0.434687 -0.848243 
-1.081023 0.832125 2.237827 -0.976636 -0.163469 -0.114109 
-0.707625 0.008048 0.618205 -0.951133 -0.029356 -0.283257 
0.635377 -0.308328 0.617811 0.910184 -0.010910 -0.354625 
-1.177304 0.991223 2.519632 -0.986751 0.012941 -0.151071 
1.059156 0.557989 2.225560 -0.944667 -0.082312 0.293773 
-0.759195 -0.144182 1.469430 -0.966257 -0.165550 0.028789 
-1.029908 0.438533 2.439856 0.979085 0.092695 -0.017879 
-1.189941 0.919987 2.812827 -0.976629 -0.173051 -0.034625 
-0.301679 0.882167 0.226986 -0.895741 0.226554 0.311815 
-1.059637 1.044600 2.093303 -0.979705 -0.161055 -0.080090 
-1.112488 0.697264 3.195296 -0.957154 -0.280081 0.048195 
-0.750465 0.008944 1.122779 0.963156 0.042554 0.198577 
0.164201 -0.765354 -0.038211 0.137823 -0.252182 -0.950461 
0.208390 0.859625 -0.102076 0.561900 0.486810 -0.660101 
0.244338 -0.152588 -0.189617 0.520218 -0.163911 -0.828420 
-0.374877 -0.401552 -0.018506 -0.831242 -0.144451 -0.528013 
-0.529643 0.246400 0.377988 0.661809 -0.276244 0.645301 
0.344999 0.347337 -0.157676 0.611356 -0.030564 -0.781767 
-0.384576 -0.985335 0.221100 0.533574 -0.006281 0.785165 
-0.460480 -0.439320 0.163435 0.351909 -0.053425 0.843539 
-0.890826 1.047556 1.468048 -0.922279 -0.380672 -0.026254 
0.149657 0.277018 0.382159 0.319945 -0.141665 0.931793 
0.035219 0.339965 -0.319149 0.462486 0.068953 -0.879132 
0.771028 -0.814978 0.855036 0.887664 0.156184 -0.306915 
0.712629 0.810457 1.420166 -0.828834 -0.342984 0.385295 
0.998180 0.013232 2.903175 -0.957510 0.253735 -0.042934 
-0.498893 -0.157238 0.165618 -0.872092 -0.084305 -0.453053 
0.525369 0.372676 0.565911 -0.917762 0.254073 0.267848 
0.754905 -0.302538 1.144743 -0.966262 0.005113 0.085487 
0.931690 0.886371 1.968053 0.987878 0.104019 -0.064688 
-0.528182 -0.221699 0.306127 0.514250 -0.094821 0.701137 
0.749624 -0.210745 1.537355 0.924074 -0.276399 -0.008173 
0.384622 -0.107575 0.138010 -0.014229 -0.144135 0.902001 
-0.808397 0.742062 1.046393 -0.940041 0.036067 -0.263173 
-1.081198 0.525060 2.866202 0.937489 0.322495 0.039447 
1.081895 0.490593 2.240813 0.922620 -0.097351 -0.350567 
-0.900946 1.061739 1.638743 0.849764 -0.266008 0.415022 
-0.568596 0.456165 0.234861 -0.905824 0.219902 -0.289683 
-0.160097 -0.483542 -0.148756 -0.251072 -0.437852 -0.849325 
0.948885 -0.075853 3.074402 -0.959544 0.227985 -0.137584 
0.064856 1.343539 0.096559 0.627275 0.639729 -0.386954 
-0.603036 -0.781870 0.619577 0.769485 -0.049263 0.451097 
-0.648178 -0.496048 0.609069 -0.878209 -0.056506 -0.353251 
1.082473 0.282873 2.760913 -0.956670 0.238837 0.032333 
1.104737 0.821332 2.757711 -0.966584 -0.085643 -0.015784 
0.948211 1.076205 2.159137 0.829710 0.489819 -0.071594 
-0.715893 0.445416 0.909642 0.898155 -0.176402 0.388866 
-0.798817 0.446910 1.343615 -0.964797 -0.243461 -0.040243 
-0.873695 -0.101496 2.735065 -0.933366 -0.340244 0.000718 
1.054339 0.130711 2.395086 0.922995 -0.309010 -0.188975 
-0.371713 0.397899 -0.141408 -0.645304 0.006994 -0.745404 
0.154656 0.102281 0.333307 0.299806 -0.216900 0.928542 
0.925281 0.467772 3.472731 0.925484 0.001023 0.320926 
-0.508510 0.091127 0.302251 0.577232 -0.218005 0.702107 
0.807579 -0.571862 0.916925 0.951549 0.147071 -0.237507 
-1.061545 0.931328 2.305107 0.911419 0.153329 0.272936 
0.301957 0.814458 0.263283 0.776320 0.263479 0.507617 
0.758936 -0.906183 0.768839 0.838589 0.301164 -0.344858 
-1.062223 0.539615 3.192136 -0.948529 -0.307690 0.050164 
0.922540 -0.233175 2.497262 -0.911102 0.387600 0.095137 
-0.094847 -0.637331 0.153151 -0.252976 -0.279276 0.922973 
-1.104406 0.572536 2.731148 0.936192 0.317198 0.073027 
-0.767655 -0.815600 0.967623 -0.950871 0.064678 -0.165769 
-0.740694 -0.263630 1.122078 0.964712 0.051328 0.033003 
0.621606 -0.399337 0.646507 -0.849829 -0.069780 0.409581 
-0.225671 0.344715 0.349315 -0.331153 -0.118971 0.930796 
-0.175659 1.046222 0.279132 -0.403535 0.839994 0.310713 
-0.847960 0.668779 1.709097 0.899712 0.040934 0.340435 
0.519315 0.142405 0.408525 -0.707951 -0.213410 0.607354 
1.048151 0.110832 2.542068 -0.960092 0.153976 -0.064374 
-0.354778 0.701860 0.227593 -0.808255 0.286726 0.416028 
0.752659 -0.243608 1.708701 -0.905462 0.331924 -0.185632 
-1.073554 0.538417 2.539068 0.914365 0.328013 0.180919 
-0.336479 -0.111074 0.191708 -0.493551 -0.190714 0.830172 
-0.687805 0.341769 0.809069 0.885907 -0.215510 0.400730 
0.553644 0.515457 0.314017 0.878025 0.395384 -0.203680 
0.917839 1.054545 2.021766 0.988452 0.102161 -0.080388 
-0.525236 -0.052276 0.187840 -0.876008 -0.061935 -0.447818 
-0.967908 0.584556 1.988477 -0.935893 -0.164470 -0.268337 
0.596028 0.192900 0.467027 0.940595 -0.025310 -0.296773 
0.457118 0.508471 0.410289 -0.886317 0.233710 0.373833 
0.714801 0.269314 1.164183 -0.901582 -0.127938 0.323431 
1.030540 0.510390 3.169394 0.968564 -0.058505 0.223517 
-0.801722 0.846586 1.121747 -0.619064 0.404302 -0.564294 
-0.985891 0.238872 2.368338 0.966180 0.161212 0.036183 
0.130625 0.174096 0.355730 0.268782 -0.191185 0.937843 
0.358525 -0.507956 -0.010628 0.794841 -0.142101 -0.565654 
-0.773278 -0.027674 1.328636 -0.975387 -0.160502 -0.112804 
0.791785 0.813294 1.651215 -0.833223 -0.259207 0.344673 
0.468093 -0.056974 0.099550 0.869601 -0.068869 -0.474619 
0.808610 -0.204712 1.333705 0.970144 -0.096249 -0.078354 
-0.949681 0.180475 2.721944 -0.895428 -0.414194 -0.077218 
-0.631209 0.266519 0.446078 -0.923581 -0.001729 -0.353437 
-0.378775 0.579944 0.221339 -0.118817 0.299635 0.798346 
0.065029 -0.880873 -0.066640 0.194083 -0.066196 -0.945745 
0.409906 -1.150046 0.161851 -0.220242 -0.257415 0.692479 
0.384945 -0.942690 0.220083 0.648586 -0.102700 -0.691334 
-0.757050 -0.663018 1.189343 0.962041 -0.023480 -0.127643 
0.381685 0.152675 -0.100174 0.701412 -0.086343 -0.669681 
0.966744 -0.113076 2.583919 -0.934491 0.291708 0.014346 
0.215131 0.006028 0.282106 0.385393 -0.209712 0.886134 
-0.755063 -0.029614 1.187466 0.970750 0.076094 0.168869 
0.614977 0.684641 0.941243 -0.975923 0.114064 0.050289 
0.816071 0.528690 1.615716 -0.904452 -0.178963 0.212333 
0.152958 -1.331577 0.096689 -0.882930 -0.304965 0.198443 
-1.124582 0.804722 3.436157 -0.968755 -0.169497 0.084203 
-0.217667 1.076900 0.064373 -0.767580 0.427271 -0.405761 
-0.954507 0.307868 2.029418 -0.977590 -0.132248 -0.078409 
0.788428 -0.297126 1.450222 0.954560 -0.156215 0.033640 
0.623949 -0.784159 0.617355 -0.741296 -0.127972 0.498019 
-1.067693 0.625491 3.408786 0.957886 0.263078 -0.061696 
-0.889451 0.026237 2.063296 -0.963506 -0.248323 -0.042717 
-0.688297 -0.182577 1.628081 0.950494 0.252126 -0.065863 
0.188530 1.048094 0.299973 0.406839 0.816207 0.196741 
-0.563768 0.313567 0.589322 0.835885 -0.206699 0.484579 
0.078910 0.836689 0.398497 0.213745 -0.205393 0.947430 
0.424087 0.551697 0.346129 -0.874993 0.215796 0.418166 
0.567541 0.625325 0.709345 -0.969944 -0.054313 0.212435 
0.543562 -1.077785 0.291372 -0.614194 -0.449479 0.612822 
1.058693 0.123989 2.619520 0.902839 -0.373313 -0.165758 
-0.323524 -0.592379 -0.039849 -0.709609 -0.174808 -0.655994 
0.216277 0.121782 0.299181 0.353480 -0.205265 0.908936 
0.218718 -0.827556 -0.022853 0.064480 -0.269943 -0.952482 
-1.002784 0.976222 2.111946 0.885363 0.104432 0.338686 
0.718931 -0.059835 0.996447 -0.944136 -0.049916 0.280451 
0.132148 -0.195141 0.264692 0.194856 -0.207014 0.956525 
0.134498 0.356903 0.404510 0.303669 -0.110793 0.938050 
0.073432 -0.042771 -0.284963 0.446007 -0.112488 -0.866702 
0.104096 0.954453 -0.093098 0.503504 0.475574 -0.697606 
0.694031 1.064767 1.539941 -0.917544 -0.162215 0.275873 
-1.173870 0.921834 3.109631 0.858150 0.488490 0.038470 
0.680572 0.971023 1.389401 -0.847555 0.263678 -0.075234 
-0.761217 0.295729 1.384501 0.945514 0.026227 0.202866 
-0.239333 -0.230941 -0.188295 -0.514150 -0.187718 -0.828221 
0.785924 -0.357744 1.311408 -0.972573 0.036995 -0.018693 
-0.006156 -0.364062 0.228105 0.038589 -0.141210 0.988288 
-0.759160 0.749534 1.144079 0.890136 -0.213716 0.393342 
-0.448039 -0.071641 0.029045 -0.848309 -0.079239 -0.509391 
-0.179837 1.139631 0.423091 -0.842918 0.121631 -0.404583 
0.466295 0.039969 0.251552 -0.545937 -0.197308 0.751909 
-0.950846 0.066489 2.382913 0.960440 0.216239 0.072768 
0.772921 0.567847 1.536041 -0.878078 -0.181771 0.301009 
1.095526 0.864796 2.814480 -0.962660 0.144506 0.063866 
-0.771586 0.385967 1.398916 0.940065 -0.004921 0.220121 
0.669190 -0.065388 0.661814 0.954597 0.004368 -0.281938 
1.111377 0.435051 2.410769 0.904139 -0.239362 -0.324505 
1.061715 1.002052 2.456470 0.918000 0.347121 -0.095710 
-0.240337 -0.075177 -0.196957 -0.521780 -0.138860 -0.831423 
-0.502963 -0.367237 0.236437 0.414766 -0.053170 0.772163 
-0.713891 -0.464896 1.382847 -0.944240 -0.117866 0.232979 
-0.910623 0.196549 2.031742 0.836338 0.239416 0.417532 
-0.774859 0.553692 1.077633 -0.975766 -0.209666 -0.016183 
-0.655811 0.060165 0.470325 -0.925348 -0.026460 -0.342227 
0.806490 0.121449 1.360173 0.978419 -0.134938 -0.135283 
0.630785 -0.235527 0.624223 -0.823998 -0.078505 0.421596 
-1.153898 0.770925 2.997433 -0.963204 -0.263758 0.025877 
-0.528816 -0.840806 0.481659 0.690357 -0.033223 0.564841 
1.053214 0.805459 2.277472 0.983438 0.120207 -0.112150 
0.961055 0.841488 2.037417 0.986536 0.134297 -0.051442 
-0.735586 -0.264324 1.947165 -0.840562 -0.379767 -0.363931 
-0.613576 0.367453 0.366278 -0.921474 0.119349 -0.307539 
-0.914758 0.806889 1.777058 0.875888 -0.092152 0.397437 
0.760538 0.365541 1.391947 -0.901891 -0.108717 0.290799 
0.772409 0.083682 1.294111 -0.942116 -0.000216 0.247608 
-0.628921 -0.294828 1.581859 0.935919 0.289241 -0.090133 
-0.948534 0.017997 2.449159 -0.931203 -0.329014 -0.108460 
0.967854 0.150479 1.992511 -0.822157 0.222521 0.456545 
0.972667 0.036375 2.127361 -0.833963 0.297764 0.370291 
0.225141 -1.432114 0.121229 0.207933 -0.657426 0.617388 
-0.956198 0.290593 2.106218 0.931342 0.197682 0.274231 
-0.888867 0.182143 1.917916 -0.978356 -0.163740 0.004229 
0.232902 0.273922 -0.220672 0.551180 -0.027998 -0.829884 
-0.375690 0.696036 -0.062830 -0.638722 0.512329 -0.474750 
0.021575 -0.054408 0.307409 0.085399 -0.227675 0.968543 
-0.725652 0.826246 0.938746 -0.821459 0.212963 -0.452485 
0.253191 0.119505 -0.200087 0.545438 -0.082346 -0.825803 
-0.590504 -0.547128 1.473916 0.919569 0.255186 -0.226529 
1.048066 0.439254 2.159475 -0.948187 -0.014341 0.295482 
-0.491529 0.138307 0.053814 -0.852710 -0.036170 -0.506629 
1.121485 0.505279 2.566353 -0.967966 0.072569 0.129987 
0.097655 -0.594139 0.163825 0.203438 -0.263894 0.940002 
-0.870040 0.548570 1.625240 -0.885546 -0.283691 -0.255506 
0.109242 0.265808 -0.291745 0.508643 0.008852 -0.857093 
-0.944031 0.018835 2.545792 -0.916408 -0.373546 -0.094189 
-0.293064 0.090753 0.251838 -0.414391 -0.199325 0.882467 
-0.731676 0.132529 0.732561 -0.968304 -0.043730 -0.226867 
-0.395267 -0.322287 -0.002349 -0.842737 -0.130810 -0.513402 
0.129729 1.251229 0.121573 0.752989 0.579811 -0.206584 
-0.282498 -0.670174 -0.067061 -0.564296 -0.218819 -0.790367 
-0.742344 -0.439818 0.820781 0.941185 -0.046721 0.243229 
-0.384704 -0.179387 0.119324 -0.017979 -0.127915 0.930426 
0.755223 0.990933 1.470653 0.973513 -0.184510 -0.124996 
-0.751840 0.490183 1.232442 0.917400 -0.089643 0.300736 
-0.900342 0.046218 2.791951 -0.913758 -0.378378 -0.018709 
-0.298198 -1.019760 0.063292 -0.615167 -0.172970 -0.765600 
0.470224 -0.214389 0.212710 -0.458791 -0.123991 0.793362 
-0.133773 1.096874 0.250906 -0.748655 0.151039 0.494786 
-0.807881 0.537916 1.531908 0.940608 -0.028427 0.213147 
-0.535010 -0.386743 0.324336 -0.864330 -0.102482 -0.427846 
0.071250 0.498678 -0.275144 0.439035 0.132342 -0.881477 
-1.057220 0.578715 3.354880 0.956397 0.266670 -0.060400 
-0.811248 0.074626 1.683568 -0.897330 -0.258515 -0.269778 
-0.537600 -0.081183 0.342357 0.579816 -0.141836 0.663610 
-1.002538 0.478974 2.138290 -0.934928 -0.191263 -0.276544 
0.557006 -0.634475 2.032649 -0.843175 0.513315 0.117761 
0.126140 1.084080 -0.014701 0.485381 0.449339 -0.730737 
-0.717490 0.086296 0.790170 0.928030 -0.111548 0.323105 
0.378945 -0.163639 -0.068628 0.784860 -0.129527 -0.574368 
0.755537 -0.206832 1.619080 -0.921475 0.279832 -0.062747 
-0.991910 0.253636 2.447277 0.970696 0.134314 -0.046001 
-0.525626 -0.531110 1.590925 0.903160 0.371107 -0.202841 
-0.902682 0.131503 3.173084 0.937462 0.335666 -0.072196 
-0.388827 -0.061805 0.153498 0.001486 -0.163743 0.899867 
0.407436 -0.503305 0.115663 0.802969 -0.117952 -0.539951 
0.112315 0.700391 -0.220930 0.373395 0.303412 -0.862183 
-0.301572 0.710778 0.311281 -0.642453 0.204380 0.716145 
0.727566 0.877265 1.253002 0.747406 0.352152 -0.412250 
-0.850558 -0.035758 2.047019 0.734240 0.310732 0.525394 
-0.746187 -0.176884 1.950821 0.875646 0.308917 0.354374 
-0.926387 0.664019 1.864545 0.894270 0.006431 0.380639 
0.586178 0.426282 0.339309 0.948204 0.165556 -0.215726 
0.424827 -1.074621 0.160939 -0.511724 -0.268875 0.763436 
-0.768495 -0.075595 0.819067 -0.974883 -0.066248 -0.189347 
1.126850 0.517297 2.644942 -0.977634 0.068345 0.062254 
0.673005 -0.365586 1.636479 -0.879377 0.383969 -0.208724 
0.061883 0.009455 0.320940 0.151664 -0.227706 0.957465 
-0.444009 -0.394176 0.110617 0.285500 -0.070193 0.898205 
-0.891484 -0.099438 2.651469 -0.932740 -0.341577 -0.027877 
-0.113922 0.799871 -0.168040 -0.472714 0.405201 -0.761786 
-0.700694 -0.346496 1.973622 0.930698 0.292096 0.051427 
0.281326 -1.201520 0.114748 0.481474 -0.128212 -0.794155 
-0.193816 -0.470809 0.182429 -0.273581 -0.231102 0.931712 
-0.530356 0.566081 0.291745 -0.837193 0.479879 -0.183235 
-0.804632 -0.617909 0.996328 -0.984437 0.051360 -0.112114 
-0.199947 0.311457 -0.236479 -0.520117 -0.000147 -0.848647 
-0.848436 -0.158284 2.785390 0.947017 0.306582 -0.025959 
0.901897 0.418920 3.536331 -0.952185 0.068033 -0.292946 
-0.618767 0.651405 0.684887 0.916676 -0.028954 0.379849 
1.053758 0.804505 2.497518 -0.951867 -0.042144 0.154831 
-0.240276 -0.953839 0.013145 -0.119184 -0.243867 -0.961226 
-1.102336 1.064778 2.276251 0.839606 0.396790 0.256752 
-0.538104 -0.307517 0.316604 0.506214 -0.058966 0.691459 
-0.449098 0.534238 0.381787 0.868301 0.149172 0.449668 
-0.731463 0.419391 1.144925 0.915178 -0.085900 0.312116 
-0.672824 -0.766411 0.759213 0.839885 -0.069982 0.343174 
0.581175 0.674313 0.774646 0.912425 0.243407 -0.319118 
0.836577 0.402384 1.624082 -0.928481 -0.114118 0.172407 
-0.091299 -0.546269 -0.130555 -0.016572 -0.402901 -0.913639 
0.613328 -0.896160 0.590376 -0.700641 -0.139163 0.536537 
1.103830 0.508546 2.871504 0.987938 -0.068462 0.116356 
0.242488 -0.761901 0.094805 0.025237 -0.134486 0.871329 
0.258526 0.571694 -0.198219 0.515070 0.148036 -0.825896 
0.797519 -0.124660 1.546871 0.942398 -0.235080 -0.076522 
-0.693383 0.065721 0.727304 0.912051 -0.156848 0.345481 
-0.767925 -0.052442 1.506984 -0.971585 -0.186642 -0.028324 
0.699578 0.754942 1.343536 -0.832711 -0.332394 0.391749 
-0.463715 -0.749205 0.313575 -0.739978 -0.121855 -0.573250 
-0.618547 -0.032382 0.380922 -0.909686 -0.041607 -0.372829 
0.659263 -0.684367 0.683694 -0.798259 -0.131144 0.434472 
0.047248 -0.972848 -0.060616 0.272655 0.026177 -0.942808 
1.006294 -0.015035 2.702200 0.916495 -0.355242 -0.086263 
0.522479 -1.008113 0.362103 -0.604586 -0.241461 0.646896 
-0.730049 0.202892 0.747253 -0.968689 -0.055809 -0.210036 
0.506792 0.608201 0.095932 0.860309 0.372594 -0.260332 
-1.039928 1.031893 2.025334 -0.977418 -0.175918 -0.074537 
-0.333113 0.815457 0.219016 -0.878774 0.321593 0.327870 
0.925237 0.815898 1.975953 -0.842811 -0.288331 0.351537 
-0.835880 0.984594 1.468578 0.901594 -0.218463 0.343195 
0.196278 -0.984293 0.058375 -0.499746 -0.084349 0.834643 
-0.731555 0.189121 0.881652 0.930497 -0.094509 0.319962 
-0.212196 0.153114 0.313334 -0.342392 -0.194848 0.915506 
-0.910785 0.982979 1.600880 -0.924710 -0.303955 0.053325 
0.582816 0.547731 0.692811 0.876555 0.311944 -0.319278 
0.670197 -0.441076 1.973119 0.826805 -0.495163 -0.204355 
0.695218 0.334247 1.121041 -0.887574 -0.171756 0.349424 
-0.913030 1.344989 1.551023 0.635814 0.240618 0.664825 
-0.807649 -0.734141 1.083145 -0.983951 0.067177 -0.051063 
-0.844648 -0.121829 2.850204 -0.936579 -0.333827 0.044666 
0.543749 -0.582976 1.609544 0.827956 -0.498540 0.204550 
-0.649247 0.450508 0.661178 -0.783400 0.415549 -0.421083 
1.041286 0.946061 2.340206 0.985709 0.118856 -0.104894 
0.993668 -0.042428 2.820871 -0.964710 0.197769 -0.098921 
-1.088318 0.667716 2.497268 0.931790 0.243515 0.189307 
-0.613473 0.143608 0.553017 0.789732 -0.211220 0.490761 
-0.363238 -0.066560 -0.105116 -0.659969 -0.138201 -0.698428 
-0.609853 0.254442 0.600188 0.806392 -0.268957 0.491773 
-0.521402 0.349587 0.102171 -0.869474 0.072792 -0.437332 
-0.609344 0.186037 0.365151 -0.907087 -0.020147 -0.388798 
0.885356 0.977415 2.041914 -0.859190 -0.143905 0.374734 
0.231345 -0.672129 -0.058450 -0.082499 -0.315414 -0.930415 
-0.666928 -0.416214 1.937527 -0.861081 -0.385547 -0.256768 
-0.272534 0.002625 -0.183113 -0.534851 -0.124192 -0.827153 
-0.060155 0.319284 -0.310119 -0.471073 0.049792 -0.876119 
-0.765779 -0.107442 1.314748 -0.970707 -0.145356 -0.059828 
-0.307836 0.464476 -0.191294 -0.563592 0.037507 -0.822125 
-0.562207 -0.558457 1.777357 0.902645 0.366355 -0.040445 
-0.781303 0.778783 1.257177 0.898062 -0.194948 0.363003 
0.119557 -0.099232 -0.259913 0.469566 -0.126310 -0.856215 
-1.057886 0.474360 2.912708 0.929249 0.343077 0.036943 
1.055888 0.187722 2.792857 -0.956669 0.248762 0.016102 
0.631798 0.008945 0.702920 -0.910501 -0.172036 0.336471 
1.057494 0.662693 2.319955 -0.933341 -0.050426 0.281286 
-0.109866 0.190149 -0.287487 -0.496157 -0.015031 -0.861356 
0.049494 0.837060 -0.186646 0.433138 0.390867 -0.801557 
-0.682250 -0.182266 0.565869 -0.941879 -0.055095 -0.295414 
0.290634 0.874130 0.042305 0.808752 0.431057 -0.324744 
-0.333375 -0.498331 0.089610 -0.193556 -0.138086 0.910828 
0.655191 -0.385606 1.529065 0.881902 -0.367485 0.120939 
0.877233 0.061180 1.668727 -0.973849 0.097163 0.045611 
0.708670 0.088210 0.899186 0.973387 -0.031005 -0.187965 
-1.022480 0.484694 3.440531 0.945980 0.316163 -0.062039 
-1.028044 1.140948 1.999445 0.732141 0.529903 0.315808 
-0.683632 0.640549 0.948565 0.971754 0.050926 0.206533 
0.058486 1.049353 -0.046948 0.358217 0.466744 -0.784980 
0.978784 -0.087386 2.679342 0.916616 -0.363356 -0.071518 
0.076438 0.401044 -0.284529 0.461728 0.084599 -0.874235 
-0.242829 1.011525 0.318848 -0.812593 0.003823 0.492024 
-0.224182 -0.406983 0.192004 -0.340274 -0.214829 0.904992 
1.073245 0.251761 2.172115 0.963593 -0.144074 -0.202226 
-0.080831 0.476646 -0.269746 -0.437735 0.118976 -0.883024 
-0.816714 0.135830 1.635951 -0.914493 -0.219987 -0.244855 
1.075024 0.762243 3.028566 -0.985934 0.076459 -0.126615 
-0.283744 0.556323 0.314565 -0.373891 -0.092335 0.885089 
-1.019177 0.377738 2.961523 -0.954911 -0.273000 0.083548 
-0.921149 0.130552 2.775383 0.962120 0.186820 -0.145258 
1.121964 0.796745 2.543459 0.983771 0.096106 -0.107889 
-0.710568 -0.356971 0.690532 -0.926827 -0.043121 -0.283817 
1.083257 0.291284 2.306522 -0.967344 0.106131 0.131226 
0.598493 0.206549 0.687391 -0.898441 -0.263712 0.336769 
0.351667 -0.266914 0.145195 0.389280 -0.164758 0.831956 
0.150409 -0.726015 0.121356 0.013128 -0.222154 0.900966 
0.744944 -0.367222 2.089195 0.883490 -0.442176 -0.062601 
-0.750287 -0.346651 0.769437 -0.955049 -0.021843 -0.232333 
-0.159747 -0.277464 -0.220039 -0.455030 -0.219777 -0.846180 
0.970344 -0.081093 2.345659 0.924731 -0.333290 -0.122453 
-0.812615 -0.686283 1.016271 -0.986922 0.069579 -0.118438 
0.841317 -0.044901 1.452547 0.972094 -0.143984 -0.162266 
-0.622901 -0.472520 1.874612 0.914278 0.335051 0.011354 
-0.775620 -0.597518 1.058474 0.971417 -0.052506 0.030227 
-0.925113 0.187825 3.212494 0.938075 0.335847 -0.068693 
-0.732865 -0.384786 1.373415 0.958062 0.086479 -0.165199 
-1.071083 0.541280 3.095811 0.957826 0.267791 -0.029399 
0.488573 -0.858249 0.389487 -0.611436 -0.070124 0.668613 
-0.524441 0.429229 0.503553 0.886971 0.190707 0.381504 
-0.378186 -0.721068 0.117303 -0.727137 -0.147992 -0.625180 
0.812963 0.356982 1.480668 0.975176 -0.166615 -0.137757 
-0.922459 0.161251 2.978357 0.915780 0.376544 -0.006228 
0.648864 0.284465 0.605927 0.978136 0.056150 -0.173223 
-0.449404 -0.516556 0.173680 0.388430 -0.043087 0.829968 
-0.129592 0.960899 0.412759 -0.211145 -0.193901 0.955232 
0.460989 0.281303 -0.028875 0.856689 -0.042268 -0.513223 
-1.118448 1.022391 2.373061 0.945208 0.216673 0.230224 
-0.737538 -0.278746 0.883451 0.963785 0.001309 0.119759 
0.799858 -0.222342 1.973181 -0.731616 0.418912 0.474625 
0.216187 -0.598856 -0.079325 -0.055966 -0.332698 -0.923724 
0.894798 0.024386 1.727811 0.874025 -0.269408 -0.334297 
0.494744 0.411329 0.507132 -0.907510 0.236954 0.308511 
0.573504 -0.001366 0.348964 0.905445 -0.018295 -0.401887 
0.389134 0.597063 0.220692 -0.033599 0.373927 0.722533 
-0.552100 -0.658203 0.465635 -0.805154 -0.085602 -0.465019 
0.242789 0.653547 -0.198864 0.496982 0.250357 -0.819315 
-0.443346 0.461590 0.395560 0.865732 0.103569 0.458446 
-0.595763 -0.537421 1.866830 -0.879144 -0.391163 -0.112401 
0.738918 0.235454 1.102260 0.981549 -0.085217 -0.128627 
0.644455 0.356795 0.713421 0.847528 0.381466 -0.275840 
-0.259017 0.273766 -0.206941 -0.543672 -0.034454 -0.835555 
-1.118850 0.845129 2.542525 0.940931 0.207748 0.176565 
0.523997 -0.298402 0.335705 -0.551981 -0.086875 0.684176 
1.060693 0.675676 2.455249 -0.946608 -0.040258 0.160907 
0.439381 0.125415 0.198353 -0.515720 -0.228230 0.797916 
0.087454 0.909850 0.412816 0.224534 -0.127075 0.958291 
0.437268 0.153458 -0.042392 0.838175 -0.066869 -0.529862 
0.894516 0.091456 1.754312 -0.969307 0.091003 -0.045299 
0.242848 0.416158 0.336774 0.262243 -0.113818 0.951838 
-0.987427 0.332109 3.181594 0.926184 0.361259 -0.020492 
-0.894590 1.279629 1.521185 0.725429 0.090599 -0.610691 
0.825230 0.291705 1.509326 0.974192 -0.169955 -0.143702 
-0.502163 -0.544856 0.322703 0.571837 -0.021594 0.677176 
0.845607 0.096655 1.570596 -0.964212 0.071332 0.167199 
-0.836814 0.327004 1.698280 0.982378 0.035436 -0.030082 
0.794782 -0.645450 1.143477 -0.961355 -0.095799 -0.026718 
0.746288 -0.664001 0.815572 0.900763 0.116432 -0.308804 
0.921743 -0.236608 2.589144 -0.918785 0.371300 0.064091 
-0.161452 -0.412189 -0.198082 -0.408922 -0.307745 -0.847033 
1.005954 0.755902 2.309193 -0.917405 -0.073550 0.239045 
-0.257382 0.614690 0.344446 -0.509842 -0.073818 0.824795 
-0.955540 0.253630 3.178925 -0.941022 -0.323700 0.081922 
-0.435409 0.203243 0.217088 0.337611 -0.268249 0.807792 
-0.864943 0.003743 1.988953 -0.965058 -0.252779 -0.011266 
-0.208720 1.021644 0.003752 -0.663979 0.398838 -0.604600 
0.867345 1.042214 1.974065 -0.849052 -0.156745 0.433299 
0.317105 0.028213 0.224489 0.478469 -0.189678 0.851116 
-1.099759 0.757843 3.526834 0.963417 0.245403 -0.064610 
0.071482 0.073870 -0.302061 0.478814 -0.040653 -0.865921 
0.688920 -0.108992 0.723454 0.962262 0.009863 -0.265264 
-0.460887 -0.316317 0.136041 -0.866873 -0.117858 -0.459381 
0.689489 0.222893 1.035350 -0.899839 -0.156152 0.341533 
0.981853 0.443683 3.298404 0.960369 -0.075638 0.253368 
-0.759522 0.052407 1.387848 0.970222 0.113446 0.135669 
-0.814072 -0.273034 2.248162 -0.940271 -0.314239 -0.076550 
-0.521586 -0.150737 0.300810 0.524181 -0.123736 0.705794 
0.563195 0.414616 0.265976 0.932510 0.142287 -0.262921 
-0.740933 0.001407 0.722205 -0.969107 -0.031240 -0.242106 
-0.077832 -0.983784 0.003155 0.019631 -0.332414 0.891807 
0.763908 1.098417 1.521899 0.673304 0.404319 -0.425453 
-0.747481 -0.338602 1.016692 -0.960059 -0.057881 0.005279 
-1.098670 0.598664 3.002854 -0.953828 -0.295234 0.024127 
-0.205985 -0.266385 0.225372 -0.341054 -0.203759 0.893239 
-1.060529 0.619121 3.482750 0.954571 0.281284 -0.063299 
-0.186215 0.036895 0.303918 -0.338081 -0.219257 0.906274 
0.260717 -1.031387 0.085198 -0.273103 0.043346 0.947715 
-0.585643 -0.459822 1.520169 0.921642 0.291738 -0.167463 
-1.034652 0.508618 3.371517 0.950438 0.293280 -0.060589 
0.370831 0.649940 -0.101827 0.641111 0.299067 -0.639366 
-1.020842 0.578567 2.193418 0.960971 0.092519 0.221731 
-0.889059 -0.210232 2.523713 -0.947091 -0.313782 -0.041864 
-0.744307 -0.227715 1.207559 0.966741 0.073146 0.025694 
0.796183 -0.605098 1.041340 -0.954192 -0.135802 0.099485 
0.230396 1.102168 0.201903 0.886885 0.436602 0.006461 
0.758853 0.670833 1.364175 0.979016 -0.154552 -0.112742 
0.541611 0.478630 0.168348 0.923329 0.195074 -0.270017 
-0.628796 0.064181 0.385193 -0.910480 -0.026038 -0.374820 
0.312635 0.683669 -0.167523 0.549133 0.331037 -0.756751 
-0.618547 -0.558160 1.989241 -0.878630 -0.389982 -0.213337 
-0.137174 1.035365 -0.036136 -0.537288 0.434702 -0.704354 
-0.785339 0.704732 0.975187 -0.818705 0.220043 -0.445952 
-0.411295 -0.915081 0.262076 -0.697419 -0.125107 -0.627029 
0.261371 0.199764 0.293131 0.405728 -0.168431 0.895011 
1.030681 0.182066 2.084559 0.964066 -0.172908 -0.106933 
0.169066 -1.128678 0.070590 -0.717705 -0.099016 0.540566 
-1.160905 0.845138 2.602930 -0.973563 -0.175019 -0.107871 
0.559444 0.198897 0.326542 0.915204 -0.028292 -0.364111 
0.789981 0.613066 1.478118 0.974441 -0.174124 -0.132853 
0.599024 -0.564146 2.034081 -0.856123 0.483728 0.095281 
-0.771243 -0.489420 0.862307 -0.964768 0.013556 -0.191381 
-0.610149 -0.586398 0.585499 0.796081 -0.024021 0.444810 
0.669541 0.348410 1.024688 -0.878116 -0.213731 0.375069 
-0.264538 1.019632 0.174984 -0.902647 0.374717 -0.012878 
-0.737486 -0.003805 0.805559 0.949850 -0.055587 0.285437 
0.949685 0.945263 2.043163 0.989140 0.090298 -0.085328 
-0.724830 -0.178190 0.720325 0.930148 -0.021116 0.286626 
0.704460 1.231212 1.590318 -0.947142 -0.044999 -0.140254 
-1.058597 0.462962 2.835923 -0.960335 -0.259213 0.063772 
-0.766917 0.888084 1.073178 -0.671339 0.349435 -0.531177 
-0.846850 -0.115829 2.106927 -0.957116 -0.279713 -0.019457 
0.746739 0.080187 1.069326 0.974334 -0.068075 -0.174050 
-0.478153 -0.007992 0.227368 0.482560 -0.195644 0.777894 
0.245506 1.044173 0.253211 0.877792 0.418843 0.186930 
0.423864 -0.948657 0.283944 0.669322 -0.073861 -0.655275 
0.928580 -0.220067 2.752272 -0.935389 0.327582 -0.000482 
-0.685107 0.026200 0.552377 -0.939650 -0.028309 -0.309244 
-0.788546 -0.340414 2.265053 -0.932206 -0.328503 -0.102689 
0.677987 0.342496 0.871005 0.985669 -0.046799 -0.122716 
0.337620 0.732101 -0.078976 0.544660 0.614347 -0.482727 
-0.555210 -0.878406 0.548220 -0.799653 -0.047891 -0.440424 
0.364015 0.736824 -0.004103 0.753748 0.554056 -0.291162 
-0.428565 -0.493657 0.108965 0.305413 -0.053669 0.896752 
0.554041 -0.604232 1.828985 0.830590 -0.514117 0.033845 
0.727722 0.818220 1.208269 0.938125 0.144194 -0.244474 
-1.094392 0.681326 3.342718 -0.954860 -0.286039 0.061602 
-0.736765 0.055051 0.850753 0.945074 -0.060162 0.289625 
-0.747430 0.118471 1.177011 0.952587 0.023817 0.215093 
0.039312 1.215655 0.333827 -0.074048 0.694930 0.693422 
0.413614 0.242166 -0.076175 0.762093 -0.058430 -0.612887 
-1.183132 0.944516 3.015759 0.892628 0.422034 0.034451 
0.658896 0.248879 0.671317 0.985315 0.022764 -0.163868 
0.634055 -0.454691 1.713280 0.824894 -0.483109 0.025384 
-0.810657 -0.332505 2.335760 -0.934559 -0.327720 -0.096843 
0.713634 1.143144 1.625365 -0.918030 -0.130510 0.292385 
0.793165 -0.669114 1.210294 0.965244 0.041136 0.127618 
0.036905 1.013046 0.433972 0.103567 -0.001361 0.974302 
0.758427 0.597150 1.334150 0.980513 -0.146621 -0.108997 
-0.674498 0.355563 0.558711 -0.923700 0.183247 -0.260044 
0.943936 -0.177964 2.538964 0.904914 -0.403230 -0.098225 
-0.842810 1.061065 1.374690 0.634399 0.592962 -0.353943 
-0.954954 1.105253 1.652210 -0.955193 -0.214339 -0.196275 
0.523164 0.524932 0.510300 -0.903004 0.243381 0.307444 
-0.643395 -0.344223 1.726352 -0.857138 -0.386244 -0.106045 
-1.154967 1.011950 2.439206 -0.974344 0.052934 -0.142251 
0.312126 0.789875 -0.028315 0.691028 0.530225 -0.416341 
-0.531864 -0.953660 0.474079 -0.761774 0.039341 -0.485389 
1.050315 0.289502 2.959438 0.972759 -0.087731 0.192002 
-0.754779 -0.107020 1.790726 0.957533 0.232365 -0.133842 
-0.375383 0.120972 0.213781 -0.123857 -0.206797 0.864710 
-0.743848 -0.215419 1.026832 0.967360 0.038301 0.109904 
-0.488237 -0.965215 0.401785 -0.735989 -0.008467 -0.536068 
0.356131 -0.046746 0.168700 0.238335 -0.149876 0.899329 
-0.869962 0.698268 1.564303 -0.910091 -0.318144 -0.140417 
-0.754418 0.405494 1.289973 0.928867 -0.041493 0.260992 
-0.391317 -0.841079 0.194208 -0.690132 -0.146221 -0.654581 
0.329860 -0.300511 -0.106923 0.671072 -0.185423 -0.676099 
0.691897 -0.367137 1.748554 0.822485 -0.470623 -0.066812 
-0.940405 0.074849 2.613479 0.964947 0.186114 -0.089147 
0.388401 0.419259 0.264368 -0.622137 -0.071134 0.651396 
0.220947 0.029254 -0.213569 0.527149 -0.100071 -0.833115 
-0.003608 0.510834 -0.302515 -0.400346 0.161025 -0.901199 
-0.761498 -0.097418 0.751565 -0.973034 -0.043705 -0.218380 
0.462153 -0.595313 0.285031 -0.537337 -0.047767 0.730601 
0.211759 1.137565 0.118340 0.843912 0.482881 -0.219822 
0.966417 0.038096 1.998302 0.949593 -0.279419 -0.014380 
0.716348 -0.125819 0.948964 -0.951647 -0.039442 0.275018 
0.580839 0.368135 0.789882 -0.898170 -0.237253 0.350594 
-0.240290 0.437619 -0.211500 -0.524046 0.047162 -0.841624 
0.863015 0.339525 1.657723 -0.949409 -0.093235 0.115983 
-0.616575 -0.489862 0.541310 -0.856256 -0.075785 -0.395554 
0.766914 -0.004883 1.222143 -0.951590 0.010772 0.242208 
-0.467824 0.413341 0.445498 0.862342 0.013975 0.466310 
0.744717 1.097940 1.670978 -0.845825 -0.284933 0.423033 
0.663020 -0.755211 0.678140 0.837832 0.069863 -0.400811 
-0.161273 1.216300 0.156136 -0.742997 0.622233 -0.138699 
0.474262 -0.524181 0.277244 -0.515826 -0.055464 0.738033 
1.030569 0.671114 3.160063 -0.976529 0.056619 -0.180028 
-0.016162 0.894326 0.419032 -0.145815 -0.141984 0.967790 
0.175397 -0.321960 0.223783 0.247468 -0.197499 0.934369 
-0.535444 -0.754623 0.464383 -0.790106 -0.079506 -0.478040 
-0.703951 -0.281848 1.854815 -0.845375 -0.381887 -0.266347 
0.287897 0.920936 0.251621 0.900754 0.220287 0.353677 
-1.173699 0.928180 2.554581 -0.979720 -0.134070 -0.136751 
-0.323194 0.157443 0.246933 -0.423368 -0.188208 0.885363 
-0.864107 0.055423 1.927197 -0.969320 -0.229959 0.000410 
1.027958 0.723937 2.142884 0.977520 0.045095 -0.192052 
-0.554887 0.488304 0.528006 0.895854 0.241984 0.354223 
-0.856450 0.780373 1.622501 0.937663 -0.137696 0.155826 
1.033728 0.396851 3.097795 -0.962679 0.030392 -0.218793 
0.000563 -0.474975 -0.183669 0.126867 -0.680086 -0.716842 
0.678495 0.141141 0.944869 -0.906813 -0.154977 0.342074 
1.102962 0.593288 2.421434 -0.955788 -0.024059 0.234510 
0.162579 0.739606 0.357179 0.244123 0.078149 0.940265 
-0.287988 0.620471 -0.187911 -0.539598 0.213462 -0.802675 
0.820695 -0.173063 1.832209 0.817194 -0.443247 -0.275803 
-0.567868 -0.527046 0.452378 -0.824154 -0.095845 -0.451770 
0.069470 0.286773 0.389699 0.171427 -0.157690 0.961224 
-0.030420 1.282075 0.061390 -0.600532 0.296341 -0.738746 
0.806965 0.020178 1.317585 0.973551 -0.119095 -0.166907 
-0.808453 0.901426 1.178794 -0.542849 0.474209 -0.608713 
0.219157 0.502651 0.350105 0.272811 -0.089921 0.951686 
-0.961364 0.812632 1.920076 0.906331 -0.081605 0.317711 
0.571364 0.428745 0.556945 0.802855 0.540057 -0.193430 
0.775324 -0.512350 0.941477 -0.950503 -0.142376 0.194908 
-0.189738 0.217917 0.346153 -0.340090 -0.165500 0.922179 
0.166758 1.192089 0.107060 0.762532 0.545648 -0.286810 
0.440250 -0.043899 0.167976 -0.453651 -0.179856 0.829601 
-0.186210 -1.061095 0.020207 -0.299041 -0.130066 -0.902404 
-0.368253 0.597456 -0.113478 -0.638273 0.228755 -0.674543 
0.132094 1.100019 0.249967 0.765940 0.111426 0.501977 
-0.839173 0.070285 1.842289 -0.813356 -0.336442 -0.466430 
0.938840 0.276585 3.376342 0.953247 -0.121950 0.270202 
0.522943 0.494044 0.099240 0.912428 0.200954 -0.295990 
0.271529 0.808743 -0.086236 0.602933 0.530231 -0.569234 
-0.868021 0.283655 1.882542 0.816967 0.216654 0.510608 
-0.980904 0.167267 2.374455 -0.932480 -0.303910 -0.146714 
-0.966628 0.668535 1.950877 -0.919145 -0.230578 -0.244739 
0.369838 0.495377 0.303899 -0.878440 0.140756 0.451585 
-0.693170 0.259213 0.793174 0.896428 -0.190478 0.380213 
-1.070743 0.709263 2.412708 0.921763 0.223477 0.226106 
0.040908 1.156253 -0.012407 0.388075 0.389615 -0.823465 
0.809574 -0.183297 1.494806 0.957795 -0.174872 -0.040041 
-0.668503 -0.250909 1.648757 -0.890423 -0.338697 -0.065434 
-0.168973 0.577830 0.386883 -0.314682 -0.056715 0.944066 
-0.265544 -0.542472 0.134713 -0.406039 -0.187032 0.891891 
-0.686508 -0.482571 0.716630 0.881816 -0.034430 0.328837 
0.607261 0.603667 0.881922 -0.981591 0.143975 0.048734 
0.885402 -0.207455 2.225354 0.911337 -0.394974 -0.039576 
0.785163 0.684167 1.484236 0.973952 -0.177490 -0.132636 
-0.089720 0.008304 -0.286118 -0.475245 -0.074266 -0.861943 
-0.830291 -0.119739 2.921155 0.944229 0.310518 -0.069581 
0.694156 0.354528 0.950657 0.985723 -0.059300 -0.110529 
-0.755993 -0.087772 1.244649 0.974540 0.098519 0.119437 
-0.650862 -0.360165 1.801898 0.926557 0.307651 -0.085391 
0.265326 0.078043 0.262742 0.412491 -0.198688 0.881676 
-1.036765 0.905480 2.066761 -0.979183 -0.165686 -0.078317 
0.727355 -0.200187 0.985356 -0.959663 -0.019200 0.223906 
-0.979610 0.401425 2.120714 0.949751 0.159844 0.258049 
-0.021143 -0.951114 -0.059889 -0.349432 0.021728 -0.918550 
-0.950300 0.606666 1.920486 -0.938970 -0.163302 -0.228311 
0.412058 -0.725157 0.238429 0.714802 -0.108613 -0.621590 
1.012412 0.899759 2.199317 0.986556 0.090673 -0.117623 
-0.365275 0.265499 0.243308 -0.138154 -0.202638 0.880120 
0.181616 -0.598403 0.141984 0.262901 -0.256083 0.928688 
0.001931 -0.503182 0.210846 0.222562 -0.183655 0.927679 
-0.984298 0.339032 2.160916 0.954857 0.178838 0.228208 
-0.213078 0.032252 -0.218954 -0.518875 -0.096576 -0.838808 
0.688916 -0.817424 0.720811 -0.783871 -0.165928 0.432440 
-0.767227 0.234009 0.998089 -0.977776 -0.144442 -0.089893 
-0.857671 0.527087 1.706278 0.969368 -0.046780 0.001246 
0.207810 -0.374860 -0.188456 0.465058 -0.257274 -0.837948 
-0.606774 -0.144668 0.392239 -0.911616 -0.062549 -0.364683 
-0.143897 -0.191426 -0.237991 -0.465848 -0.173598 -0.849554 
-1.009352 0.379234 3.130411 0.927511 0.356097 -0.007192 
-0.602617 0.031073 0.326232 -0.900173 -0.033887 -0.396354 
-0.871734 0.770586 1.695037 0.831687 -0.039748 0.492949 
-0.179812 -0.681732 0.123862 -0.093925 -0.219998 0.910857 
0.619564 0.123240 0.716318 -0.917494 -0.226012 0.317422 
-0.739234 0.185607 1.059855 0.939155 -0.036037 0.268111 
-0.814442 -0.115855 3.004081 -0.936420 -0.333929 0.094756 
-0.886388 0.717397 1.744572 0.850965 -0.040521 0.451147 
0.887859 0.695148 1.688610 0.990855 -0.003498 -0.035181 
-0.801396 -0.121195 1.943148 -0.953278 -0.278824 -0.027848 
0.223456 -0.102263 0.260386 0.421987 -0.209552 0.862651 
0.692861 0.626209 1.256312 -0.848184 -0.284768 0.384138 
0.781180 -0.342997 2.169944 0.887278 -0.437844 -0.069981 
-0.571141 -0.439562 1.615418 0.915165 0.340794 -0.181141 
-0.065886 -0.707619 0.133225 -0.232792 -0.294313 0.897074 
0.702829 0.248228 0.943249 0.980900 -0.050908 -0.140194 
0.308943 0.881056 0.179637 0.905634 0.286387 0.128198 
0.782915 -0.442649 1.286460 0.969737 -0.051049 0.092842 
-0.256102 -0.215926 0.220258 -0.473788 -0.208540 0.833119 
0.824670 1.156495 1.834975 0.733968 0.643680 -0.045300 
0.613114 0.352251 0.458897 0.960095 0.105509 -0.203964 
-0.408719 0.195695 -0.086637 -0.722640 -0.056418 -0.655572 
0.978756 0.275264 1.894280 0.985317 0.006276 0.019964 
-0.272840 0.783453 0.306829 -0.627491 0.212261 0.701466 
-0.746994 -0.219470 1.457327 0.967290 0.124532 -0.071017 
0.738536 0.295846 1.274168 -0.905211 -0.100923 0.304286 
0.499144 0.636543 0.459834 0.880280 0.409153 -0.089980 
0.980789 1.015158 2.186206 0.979265 0.139824 -0.127253 
0.377436 -0.365507 0.094068 0.146599 -0.128313 0.879542 
1.068008 0.515679 3.015627 -0.965668 -0.021456 -0.201829 
-0.816738 0.149085 1.720757 0.982927 0.117525 -0.052385 
0.739565 0.680307 1.283508 0.982357 -0.139716 -0.099054 
-0.487367 -0.636029 0.320894 -0.774252 -0.118343 -0.533632 
-0.358756 0.053626 0.199351 -0.246810 -0.177193 0.891085 
-0.203943 0.600962 -0.212675 -0.468689 0.185070 -0.844443 
0.022009 1.262800 0.281774 0.116361 0.770716 0.621198 
-0.588425 0.242139 0.317607 -0.898832 -0.017331 -0.409808 
0.180889 0.708960 -0.197216 0.427558 0.331496 -0.821249 
0.817959 -0.762443 0.936678 -0.903168 -0.223386 0.273530 
0.037356 0.362737 0.407959 0.119262 -0.130633 0.974373 
-0.851925 0.908926 1.622394 0.846931 -0.015578 0.444413 
0.094882 -1.190037 -0.074870 0.523148 0.042819 -0.807149 
0.334449 -0.229091 -0.110655 0.650630 -0.181623 -0.695574 
-1.038722 0.393460 2.700880 -0.968018 -0.221536 0.097744 
0.833782 0.867383 1.629818 0.936247 -0.041432 -0.119515 
-0.502770 -0.000570 0.122991 -0.864719 -0.057371 -0.474934 
-0.206651 -0.745577 0.104453 0.015502 -0.175065 0.881047 
0.039300 0.775409 0.384985 0.098898 -0.151676 0.972113 
-0.132266 -1.095491 -0.048566 -0.492145 0.007786 -0.842725 
1.053591 0.119726 2.468073 0.908238 -0.354010 -0.191934 
-0.063538 -0.446650 0.210697 -0.106811 -0.199302 0.971003 
0.839878 -0.108655 1.783817 -0.934671 0.272778 -0.155102 
-0.873635 -0.202478 2.608089 0.950972 0.298927 0.028430 
0.467324 0.662107 0.237599 0.828250 0.529858 -0.068285 
0.714423 -0.379354 1.995637 0.879742 -0.446180 -0.064206 
-0.123501 1.230040 0.074020 -0.654119 0.546390 -0.481445 
0.244457 0.936771 0.001450 0.733934 0.404643 -0.494079 
0.710940 -0.193561 0.785023 0.959877 0.012119 -0.275544 
1.087932 0.234056 2.708315 0.975761 -0.045767 0.177936 
0.554150 -0.620187 1.923541 -0.841141 0.505688 0.031622 
-1.174820 0.845513 3.027946 -0.966921 -0.250607 0.030527 
1.061376 0.360287 2.960774 -0.977152 0.103584 -0.113808 
0.880276 -0.016903 1.891393 -0.886064 0.312780 0.260638 
-0.176273 1.184702 0.266744 -0.813369 -0.172227 0.404101 
-0.804169 0.280869 1.529230 -0.962403 -0.249966 -0.060584 
1.112196 0.704551 2.971001 0.983158 -0.006905 0.173495 
-0.596820 -0.440475 0.480600 -0.857625 -0.087101 -0.407628 
0.714460 -0.418665 1.451533 -0.926471 0.206416 -0.117499 
0.285595 -0.268577 -0.158039 0.528968 -0.211984 -0.814681 
0.801248 -0.127056 1.632671 -0.940996 0.234800 -0.012634 
-0.730301 -0.084610 1.619721 0.964239 0.217802 -0.013464 
1.072591 0.349082 2.886586 -0.971938 0.140984 -0.064208 
0.780477 -0.455307 1.366519 -0.969006 0.056011 -0.115202 
0.661067 0.198735 0.728569 0.981448 -0.023925 -0.179512 
-0.744734 0.046221 1.029727 0.954403 0.000315 0.236001 
0.412857 -0.465477 0.031334 -0.252861 -0.069478 0.963053 
-1.094500 0.771160 2.569518 0.939086 0.202186 0.133428 
0.323618 -0.722373 0.087018 -0.061622 -0.092303 0.913087 
0.799981 -0.340125 2.237876 0.887304 -0.440074 -0.081412 
0.933870 -0.015675 1.942746 0.945291 -0.309453 0.037479 
0.733809 -0.350073 1.471612 -0.932975 0.201156 -0.071173 
-0.788080 0.593251 1.137001 -0.969675 -0.229038 -0.019093 
0.288185 -0.356242 -0.146980 0.542399 -0.234351 -0.792375 
-0.141264 -0.971195 -0.029392 -0.265740 -0.058385 -0.941641 
-0.495010 0.290548 0.028829 -0.849287 -0.008697 -0.518896 
-0.480345 -0.063697 0.095550 -0.859910 -0.072024 -0.483598 
0.166834 -0.439160 -0.177064 0.351994 -0.355053 -0.847538 
-0.555716 0.197111 0.197231 -0.877765 -0.019163 -0.453251 
-0.898823 -0.124352 2.584538 -0.935807 -0.335689 -0.043844 
1.117435 0.591414 2.490240 0.982943 0.119515 -0.022596 
-0.052233 0.767963 0.381064 -0.100659 -0.121550 0.976045 
-0.951665 0.225744 3.018209 -0.948196 -0.294078 0.094750 
-1.155265 0.760258 2.780172 -0.965714 -0.242677 -0.027324 
0.212901 -0.289666 -0.198526 0.494707 -0.201786 -0.835811 
0.720014 0.706893 1.208238 0.985417 -0.126425 -0.085971 
0.196995 1.163610 0.188890 0.841161 0.516410 -0.058866 
-0.533151 -1.033449 0.365853 0.662506 -0.331271 0.567656 
-0.674887 -0.298678 1.771198 -0.849861 -0.383842 -0.177367 
1.081301 0.201308 2.576754 -0.975003 0.087910 -0.114422 
0.734488 1.297293 1.588521 0.830299 0.242901 -0.238380 
-0.025005 1.362125 0.066925 -0.590779 0.440914 -0.614539 
0.723612 0.192563 1.156945 -0.913852 -0.097860 0.306086 
-1.085989 0.945340 2.207614 -0.974924 -0.172656 -0.112208 
