-0.356492 -0.186686 0.321634 -0.696782 -0.229337 0.673849 
-0.513724 1.728602 0.764124 0.771294 -0.492239 -0.369714 
0.329857 0.720146 0.154185 0.786971 0.439831 -0.368525 
1.363639 1.627916 0.221851 0.460198 -0.296734 0.817454 
0.551746 0.062198 0.029566 0.028199 0.109588 -0.868459 
1.133831 2.252576 0.932452 -0.302635 0.729948 -0.611888 
-0.350288 2.821306 -0.415082 0.821018 -0.323282 -0.463176 
-0.125091 -0.154950 -0.068805 -0.533876 -0.084991 -0.826600 
1.010005 0.287498 -0.215579 -0.586514 0.135442 -0.763615 
-0.824522 1.468014 0.191016 0.727365 -0.027998 -0.629297 
-0.624510 0.041221 -0.101099 0.313246 0.117118 -0.761737 
-0.175430 2.852381 -0.196957 0.764212 -0.401595 -0.502468 
0.835101 -0.208566 -0.176268 -0.443321 0.037613 -0.857952 
-1.025236 2.216861 -0.855786 0.699807 -0.524825 -0.477571 
-0.608350 2.677512 -0.688106 -0.784641 0.400084 0.461313 
1.196032 0.589420 -0.307309 0.721585 -0.148536 0.668216 
0.171111 1.204154 0.367489 0.731260 0.638671 -0.130013 
-0.173609 1.195900 0.350591 -0.774708 0.587361 -0.152678 
-1.111931 1.938520 -0.635171 0.572901 -0.666562 -0.438456 
-0.186036 0.536028 0.580860 -0.252398 -0.113055 0.956403 
-0.667505 0.268882 0.021588 -0.812470 -0.265091 0.507193 
-0.623334 0.305202 0.124190 -0.800963 -0.313365 0.498991 
1.518624 1.534521 0.062431 -0.250289 0.580147 -0.766997 
0.002610 0.070242 0.509782 0.079476 -0.257146 0.962882 
-1.360064 0.952392 -0.847621 0.826886 0.325816 -0.443501 
1.711484 1.967712 0.407991 -0.197721 0.609594 -0.752348 
-1.243237 1.895488 -0.760496 -0.758136 0.419826 0.469795 
-0.591178 0.064015 0.028830 -0.814459 -0.215247 0.528067 
1.618264 1.529541 0.033847 -0.139596 0.746177 -0.636664 
0.939635 0.660090 -0.050238 -0.610294 0.275138 -0.734419 
0.629029 -0.198501 -0.013899 -0.230513 0.080920 -0.854156 
-0.180722 0.091289 -0.049840 -0.619825 -0.014027 -0.772990 
1.505575 1.064953 -0.582253 -0.570394 0.325019 -0.720598 
0.728383 0.716711 0.125536 -0.520286 0.372181 -0.747078 
0.056201 0.242441 0.554552 0.109098 -0.225105 0.963618 
-0.518630 0.255971 -0.010189 0.065891 0.169778 -0.835463 
1.264390 0.496214 -0.445384 -0.595242 0.066570 -0.771031 
0.804749 0.581779 0.012733 -0.436169 0.284778 -0.783770 
0.953833 0.480830 -0.064377 0.732860 -0.232017 0.635760 
-0.978123 0.349624 -0.441973 -0.806628 -0.222637 0.504423 
0.236693 1.083808 0.301614 0.866260 0.437229 -0.233435 
-0.266474 -0.381217 0.060733 -0.454933 -0.065759 -0.866143 
1.027042 1.748311 0.488724 -0.264613 0.743851 -0.573246 
1.787766 2.117882 0.575082 -0.164012 0.554943 -0.794236 
0.601001 0.405036 0.330363 0.670404 -0.293933 0.649510 
-1.097335 0.250005 -0.624317 0.703888 0.163882 -0.569141 
0.191822 1.135794 0.429049 0.579879 0.015877 0.676877 
-0.543481 1.662553 0.734108 0.880491 -0.105289 -0.092906 
-1.063665 1.489249 -0.211392 0.783519 -0.174388 -0.555953 
-0.326828 -0.448176 0.113275 -0.156162 0.020593 -0.951053 
1.510357 1.641612 0.157181 -0.113618 0.791881 -0.595457 
0.407818 0.349887 0.464485 0.430930 -0.188407 0.873807 
-0.400820 0.015524 0.070436 -0.127069 0.116357 -0.906931 
-0.709973 0.409681 -0.154171 0.400044 0.195596 -0.710998 
0.573268 -0.062456 0.012530 -0.020473 0.083553 -0.854649 
-0.922288 -0.211523 -0.412297 -0.601569 0.006343 0.693205 
0.614838 0.497861 0.386555 0.556141 -0.178251 0.762506 
1.436896 1.222200 -0.175348 -0.001644 -0.776499 0.544713 
2.231811 2.162965 0.562238 0.102293 -0.773343 0.624059 
0.384637 1.464661 0.647150 -0.815468 -0.020385 -0.453071 
-0.465507 -0.006809 0.209072 -0.792130 -0.262246 0.533921 
-0.959302 1.985118 -0.440590 -0.402962 0.835969 0.323205 
-0.627876 1.005388 0.311918 0.768261 0.246146 -0.549326 
1.854159 1.391184 -0.141161 0.166275 -0.689027 0.675126 
1.083329 0.902067 -0.104455 -0.574626 0.344474 -0.712021 
-0.847067 1.856681 -0.092674 -0.881446 0.273613 0.379621 
-0.509694 1.976762 0.474198 -0.717963 0.611534 0.314654 
-0.248794 2.259979 0.397472 0.782164 -0.521009 -0.340439 
-0.108750 2.513071 0.281329 0.865672 -0.463992 -0.180865 
-0.667492 2.004289 0.026622 -0.645028 0.678628 0.317928 
0.654553 -0.362001 -0.027543 -0.393821 0.071397 -0.862080 
-1.240648 1.964548 -0.849715 -0.727433 0.483233 0.458376 
-0.410457 -1.391678 0.054409 0.459098 -0.805030 0.064259 
-0.158934 -0.769597 0.082300 0.119944 -0.191146 -0.964346 
-0.319253 2.192155 0.367421 0.762003 -0.473033 -0.428418 
-0.882521 0.399602 -0.289049 0.750204 0.194005 -0.601370 
0.357138 0.593670 0.172106 0.599454 0.405183 -0.664653 
0.368008 0.059527 0.120340 0.273114 0.116405 -0.942205 
-0.340637 0.474280 0.167747 -0.545170 0.291080 -0.723522 
-1.161867 1.158832 -0.417363 0.796967 0.030517 -0.557335 
-0.609717 -0.300355 -0.084639 0.477727 0.075831 -0.785410 
-0.026918 -0.504252 0.008351 -0.119357 -0.556743 -0.821367 
-0.087798 -0.596236 0.326474 -0.176142 -0.305259 0.929727 
-0.850731 0.724096 -0.062314 -0.890237 -0.145419 0.404723 
-1.198464 1.232823 -0.421556 -0.821648 -0.001648 0.518584 
-0.155753 2.686126 -0.010539 -0.780996 0.450648 0.414351 
0.333336 -0.572728 0.217930 0.632224 -0.206657 0.742343 
-0.349087 0.120143 0.117408 -0.230223 0.146996 -0.945760 
-1.007012 0.736051 -0.326683 -0.838792 -0.151716 0.496793 
0.153508 0.842360 0.578432 0.338490 -0.150283 0.911934 
1.388399 2.431838 1.067821 0.088382 -0.507038 0.840946 
0.201708 1.148754 0.314908 0.836809 0.493248 -0.216461 
-1.385453 1.380739 -0.602610 -0.813742 -0.027698 0.535572 
0.755506 0.519046 0.168727 0.745679 -0.239788 0.610047 
-1.131522 0.788831 -0.456086 -0.835862 -0.205621 0.507683 
-0.473122 2.328102 -0.154971 0.589979 -0.640274 -0.477363 
-0.254612 -0.017987 0.004341 -0.653316 -0.054185 -0.746214 
-0.891966 0.318610 -0.289809 -0.811379 -0.184530 0.530475 
0.066710 1.328360 0.369434 0.618022 0.682045 0.376806 
-0.190250 0.605831 -0.016320 -0.565386 0.168349 -0.772701 
-0.233963 0.963908 0.205291 -0.718383 0.387795 -0.523390 
0.386468 -0.822381 0.130216 0.535225 -0.128617 0.823977 
-1.137366 1.218035 -0.375954 0.796040 -0.018669 -0.555305 
-0.250169 3.211281 -0.520654 -0.801784 0.315146 0.504812 
-1.005348 1.311275 -0.135744 -0.848364 0.124014 0.459752 
0.396223 1.565369 0.671915 -0.281270 0.459684 -0.839072 
-0.507648 2.660227 -0.520745 -0.830839 0.345227 0.426036 
-0.335694 2.477947 -0.086616 -0.665635 0.583951 0.448490 
-0.101946 0.042826 0.494298 -0.182679 -0.249036 0.947723 
-0.020903 0.634096 0.589311 -0.020176 0.174909 0.973250 
-0.685817 1.190011 0.312152 0.688679 0.211621 -0.654554 
-0.205175 0.702232 0.559622 -0.316395 0.253276 0.890869 
-0.484549 1.700169 0.960466 -0.704567 -0.475110 0.509046 
0.283389 0.805114 0.482912 0.692743 0.262123 0.587518 
-0.594426 1.096006 0.406749 0.941101 -0.007687 -0.222623 
1.830570 2.081276 0.522126 -0.161251 0.586164 -0.771706 
-0.027627 -1.177681 0.182071 -0.519302 -0.373574 0.714378 
0.221956 -0.808372 0.214211 0.227563 -0.264299 0.931573 
-0.850512 1.950627 -0.199468 -0.539839 0.715411 0.326403 
-0.270822 0.950622 0.273023 -0.832144 0.360462 -0.314262 
0.095906 -0.095757 -0.089443 0.506550 -0.080467 -0.841329 
-0.148894 3.200336 -0.351810 -0.833939 0.291654 0.459120 
-0.017916 -0.568083 0.349703 -0.258092 -0.245984 0.918977 
0.271846 -0.493205 0.027562 0.420924 -0.116944 -0.839583 
-0.673049 2.055447 -0.074757 -0.638920 0.671239 0.359882 
1.242229 0.624057 -0.353976 0.718187 -0.134081 0.674707 
-0.627130 1.911280 0.231153 0.729099 -0.404530 -0.481309 
0.646872 0.352700 0.000776 -0.099901 0.175751 -0.853748 
1.684224 1.910396 0.353864 -0.216429 0.667626 -0.702954 
-0.301151 0.081026 0.064012 -0.464379 0.047493 -0.841857 
0.404445 -0.444432 0.140357 0.681506 -0.171819 0.705855 
-0.040541 -0.402257 0.389964 -0.019048 -0.129981 0.990273 
2.007765 2.068790 0.479230 -0.135884 0.671794 -0.706526 
1.292648 1.171878 -0.290969 -0.480124 0.483371 -0.720998 
0.874164 0.860346 0.118605 0.768532 -0.106313 0.591845 
-0.740283 1.170086 0.207937 0.698501 0.200756 -0.635216 
-0.485563 -1.390145 0.056480 -0.701642 -0.455928 0.354997 
2.143283 2.140596 0.549380 0.115082 -0.738937 0.653969 
0.070458 0.502559 -0.083696 0.508314 0.172413 -0.832939 
-1.329090 1.663594 -0.581460 0.749231 -0.367031 -0.525918 
-0.505543 -0.449960 -0.010015 0.300634 0.044543 -0.850687 
0.620452 -0.516443 -0.012482 0.611239 -0.086911 0.774079 
-0.693010 0.813162 0.139938 0.673613 0.375318 -0.634794 
1.100615 -0.002632 -0.340954 -0.515612 -0.018584 -0.832162 
1.011354 0.697509 -0.063369 0.756467 -0.162654 0.617028 
-0.538834 -0.285187 -0.007878 -0.781744 -0.120228 0.595607 
0.863177 0.313202 -0.108351 -0.393952 0.158854 -0.764902 
-0.210482 -0.074716 -0.022710 -0.615546 -0.056772 -0.776223 
1.300697 0.376904 -0.470747 -0.587828 0.010331 -0.787292 
-0.783251 2.439726 -0.767567 -0.724190 0.502694 0.469980 
0.809783 0.771770 0.163822 0.804833 -0.081406 0.578179 
-0.396833 -0.277212 0.163339 -0.778986 -0.163849 0.597036 
2.029339 2.361063 0.833835 0.111816 -0.783616 0.608891 
0.634612 1.064053 0.406533 0.828327 -0.011473 0.535021 
0.316827 1.682274 0.792751 -0.641930 0.388218 -0.582471 
-1.411875 1.177228 -0.676542 -0.820799 -0.174756 0.537778 
0.132265 0.036434 -0.081664 0.557840 -0.020497 -0.821231 
1.724668 2.524209 1.112012 0.055597 -0.614572 0.750632 
0.030026 -0.868866 0.113145 0.278003 -0.202852 -0.934313 
-0.650247 1.713275 0.485888 0.636704 -0.240505 -0.628923 
0.293013 -0.896505 0.151862 0.302938 -0.188339 0.911300 
-0.636740 1.549012 0.688352 -0.771756 -0.181330 0.607501 
0.541959 1.655783 0.628772 -0.197903 0.796504 -0.565018 
1.868889 2.361702 0.859530 0.140847 -0.786103 0.595494 
1.317910 0.660852 -0.438473 0.708059 -0.103450 0.690828 
1.948532 1.664821 0.059163 0.210207 -0.664004 0.711522 
1.742074 2.484892 1.032758 -0.113054 0.783425 -0.609523 
0.674900 1.757200 0.721694 0.628888 -0.549254 0.481745 
-0.636796 2.295321 -0.370141 -0.722038 0.537092 0.426270 
1.675104 1.426444 -0.063630 -0.217772 0.570627 -0.763171 
0.455197 -0.390053 0.059097 0.015786 0.038537 -0.905257 
-0.888184 0.712742 -0.196263 0.772002 0.217411 -0.580427 
0.409685 -0.343343 0.157428 0.707458 -0.181185 0.682033 
0.482321 0.557537 0.491666 0.028544 -0.280403 0.888978 
-0.402666 2.795822 -0.474317 0.824752 -0.320599 -0.458935 
-0.105238 -1.190258 0.168093 0.041493 -0.231250 -0.958675 
0.682169 0.880686 0.353446 0.612716 -0.180970 0.743482 
0.853871 1.561790 0.362284 -0.367993 0.484048 -0.787875 
1.039962 1.951238 0.684826 -0.228142 0.516553 -0.812562 
-0.600153 0.466735 0.334244 -0.697909 -0.279807 0.595173 
0.206065 1.115410 0.651101 0.709482 0.379206 -0.564205 
0.510729 1.685184 0.746114 0.712572 -0.508071 0.434848 
1.301999 1.979149 0.560729 -0.289214 0.579895 -0.751161 
0.145333 1.709621 0.945418 -0.531202 0.594837 -0.503668 
1.207747 1.449185 0.058126 0.302553 -0.668440 0.620681 
-0.841502 2.179245 -0.526470 -0.511342 0.716430 0.374195 
0.134991 -0.971613 0.179530 0.160820 -0.169155 0.968566 
-0.702211 2.001769 -0.035723 -0.611451 0.705925 0.344566 
0.552700 0.820364 0.409660 -0.792084 0.087586 -0.599515 
1.812344 2.502084 1.062732 0.156916 -0.859244 0.474982 
0.215003 0.929688 0.549765 0.634868 -0.051840 0.741327 
-0.564787 1.009261 0.497924 0.929716 0.068654 -0.311882 
0.721637 1.138158 0.341912 0.754957 -0.120213 0.564561 
0.226762 1.656286 0.905222 0.136740 -0.774588 0.571532 
0.295481 -1.156343 0.097249 -0.454100 -0.106883 -0.863176 
-0.051049 -0.827293 0.253439 -0.307734 -0.203474 0.919461 
0.445929 0.172991 0.375840 0.608273 -0.292956 0.730241 
0.816237 0.363593 0.038355 0.722015 -0.253388 0.637908 
-1.336087 1.348649 -0.548843 -0.816555 -0.028552 0.532230 
1.423798 2.340902 0.924603 -0.203663 0.751838 -0.623123 
0.367959 -0.175478 0.105566 0.274237 0.059759 -0.923148 
0.570974 1.742417 0.772115 0.658936 -0.540653 0.462724 
-0.980905 1.087067 -0.170433 -0.851243 0.022236 0.462051 
-0.374382 2.007072 0.630054 0.898414 -0.340922 0.097478 
0.819246 0.856833 0.171736 0.798858 -0.055692 0.576474 
-0.734453 0.820421 0.232534 -0.877202 -0.197800 0.398425 
0.044975 -0.427672 -0.049397 0.299427 -0.349526 -0.885676 
1.168320 0.651575 -0.279757 -0.683073 0.189016 -0.702182 
0.835094 1.408871 0.294541 0.611914 -0.404512 0.603479 
-1.066359 1.845390 -0.444855 0.574764 -0.632476 -0.447243 
-1.012292 1.214288 -0.223621 0.783010 -0.045260 -0.561710 
1.292095 1.903725 0.509786 0.329862 -0.663480 0.669810 
0.535391 -0.024582 0.163672 0.710088 -0.239009 0.655138 
-0.635547 0.620756 0.068616 0.471829 0.435541 -0.657382 
-0.687349 0.703746 0.090903 0.773589 0.387673 -0.372359 
0.963103 1.343768 0.162609 0.551379 -0.421925 0.646525 
-0.833177 1.794987 -0.024038 0.548713 -0.620844 -0.431063 
-1.118321 2.038314 -0.763462 -0.533929 0.709854 0.385428 
-0.144556 3.270546 -0.386271 0.801249 -0.297841 -0.515182 
-0.746520 1.419022 0.306242 0.710074 0.037545 -0.651334 
-1.252980 1.154009 -0.502516 -0.823367 -0.081961 0.522947 
-1.056855 1.060359 -0.329589 0.795533 0.018398 -0.556239 
-0.315944 0.877179 0.304379 -0.923012 0.345197 -0.163339 
0.846606 1.795037 0.658888 0.535420 -0.582059 0.551231 
-0.088756 -0.541975 0.029192 -0.087438 -0.334297 -0.934282 
-0.411618 0.123871 0.067795 -0.116945 0.143465 -0.903437 
-0.662753 2.129342 -0.230565 0.762926 -0.473204 -0.416134 
-0.664826 -0.555961 -0.182605 0.490083 0.017051 -0.803788 
1.267044 1.298660 -0.095968 -0.231512 0.634505 -0.663841 
-1.081333 0.476670 -0.586455 -0.815687 -0.268365 0.465447 
0.684982 1.893004 0.817741 -0.214229 0.762386 -0.604102 
0.100035 -0.511740 0.355042 0.115847 -0.271287 0.951331 
0.056525 1.288037 0.427143 0.294356 0.774709 0.540954 
-0.850352 1.877720 -0.182783 0.476375 -0.778618 -0.377752 
-0.650882 1.244341 0.522882 -0.651486 -0.282334 0.639673 
-0.351411 0.478181 0.507716 -0.377019 -0.165906 0.903264 
-0.616149 0.769455 0.321000 0.902631 0.198170 -0.335689 
-0.673386 1.158129 0.446843 -0.858794 -0.126302 0.446276 
-0.510231 -0.677365 -0.010375 -0.698500 -0.036982 0.700313 
0.353634 -1.318917 0.068208 -0.597383 -0.544534 -0.435677 
-0.091104 -0.613838 0.057275 -0.014854 -0.268826 -0.957438 
-0.994013 0.965145 -0.280885 0.791921 0.046513 -0.559284 
1.828768 1.449991 -0.083877 0.297078 -0.516905 0.770179 
0.816486 -0.277785 -0.177612 -0.421691 0.020438 -0.872625 
0.550358 0.178688 0.260458 0.698204 -0.310903 0.638465 
-0.663253 1.618326 0.539654 0.702079 -0.054702 -0.693218 
0.319940 -0.660621 0.222845 0.588978 -0.204656 0.773604 
-0.607363 -0.013261 -0.048495 -0.823390 -0.166141 0.539710 
0.957884 0.831755 -0.014386 -0.583913 0.302893 -0.732980 
-0.421187 2.214731 0.112814 0.615234 -0.635051 -0.455252 
0.264466 -0.081314 0.009268 0.614238 -0.077312 -0.779536 
-1.172505 0.775780 -0.591052 -0.842552 -0.269200 0.453483 
1.233882 1.305110 -0.165498 -0.435967 0.530532 -0.724484 
0.327678 0.837514 0.309560 0.914597 0.336802 -0.129896 
-0.421369 3.042783 -0.682721 -0.781052 0.357294 0.510979 
-0.149976 0.809023 0.051120 -0.517321 0.431103 -0.717342 
-0.938989 1.109081 -0.086772 -0.868238 0.032517 0.431665 
1.126342 0.881803 -0.160718 -0.583433 0.341169 -0.707913 
1.162828 1.651794 0.306544 -0.177813 0.853904 -0.478033 
0.223717 0.540118 -0.009202 0.595501 0.126736 -0.766358 
-0.672380 2.711808 -0.812899 -0.753546 0.434325 0.488321 
1.805016 1.523810 -0.014743 0.299126 -0.515127 0.765053 
1.253400 1.243510 -0.213019 -0.456570 0.507699 -0.722729 
-0.395276 2.176149 0.367430 -0.680271 0.631112 0.301479 
0.875148 1.995559 0.812461 -0.247699 0.751697 -0.603741 
-0.667072 0.475871 0.145907 -0.833705 -0.305234 0.444266 
1.888942 2.407112 0.915202 0.141048 -0.824125 0.535182 
-0.384850 0.449768 0.221037 -0.351024 0.402758 -0.770522 
-0.875544 1.785856 -0.083459 0.567265 -0.612637 -0.428520 
-0.222447 2.800554 -0.224660 0.760382 -0.416652 -0.495720 
0.386170 -0.258031 0.091353 0.250334 0.039120 -0.909115 
1.238291 0.345852 -0.440226 -0.565573 0.027036 -0.794996 
-0.879227 1.602502 0.154142 0.743656 -0.138521 -0.621148 
-0.577577 1.968474 0.243029 0.684034 -0.511536 -0.459468 
2.164819 2.294745 0.732623 -0.085208 0.791122 -0.604222 
0.920375 2.071690 0.865278 -0.258713 0.739995 -0.615539 
1.112174 0.585121 -0.235901 -0.673213 0.195821 -0.706295 
0.070705 0.176926 -0.128324 0.539401 0.026603 -0.835882 
-1.138683 1.965466 -0.697398 -0.768795 0.408395 0.456200 
-0.654807 1.571457 0.615850 -0.961150 0.156366 0.195887 
0.548094 0.362617 0.367214 0.621239 -0.316281 0.690434 
1.026854 0.441737 -0.183529 -0.641731 0.188703 -0.724504 
1.221478 0.718774 -0.300406 0.713542 -0.212567 0.654384 
-0.553995 2.769072 -0.681840 0.678217 -0.476921 -0.527048 
-1.193316 1.889148 -0.676768 -0.781509 0.376763 0.469847 
1.463419 2.125014 0.669368 0.235343 -0.574560 0.777647 
-0.562362 2.637205 -0.586113 -0.808133 0.375920 0.438836 
1.607511 2.029097 0.516171 0.203067 -0.796631 0.551318 
-0.766275 0.351459 -0.202230 0.507434 0.176569 -0.670710 
-0.386855 2.107046 0.381015 0.778854 -0.443194 -0.427864 
-0.044902 -0.157133 -0.101207 -0.443782 -0.150915 -0.857478 
-0.372552 -0.225139 0.079714 -0.157334 0.056451 -0.917598 
0.460842 1.167733 0.569812 -0.865453 -0.170491 -0.280367 
0.228640 0.346847 -0.019753 0.619160 0.051378 -0.773043 
-0.341581 0.327548 0.485125 -0.433506 -0.213755 0.857051 
1.309940 2.199088 0.855108 0.281749 -0.695058 0.626859 
0.307876 -0.081173 0.065063 0.423642 0.000448 -0.874728 
0.997658 2.101477 0.847306 -0.269687 0.727173 -0.626948 
1.305563 1.266030 -0.146103 0.238865 -0.642010 0.641996 
0.668750 0.578225 0.321984 0.413274 -0.097017 0.879305 
-0.991297 1.061261 -0.242837 0.785245 0.019825 -0.562860 
0.669315 1.216611 0.406819 0.765588 -0.155539 0.547088 
0.306687 0.445699 0.041691 0.626307 0.093445 -0.747844 
-0.160886 2.536890 0.168197 -0.735594 0.547894 0.391724 
0.507214 1.827078 0.890787 0.106528 -0.345011 0.881908 
-0.669287 1.747182 0.379685 0.592298 -0.367277 -0.569141 
0.485782 1.183244 0.472027 -0.799180 0.046509 -0.593382 
-0.733260 2.391746 -0.642941 0.702623 -0.519028 -0.480217 
-0.716588 1.029202 0.287857 -0.952575 -0.002350 0.287052 
-0.816435 0.643501 -0.027071 -0.893646 -0.208443 0.392868 
0.715095 1.039645 0.326871 0.786048 -0.037105 0.561914 
0.384868 -0.743798 0.148229 0.586062 -0.139404 0.789666 
0.002518 -0.803156 0.085611 0.644654 -0.166801 -0.728859 
-0.281714 0.819568 0.479399 -0.726609 0.246962 0.559951 
1.434305 2.394496 0.984941 -0.188522 0.758045 -0.619666 
-0.504554 0.123765 0.222751 -0.792831 -0.304202 0.513485 
-0.816565 1.060373 0.117779 -0.914522 0.011170 0.352461 
1.135769 0.721884 -0.227537 -0.637924 0.276353 -0.702587 
-0.063986 0.892108 0.608120 -0.207355 -0.111193 0.961802 
-0.575582 0.926882 0.454589 -0.777371 -0.229196 0.580294 
-0.019119 0.333146 -0.151700 -0.526615 0.094033 -0.839604 
-0.684506 1.408297 0.496165 -0.955336 0.111604 0.230995 
0.059851 0.803477 0.008856 0.439271 0.381542 -0.798042 
-0.444538 0.311930 0.051918 -0.073620 0.189500 -0.887749 
2.082868 2.331078 0.790505 0.102242 -0.755611 0.635962 
-0.379804 0.400316 0.487111 -0.408348 -0.202438 0.883709 
0.739002 0.000889 -0.058886 -0.334442 0.114159 -0.815532 
0.595924 1.223200 0.415330 -0.409849 0.399425 -0.809351 
0.322871 -1.011001 0.084825 -0.267821 -0.053392 -0.957735 
1.196462 1.228108 -0.140144 -0.463227 0.493687 -0.721136 
2.000428 2.496036 1.024129 -0.087169 0.800579 -0.590621 
-1.000796 1.590079 -0.064399 0.766914 -0.183435 -0.580324 
-0.691793 0.978075 0.346396 -0.859483 -0.155306 0.435185 
-0.688290 1.334804 0.460206 -0.955734 0.089483 0.240203 
-0.768330 1.261953 0.281821 -0.932142 0.083129 0.301856 
1.681563 2.143325 0.611880 -0.150622 0.792793 -0.572322 
-0.412526 2.681702 -0.395202 -0.620033 0.542799 0.546385 
0.039215 0.921944 0.057382 0.418332 0.481351 -0.754789 
-0.709508 1.830089 0.326260 -0.741427 0.566972 0.316913 
-0.084915 -0.345135 -0.059115 -0.430935 -0.228839 -0.853706 
0.786449 -0.630667 -0.133495 -0.402121 -0.073438 -0.904930 
0.036611 0.075555 -0.136742 0.493334 -0.024247 -0.853472 
1.752360 1.846914 0.277767 0.242473 -0.653449 0.697487 
-0.174739 2.923881 -0.246754 0.769600 -0.382296 -0.509414 
0.762845 1.018456 0.273718 0.768678 -0.071213 0.573411 
-0.565753 0.712059 0.383745 0.725583 0.406985 -0.391049 
-0.935866 0.386519 -0.345431 -0.817508 -0.203992 0.512698 
-0.156431 -0.928036 0.104769 0.130968 -0.191823 -0.964445 
-1.091641 1.613486 -0.184963 -0.822892 0.258638 0.492875 
-0.528642 2.048086 0.203817 0.640390 -0.548692 -0.482189 
-0.637766 -0.179281 -0.106211 0.477582 0.093548 -0.764201 
0.759521 1.794964 0.689891 -0.161665 0.577488 -0.773124 
-0.455339 2.005746 0.424912 0.793530 -0.411964 -0.432390 
-1.144553 0.460521 -0.703374 -0.797464 -0.282031 0.458449 
0.340072 0.084749 0.424503 0.506457 -0.266888 0.803340 
-0.053609 1.325634 0.274814 -0.625338 0.544828 -0.490679 
0.458254 -0.249649 0.130968 0.714935 -0.188914 0.670092 
-0.416553 2.924472 -0.589228 0.800199 -0.337131 -0.490858 
0.756832 1.882360 0.826418 0.492273 -0.537512 0.639337 
1.103626 0.090894 -0.352925 -0.516970 0.007718 -0.825161 
-1.295684 0.891564 -0.758281 -0.842098 -0.305623 0.427679 
0.884126 1.306767 0.191808 -0.411392 0.479936 -0.764537 
-0.411824 0.088778 0.342486 -0.683100 -0.260420 0.668785 
1.212360 1.704431 0.375326 0.410960 -0.499136 0.747889 
-1.101336 0.602022 -0.596563 0.784773 0.283099 -0.504037 
0.871324 0.648391 0.005781 -0.561167 0.315482 -0.755168 
-0.020553 0.795672 0.590806 -0.104964 -0.224708 0.963176 
-0.037220 0.700938 -0.046791 -0.344720 0.316788 -0.867475 
-0.921597 -0.045326 -0.452745 0.619935 0.129434 -0.655916 
-0.848623 0.043867 -0.322224 -0.771247 -0.165133 0.565974 
2.223817 2.100660 0.486953 0.110858 -0.772551 0.623667 
-0.204995 1.143862 0.314267 -0.840125 0.487441 -0.217372 
0.522595 -1.036607 0.014617 0.627000 0.179122 0.717144 
0.848670 -0.403090 -0.185881 0.532187 0.007653 0.831362 
0.956107 -0.076041 -0.270109 -0.464075 0.019654 -0.850110 
0.557420 1.091871 0.405868 -0.586327 0.247654 -0.739791 
-1.255822 1.567523 -0.436065 0.790326 -0.197727 -0.547383 
-0.549941 1.898151 0.475005 -0.782872 0.580023 0.077343 
-1.241113 1.276223 -0.472629 0.797738 0.015360 -0.557232 
0.896755 1.730041 0.544427 -0.208554 0.712254 -0.619242 
1.716638 2.090509 0.551236 -0.177441 0.530729 -0.813858 
0.400384 -0.027346 0.327470 0.615489 -0.241933 0.744087 
-1.006044 1.874534 -0.369504 -0.841958 0.261298 0.470444 
1.190219 0.947855 -0.200549 0.602392 -0.366269 0.674251 
-0.775460 0.843537 0.033631 0.726770 0.278404 -0.614765 
0.270590 -0.411364 0.052195 0.461375 -0.085736 -0.856414 
-1.127056 1.654480 -0.235116 -0.810871 0.278637 0.513576 
0.595726 -0.681132 -0.031747 0.578154 -0.050558 0.809579 
-0.641420 1.133237 0.365057 0.677635 0.267552 -0.664989 
0.264518 1.014383 0.336415 0.895828 0.388211 -0.110242 
0.135892 0.262098 -0.090704 0.580289 0.033106 -0.807356 
1.776323 1.212162 -0.268668 -0.004665 0.728488 -0.629648 
-0.217752 -0.507663 0.054091 -0.077472 -0.251056 -0.900501 
0.346163 0.646061 0.125446 0.753461 0.254272 -0.536069 
-0.317146 -0.245384 0.122741 -0.256219 0.055219 -0.954498 
0.725916 1.974236 0.883841 -0.227992 0.766470 -0.594855 
1.234570 0.908965 -0.299948 -0.571502 0.366929 -0.710868 
1.329442 2.168532 0.784136 0.285778 -0.662155 0.673627 
0.986114 1.524929 0.279107 0.369847 -0.685362 0.495538 
-0.601343 0.159823 0.071408 -0.808594 -0.256006 0.516314 
-0.878254 0.784914 -0.090937 -0.882301 -0.114471 0.417706 
-0.797434 2.182572 -0.466615 -0.544636 0.693004 0.380672 
0.132503 0.238077 0.549303 0.195807 -0.216070 0.953258 
0.305817 0.907151 0.333851 0.926518 0.338209 -0.079444 
1.349903 2.057355 0.646829 0.293838 -0.747618 0.581368 
0.370479 -0.672794 0.091781 0.010164 0.002320 -0.945408 
0.362227 1.550513 0.743264 -0.881948 -0.348511 0.012826 
-1.180581 1.519575 -0.331103 -0.813265 0.170438 0.519335 
1.476942 2.257988 0.810867 0.224828 -0.708681 0.659227 
-0.024102 0.292056 0.571929 -0.073268 -0.213599 0.971074 
1.781639 1.925533 0.341957 -0.190279 0.648468 -0.725070 
-0.332896 -0.399909 0.268191 -0.727497 -0.208658 0.649131 
-0.920138 1.753605 -0.026169 -0.867315 0.264073 0.398781 
0.292314 0.150673 0.461739 0.417534 -0.258792 0.850024 
-0.455771 2.009981 0.524013 -0.654046 0.687520 0.251126 
0.395115 0.333294 0.157537 0.284941 0.252582 -0.884596 
-0.458830 -0.306776 0.019599 0.096751 0.054698 -0.870504 
0.971033 1.638200 0.376053 -0.378451 0.527247 -0.735812 
-0.722903 1.348133 0.316531 0.702507 0.093530 -0.653915 
0.782331 -0.353440 -0.162794 -0.401983 0.010070 -0.885063 
-0.181943 -0.684189 0.275979 -0.261019 -0.327284 0.904659 
-1.259729 0.671454 -0.819410 -0.806789 -0.312403 0.421699 
-0.343522 0.572558 0.156677 -0.612286 0.332673 -0.677193 
-0.273154 0.319877 0.518221 -0.374441 -0.204382 0.883317 
0.525855 0.916597 0.448962 -0.839751 -0.008066 -0.525857 
-0.732835 1.942201 0.020620 -0.594903 0.727075 0.305201 
-0.217301 2.353881 0.307895 0.773570 -0.491068 -0.390819 
0.187905 -0.910168 0.099953 -0.171259 -0.173044 -0.957781 
1.268463 2.111358 0.724716 -0.296656 0.790468 -0.531381 
1.829403 1.264836 -0.240181 0.070688 -0.711063 0.648516 
-0.711289 0.560365 0.133686 -0.879545 -0.256122 0.379056 
1.039715 1.024980 0.002646 0.619936 -0.321853 0.650042 
-0.310574 -0.615441 0.232191 -0.665763 -0.200909 0.714695 
-0.275284 -0.299555 0.066851 -0.436023 -0.037340 -0.873815 
1.260369 1.492069 0.098620 0.200408 -0.754959 0.549398 
-0.930789 1.211073 -0.036007 -0.874460 0.078942 0.417472 
-0.025006 -0.406278 -0.069463 -0.323362 -0.326890 -0.884871 
-0.049530 1.357287 0.347997 -0.592565 0.697203 0.297201 
-0.418018 -0.992056 0.060040 0.387225 -0.035017 -0.918353 
1.625653 1.110195 -0.309093 0.131289 0.796789 -0.548225 
0.102006 1.137326 0.188537 0.460678 0.410529 -0.776176 
0.334963 0.705425 0.504978 0.650113 0.344021 0.630846 
-0.042929 1.137152 0.585888 0.103290 0.421914 0.870607 
-1.340142 1.583417 -0.547938 -0.798076 0.241648 0.521326 
0.391163 0.260346 0.121526 0.241347 0.163872 -0.949186 
-0.459784 -0.114866 0.151725 -0.803680 -0.215978 0.541243 
-0.901277 1.969736 -0.331228 -0.381230 0.847978 0.301586 
-0.922611 1.694596 0.020180 0.700431 -0.325110 -0.550835 
-0.701017 -0.192253 -0.142432 -0.750175 -0.102271 0.624101 
-0.877321 1.768729 0.028177 -0.879505 0.259576 0.373284 
1.276327 0.688500 -0.372744 0.724567 -0.136955 0.668802 
-0.598474 0.976430 0.399848 0.971323 -0.030737 -0.203061 
0.234853 0.767531 0.536446 0.435994 0.207549 0.861911 
-0.268974 2.980476 -0.416164 0.774018 -0.369197 -0.511421 
-1.111522 1.850191 -0.518427 0.569895 -0.646803 -0.444603 
-0.916055 0.540463 -0.311156 0.762983 0.214455 -0.575715 
0.725866 1.808478 0.765497 0.462318 -0.617106 0.623892 
-0.813542 1.821425 0.044467 -0.894731 0.261148 0.345481 
1.014560 -0.206895 -0.280403 0.504496 0.041154 0.841997 
-0.276020 -0.819438 0.186128 -0.349972 -0.224553 0.882160 
-1.247892 2.071266 -1.003066 -0.675721 0.586320 0.445816 
0.360469 -1.186805 0.067880 0.063790 0.132017 -0.905842 
-1.329769 1.046725 -0.615640 -0.825678 -0.193005 0.529123 
0.653847 1.115297 0.338708 -0.449902 0.379436 -0.800760 
0.602902 0.572373 0.379001 0.247541 -0.151828 0.914108 
-0.664939 -0.739866 -0.138573 -0.542444 0.123659 0.810583 
-0.180430 3.096581 -0.348023 -0.834246 0.305295 0.447927 
1.905892 1.776257 0.163965 -0.167669 0.703072 -0.688146 
0.590577 0.886046 0.398355 0.487724 -0.308638 0.801843 
0.176803 1.072245 0.552691 0.762715 0.524865 -0.265008 
0.348374 0.237273 0.463823 0.462147 -0.234120 0.837949 
-0.056176 3.048419 -0.113251 -0.668792 0.420944 0.576038 
0.294760 0.292662 0.010489 0.659279 0.008137 -0.750027 
-0.458191 2.655791 -0.446204 -0.622010 0.545967 0.543375 
-0.896998 0.095530 -0.413889 0.649092 0.189542 -0.634290 
-0.424669 0.350592 0.441951 -0.508100 -0.234312 0.808867 
-0.551314 0.572797 0.413145 -0.291350 -0.289565 0.855258 
-0.706403 0.275509 -0.044231 -0.819448 -0.241805 0.509360 
-0.139920 1.249142 0.406383 -0.633478 0.727282 0.091999 
0.153912 -1.172395 0.164841 0.219966 0.042686 0.972639 
1.446527 1.144259 -0.378027 0.260606 -0.606640 0.642584 
0.954844 1.934327 0.702962 -0.288742 0.551098 -0.772117 
0.844091 1.338918 0.271421 0.625454 -0.352213 0.606352 
1.047465 0.238975 -0.253630 0.677856 -0.111746 0.713105 
0.470399 -1.358881 0.070990 0.841427 -0.019228 0.322188 
0.053399 0.316195 0.578096 0.102311 -0.202934 0.969616 
-0.409648 -0.437529 0.055930 0.048734 0.033011 -0.904026 
-0.232569 -0.136426 0.416568 -0.469182 -0.243128 0.805821 
1.125892 0.519454 -0.274189 -0.643751 0.160431 -0.728390 
-0.226298 0.839095 0.532890 -0.629456 0.065661 0.763308 
-0.198145 -0.329175 -0.015127 -0.562089 -0.128205 -0.809312 
0.771243 -0.261302 -0.092820 0.631144 -0.096046 0.754947 
-0.664409 -0.338289 -0.129689 -0.729579 -0.083380 0.648969 
0.561213 1.151521 0.530624 0.631736 -0.181508 0.745948 
1.275317 2.026966 0.627981 -0.283860 0.519022 -0.800670 
-0.303986 -1.168846 0.092343 0.449498 -0.109052 -0.865401 
1.023416 0.844570 -0.068791 -0.587461 0.314679 -0.720896 
0.015496 1.381816 0.241879 0.435696 0.451071 -0.714215 
1.187093 2.181402 0.819766 -0.302258 0.723446 -0.617452 
-0.972899 0.416385 -0.403884 -0.818179 -0.220387 0.500071 
-0.655170 1.958083 0.082121 0.780033 -0.414330 -0.405505 
-0.459792 0.621633 0.501088 0.323780 0.842540 -0.407986 
0.283008 -0.572523 0.270919 0.582827 -0.243611 0.765190 
0.454915 -0.157323 0.185900 0.696560 -0.216352 0.676771 
-1.478523 1.351554 -0.739353 0.794122 0.043711 -0.557237 
-0.132146 3.117462 -0.291025 0.787089 -0.334296 -0.514321 
0.393925 0.132219 0.413921 0.566362 -0.272482 0.776712 
0.780281 -0.707138 -0.122080 0.409489 0.088800 0.906816 
-1.278278 1.336983 -0.486317 -0.817586 0.003411 0.526807 
0.727127 -0.162213 -0.039940 0.669164 -0.135004 0.716163 
-0.379066 -0.071079 0.322413 -0.689019 -0.230403 0.678605 
-1.113944 1.489224 -0.263169 -0.814960 0.197839 0.512942 
1.489834 1.972975 0.495643 0.249633 -0.740179 0.606421 
0.281755 0.244275 0.497681 0.396978 -0.227445 0.866893 
-0.361718 0.386669 0.199195 -0.357826 0.334601 -0.831182 
-0.231332 0.451434 -0.010866 -0.663669 0.049805 -0.733625 
0.789017 0.416647 -0.065554 -0.289652 0.185394 -0.801719 
0.225231 1.004273 0.549270 0.740420 -0.124242 0.653918 
0.081796 -0.793682 0.094691 0.067885 -0.209657 -0.961520 
1.480993 1.110555 -0.471011 -0.313907 0.576608 -0.666994 
0.962574 1.612990 0.447217 0.365584 -0.691910 0.534421 
-1.062446 0.745469 -0.415795 0.797916 0.199636 -0.563211 
-0.487727 1.869693 0.556900 0.674585 -0.570872 -0.460179 
-0.678461 1.812984 0.420605 -0.650469 0.686286 0.298663 
0.079023 1.152999 0.574067 -0.237930 0.475239 0.816178 
-0.313370 0.454363 0.086404 -0.608177 0.141385 -0.730108 
0.338349 0.203089 0.076108 0.421031 0.080430 -0.870796 
1.573475 1.729319 0.217430 -0.150489 0.759691 -0.624035 
1.552793 1.487535 0.021684 -0.262293 0.522418 -0.792832 
-0.636294 2.802185 -0.829088 -0.762966 0.412022 0.494648 
-0.307115 2.342766 0.250588 -0.707233 0.583506 0.346001 
-0.184684 0.394384 0.577634 -0.252945 -0.167316 0.950518 
1.051099 -0.137448 -0.304141 0.514162 0.037370 0.834954 
-1.227648 1.083957 -0.491021 -0.825765 -0.104232 0.520027 
1.541715 0.889040 -0.633363 -0.674988 0.061347 -0.729282 
1.890079 2.471467 1.007807 0.141797 -0.844158 0.503839 
0.089867 0.868240 0.045648 0.489213 0.420608 -0.747337 
0.249011 1.017099 0.474020 0.855016 0.300886 0.305733 
1.166896 0.786662 -0.216360 0.666938 -0.292940 0.657988 
-1.248957 1.751485 -0.585282 0.659164 -0.509837 -0.485300 
0.059730 1.217477 0.223255 0.496324 0.285049 -0.806559 
-0.299103 3.016117 -0.482801 0.779811 -0.355564 -0.512211 
1.173928 0.110609 -0.385566 0.555430 0.018439 0.806056 
-0.257243 0.887543 0.183949 -0.733240 0.412137 -0.501558 
-0.546291 -0.352219 -0.039923 0.346687 0.061292 -0.823390 
-0.411874 1.947137 0.676209 -0.306195 0.639791 0.646956 
1.362152 0.612560 -0.521534 -0.612657 0.054982 -0.763690 
0.638468 0.120379 0.119090 0.714294 -0.245257 0.648599 
0.311832 -0.762971 0.195226 0.483102 -0.196020 0.828663 
0.018764 -0.719141 0.092970 0.362277 -0.221562 -0.886759 
-0.017674 -0.699578 0.312126 -0.420997 -0.235551 0.870282 
-0.961373 0.669377 -0.282149 -0.846468 -0.167543 0.484031 
0.385694 0.457256 0.496886 0.360088 -0.141056 0.919636 
-0.078242 0.305487 -0.121000 -0.574338 0.063164 -0.806284 
-0.884692 1.495017 0.155690 -0.890521 0.179485 0.361033 
-0.660460 -0.249675 -0.123069 0.570558 0.089108 -0.755177 
-1.073889 0.640645 -0.536920 0.801286 0.274013 -0.508310 
-0.819138 0.157249 -0.260444 0.680353 0.162204 -0.652342 
-0.655117 -0.484710 -0.191296 0.494772 0.079425 -0.786081 
1.295851 1.624213 0.256558 0.461147 -0.331809 0.806609 
1.129628 0.340595 -0.320491 0.680962 -0.099978 0.713640 
0.007781 0.621229 -0.081926 0.372593 0.255576 -0.886641 
1.281804 0.890939 -0.370783 -0.576519 0.365825 -0.711130 
-0.355234 -0.783981 0.155415 -0.605982 -0.134160 0.771102 
-0.922155 1.388242 0.043637 -0.881048 0.153872 0.396420 
1.584236 0.979195 -0.659658 0.715599 -0.061453 0.695603 
0.609475 0.895074 0.309392 -0.852708 0.053322 -0.472719 
-1.062430 0.538577 -0.550922 0.769685 0.266362 -0.524747 
-1.366843 1.223180 -0.621256 0.800686 0.126302 -0.562236 
2.031250 1.991798 0.378014 -0.140072 0.706775 -0.682668 
0.752419 0.627592 0.231354 0.581562 -0.092210 0.732633 
-1.115700 1.564527 -0.264424 0.793102 -0.228093 -0.547156 
0.705191 1.205649 0.318070 -0.426125 0.415668 -0.792525 
0.191581 -0.233804 -0.029909 0.563293 -0.098382 -0.814615 
0.561383 1.871567 0.856395 -0.347749 0.728229 -0.588406 
-0.676091 0.897019 0.207373 0.676703 0.356267 -0.643501 
-0.555503 0.081138 0.103938 -0.806164 -0.248155 0.523042 
-0.251301 2.527021 -0.013730 0.766119 -0.482241 -0.415537 
0.644236 1.653916 0.568955 -0.230272 0.753702 -0.592619 
-0.052868 0.696916 0.570191 -0.059886 0.057791 0.989661 
0.157855 0.326648 0.576122 0.220209 -0.185541 0.956688 
-0.395137 2.143498 0.303662 0.794070 -0.439936 -0.403362 
-0.093334 1.226673 0.499444 -0.053369 0.827899 0.533829 
1.644397 1.797467 0.258002 -0.179322 0.731486 -0.650049 
-0.728174 -0.032531 -0.154901 -0.778959 -0.132414 0.586777 
0.344561 0.507851 0.165242 0.590005 0.330778 -0.689201 
0.182524 0.510662 0.582508 0.237860 -0.112087 0.961993 
1.947164 1.962207 0.353334 -0.155669 0.677281 -0.706424 
1.141441 2.179823 0.906351 0.332206 -0.664068 0.640801 
0.605869 0.412973 0.054115 -0.093758 0.215219 -0.865476 
-0.126087 -0.404248 0.388525 -0.100728 -0.215686 0.969400 
0.826149 -0.037798 -0.084852 0.669817 -0.137697 0.713348 
2.151967 2.057506 0.443505 0.127096 -0.762842 0.630112 
0.619667 -0.285503 0.009914 0.671503 -0.134488 0.716294 
0.708155 0.429750 0.199486 0.714815 -0.302223 0.622821 
-0.369882 0.101043 0.405244 -0.615033 -0.262198 0.734626 
0.538232 1.212616 0.560223 0.649694 -0.147699 0.729608 
0.319605 0.127295 0.059369 0.469451 0.039642 -0.847984 
0.846760 0.478818 -0.090219 -0.366898 0.198035 -0.783522 
1.096077 0.517607 -0.205075 0.729653 -0.180903 0.653311 
-0.653585 0.582287 0.271994 -0.531015 -0.151923 0.828402 
1.173045 0.397134 -0.370990 -0.582716 0.081362 -0.775175 
1.367765 1.233610 -0.159296 0.103494 -0.712556 0.594017 
1.376281 0.542316 -0.522273 0.637270 -0.022559 0.750201 
0.333085 0.551910 0.110101 0.630221 0.275557 -0.689038 
1.358865 1.754219 0.311625 -0.200985 0.761292 -0.600179 
-0.232387 1.095239 0.359111 -0.878769 0.431819 -0.084692 
0.369918 -0.353044 0.096907 0.223521 0.028508 -0.919782 
0.985625 1.116009 0.082091 0.614734 -0.310602 0.642179 
1.529089 1.176917 -0.224756 -0.136648 -0.847000 0.491053 
-0.709012 0.342312 -0.006480 -0.814492 -0.273286 0.500815 
0.215102 -1.214345 0.135634 -0.324778 -0.155826 -0.902502 
0.216244 -0.938786 0.164217 0.187222 -0.194968 0.959509 
-0.551199 2.932432 -0.799905 -0.770577 0.384952 0.505910 
1.625291 1.369059 -0.096433 -0.147338 0.610265 -0.720495 
1.065340 2.086605 0.866449 0.369696 -0.633386 0.632534 
1.449875 1.527954 0.084450 -0.287926 0.489767 -0.810478 
-1.105118 1.785132 -0.418125 0.638488 -0.529574 -0.475981 
-1.150344 0.390188 -0.688634 0.733853 0.214347 -0.529350 
-0.750737 2.511600 -0.775085 0.717575 -0.483443 -0.496046 
-0.232919 -0.154796 -0.004217 -0.618884 -0.079180 -0.773482 
0.652921 0.501767 0.077691 -0.224941 0.267556 -0.840097 
-0.411227 -0.155950 0.052710 -0.093135 0.071480 -0.893791 
-0.467339 0.108147 0.022539 -0.014337 0.135417 -0.865050 
1.305862 0.742921 -0.411247 -0.679425 0.142923 -0.712256 
-1.267043 1.836917 -0.724947 0.654665 -0.541959 -0.476395 
-0.809555 1.348757 0.164919 0.719479 0.055405 -0.625509 
-0.458973 2.862736 -0.604358 -0.713041 0.440589 0.523597 
-0.022697 1.090956 0.149281 -0.315001 0.421895 -0.842176 
-0.566060 1.268413 0.592872 -0.463630 -0.344418 0.724970 
0.319443 -0.498706 0.101449 0.246367 -0.007707 -0.926371 
0.655071 1.582303 0.566109 0.593084 -0.517848 0.433103 
0.269242 -0.269672 0.034295 0.508969 -0.085724 -0.835834 
1.581950 2.504367 1.100526 0.040967 -0.534920 0.820475 
-0.846496 1.543833 0.246339 -0.901475 0.186894 0.330349 
1.442382 0.759475 -0.566713 -0.646964 0.066652 -0.743159 
-0.093889 2.694900 0.116644 -0.753959 0.481225 0.425304 
-1.318340 1.277653 -0.555258 0.799304 0.064318 -0.559571 
0.370896 -1.248777 0.103468 0.266537 0.035958 0.840970 
-0.975009 0.813912 -0.302727 0.794709 0.109278 -0.559949 
1.449578 1.302878 -0.108250 -0.085209 0.649391 -0.664640 
-0.120395 2.799226 -0.083752 0.760117 -0.414667 -0.499350 
-0.366937 2.966605 -0.540732 -0.731718 0.407947 0.524751 
0.873191 1.130148 0.196989 0.668907 -0.215678 0.612352 
-1.120551 0.527758 -0.640173 -0.819591 -0.285743 0.450393 
-0.395834 0.227561 0.086076 -0.154709 0.171284 -0.917827 
0.144367 -0.397117 -0.027903 0.467249 -0.223264 -0.840082 
-0.127982 2.904297 -0.168728 0.768048 -0.386504 -0.509240 
-1.085665 2.172874 -0.890437 0.692293 -0.538021 -0.473999 
1.409275 1.153852 -0.454231 0.509022 -0.472233 0.717064 
1.694577 1.188890 -0.264284 0.034593 0.742453 -0.606805 
0.180280 1.226985 0.561936 -0.315122 0.874777 0.295374 
-0.307292 0.825138 0.234442 -0.824015 0.390875 -0.334542 
-0.925346 1.638148 0.088946 0.754158 -0.181581 -0.608606 
1.358894 1.909454 0.456627 -0.293316 0.670651 -0.677761 
-1.133207 2.082151 -0.850742 0.701335 -0.520813 -0.472749 
0.232957 0.612461 -0.005628 0.602512 0.187647 -0.747931 
0.914014 1.554759 0.318594 -0.380801 0.486412 -0.780844 
-0.183875 -1.152721 0.154471 -0.218199 0.011919 0.959354 
-0.182308 2.468418 0.167006 0.758382 -0.531870 -0.375612 
1.140207 2.051708 0.758147 0.360288 -0.599290 0.689567 
0.044561 0.559051 0.605410 0.092094 -0.085965 0.988160 
-0.896555 1.060990 -0.026861 -0.883355 0.010929 0.406847 
-0.248094 0.496183 0.552631 -0.297069 -0.141184 0.936774 
0.170722 0.656422 0.578842 0.198622 0.252212 0.925506 
-1.201747 1.641577 -0.346176 -0.804755 0.281779 0.516954 
1.185696 1.775823 0.421218 -0.261283 0.775208 -0.547823 
0.424520 1.352534 0.575265 -0.805939 0.021474 -0.529882 
-0.675554 1.031717 0.406679 -0.710319 -0.287918 0.607240 
-0.293644 0.413780 0.026734 -0.655150 0.031641 -0.733404 
0.360853 -0.930541 0.129859 0.442865 -0.137452 0.880112 
0.327012 0.667736 0.052439 0.735908 0.222104 -0.610984 
-0.671270 -0.019788 -0.104526 -0.800753 -0.149143 0.563537 
-0.165408 0.785024 0.563792 -0.296963 -0.023874 0.926288 
0.894467 0.904028 0.064298 -0.550740 0.326661 -0.748692 
-0.830398 -0.258311 -0.349022 0.570942 0.064722 -0.716863 
0.026295 -0.151524 -0.109824 0.416020 -0.165649 -0.868573 
0.405419 -1.005280 0.072000 -0.282996 -0.020156 -0.957122 
-0.263419 0.417557 0.543806 -0.308834 -0.174615 0.928880 
-0.514220 2.266126 -0.156743 0.640946 -0.612687 -0.448686 
0.375413 0.624898 0.241523 0.818187 0.288027 -0.371117 
-0.517646 0.611825 0.261918 0.192573 0.525576 -0.369649 
0.586224 -0.012313 0.108127 0.716223 -0.219020 0.657023 
0.457287 0.068950 0.306493 0.644730 -0.271229 0.704314 
1.309504 0.992419 -0.374560 -0.541120 0.411479 -0.715139 
-0.339573 3.033449 -0.549089 -0.753050 0.379959 0.521674 
-0.753118 1.068200 0.148696 0.705863 0.230300 -0.627447 
0.122173 0.336038 -0.087992 0.564433 0.071299 -0.812407 
0.401954 -1.399235 0.073198 -0.247273 -0.723757 0.388370 
0.675268 -0.054100 0.000046 0.713849 -0.169155 0.674449 
-0.589600 1.159484 0.444788 0.939827 -0.032340 -0.175825 
-0.447814 -0.230138 0.100032 -0.810787 -0.166762 0.555405 
-0.099245 1.285888 0.316762 -0.695648 0.609825 -0.110239 
-0.549931 1.937289 0.399770 -0.772052 0.584105 0.119620 
-0.267757 0.822713 0.148894 -0.682447 0.458095 -0.520218 
-0.517294 0.291590 0.304097 -0.772660 -0.370607 0.507380 
0.567430 -0.461200 0.023147 0.642557 -0.110479 0.745213 
-0.723921 1.701190 0.483796 -0.935014 0.210097 0.240865 
-0.618479 1.336320 0.494386 0.681595 0.146607 -0.687341 
0.239000 0.257926 -0.024201 0.632280 0.009921 -0.769961 
-0.630554 0.457519 0.218097 -0.839246 -0.313491 0.418974 
1.719486 1.791902 0.239202 0.284317 -0.566004 0.728254 
-0.154047 -0.140457 0.443966 -0.222414 -0.218297 0.942618 
0.483136 1.360400 0.615542 0.798175 -0.145518 0.542177 
-0.819766 1.722178 0.153094 0.647881 -0.363625 -0.548650 
-0.835635 0.314339 -0.224143 -0.825466 -0.186119 0.522351 
-0.640914 1.498585 0.627513 -0.906074 0.023423 0.332326 
-0.944269 0.754054 -0.273441 0.788114 0.154843 -0.566489 
0.227613 0.446737 -0.017780 0.627540 0.074658 -0.763940 
-0.348348 2.901687 -0.464683 -0.706713 0.439317 0.528206 
-0.223133 0.801099 0.072088 -0.582614 0.497047 -0.621827 
-0.191103 0.686709 -0.008622 -0.537680 0.257461 -0.764676 
-0.266996 2.278833 0.329082 0.766665 -0.484605 -0.408948 
-0.835686 2.116121 -0.464615 0.767826 -0.411085 -0.480531 
0.947532 1.494338 0.228144 -0.379520 0.512725 -0.764487 
1.849199 1.329934 -0.192909 -0.144118 0.646132 -0.714593 
0.234845 1.027477 0.258367 0.782647 0.393376 -0.395573 
-1.438660 1.684978 -0.772298 0.743883 -0.395137 -0.521158 
-0.607836 -0.084727 -0.087288 0.345284 0.100378 -0.776771 
-0.581842 1.088060 0.481610 0.954684 -0.035376 -0.169409 
-0.059950 -0.854423 0.105033 -0.158412 -0.198063 -0.950841 
-0.664582 -0.812522 -0.125809 0.497396 -0.160312 -0.848698 
0.634995 0.215833 0.177450 0.707272 -0.284135 0.640161 
0.134919 1.120510 0.619688 -0.278491 0.143888 0.899395 
0.141831 1.218850 0.287118 0.733662 0.544037 -0.356806 
1.260663 0.984703 -0.310198 -0.544950 0.401730 -0.713961 
-1.233667 0.833158 -0.697803 0.818599 0.297861 -0.475691 
-0.832257 -0.085492 -0.362775 0.599411 0.159229 -0.678106 
1.617465 2.443036 0.991536 -0.132573 0.770882 -0.622389 
-0.716360 0.049241 -0.164628 0.542727 0.130455 -0.709752 
0.877016 0.349467 -0.044374 0.731325 -0.218271 0.642646 
0.918965 0.149966 -0.120863 0.688986 -0.154510 0.693033 
0.766946 1.103453 0.292745 0.736705 -0.116829 0.579770 
2.065268 2.138582 0.559545 0.124498 -0.712070 0.677023 
1.301896 1.062343 -0.326967 0.551078 -0.424509 0.696874 
-0.190749 -0.860679 0.200241 -0.202165 -0.232955 0.946449 
1.974753 1.488301 -0.096741 0.220336 -0.643607 0.730861 
0.660715 0.868841 0.246810 -0.521264 0.331542 -0.766930 
-0.594934 -0.755148 -0.094272 0.449270 -0.060744 -0.860079 
0.429317 -0.630555 0.102626 0.629756 -0.122593 0.756401 
-0.498275 0.559803 0.490831 -0.183790 -0.358520 0.866039 
0.010377 -0.005493 -0.136209 0.441686 -0.091680 -0.866774 
-0.429278 2.261429 0.055917 -0.774451 0.545430 0.297616 
-0.951507 1.594393 0.023890 0.757454 -0.164760 -0.596823 
1.033829 0.069319 -0.317134 -0.494825 0.031097 -0.831358 
-0.485223 0.611818 0.361962 0.200450 0.655934 -0.404214 
-0.249874 2.926085 -0.350029 -0.786557 0.381710 0.477440 
1.321367 2.399580 1.039874 -0.307255 0.849502 -0.390714 
-0.018410 1.020722 0.119473 -0.297455 0.471713 -0.819620 
0.515251 1.752176 0.827283 0.582055 -0.475720 0.636453 
-0.751592 1.788702 0.140309 0.546109 -0.554726 -0.472781 
1.049310 1.187736 0.039892 0.554456 -0.396946 0.665213 
1.488141 0.884255 -0.578681 -0.682480 0.090187 -0.719889 
-0.035968 0.945608 0.068541 -0.402058 0.508999 -0.748911 
0.034553 -0.120886 0.457287 0.081788 -0.223675 0.968699 
0.658698 0.485016 0.301673 0.691952 -0.227025 0.636427 
1.180432 0.312837 -0.408083 -0.547809 0.042153 -0.800875 
-0.567523 1.362959 0.536581 0.876809 0.195450 -0.424334 
0.022979 -0.816741 0.261686 0.394359 -0.193435 0.892215 
-1.400436 1.033350 -0.834010 0.821740 0.294868 -0.470466 
-1.324170 1.417542 -0.518492 -0.814631 0.017865 0.531709 
1.914641 1.318493 -0.221110 -0.143171 0.656618 -0.712864 
-0.388144 2.448999 -0.138606 -0.612206 0.621507 0.478899 
1.461763 2.072250 0.617664 0.240617 -0.793891 0.540162 
-0.815224 -0.009251 -0.280519 -0.766346 -0.150325 0.579624 
0.101895 1.004621 0.618693 0.177447 -0.135164 0.969935 
-0.630820 2.239892 -0.326784 0.719241 -0.543789 -0.430583 
-0.804737 2.006046 -0.279088 0.808325 -0.364960 -0.443808 
-0.836102 0.790065 -0.012788 -0.898887 -0.111854 0.388584 
-1.181094 1.690781 -0.399051 0.736400 -0.373170 -0.520138 
1.222645 2.051725 0.691105 0.321032 -0.552812 0.765595 
1.049978 0.951376 -0.028594 0.641830 -0.300972 0.647196 
-0.748935 -0.263117 -0.278772 0.553500 0.122023 -0.727636 
0.174125 1.212439 0.473631 0.894538 -0.277323 0.269495 
0.807118 1.839289 0.725977 0.565310 -0.589020 0.506381 
0.423137 0.512397 0.237493 0.375996 0.472441 -0.714070 
-0.750603 0.417828 -0.033376 -0.816360 -0.282462 0.494170 
-1.132339 1.331279 -0.341710 0.795122 -0.085792 -0.552704 
-0.857681 -0.199657 -0.380200 -0.683740 -0.089501 0.633328 
1.415087 1.945011 0.492606 0.281808 -0.705007 0.639999 
-0.143633 2.987935 -0.244739 0.774789 -0.365026 -0.514623 
0.717637 -0.273536 -0.045081 0.643271 -0.114346 0.741207 
-0.094894 -0.221181 -0.072039 -0.479955 -0.148150 -0.842253 
0.995075 0.048762 -0.261570 0.647201 -0.075560 0.747265 
-0.223819 3.009336 -0.368212 -0.821263 0.330168 0.453306 
1.741731 1.260921 -0.216715 0.018457 -0.752994 0.601289 
-0.707435 1.839076 0.087930 0.779273 -0.389701 -0.443057 
1.557541 1.306066 -0.122394 -0.056827 -0.836743 0.507726 
0.604511 1.021942 0.356876 -0.474832 0.342724 -0.808695 
0.269521 0.819285 0.150733 0.690937 0.448475 -0.511208 
-0.754800 -0.640817 -0.212500 -0.505730 0.156774 0.822421 
-0.808339 0.452419 -0.115341 -0.824693 -0.260227 0.494145 
-0.576184 -0.681871 -0.101733 0.449831 0.017756 -0.841414 
0.741354 0.817582 0.174865 -0.524062 0.330404 -0.781549 
-0.601802 1.734513 0.733604 -0.680341 0.685721 0.210177 
1.676602 1.614173 0.089340 -0.142679 0.742427 -0.643405 
-0.356345 -0.541779 0.169534 -0.717138 -0.162874 0.665150 
-0.241342 1.190451 0.706353 -0.726193 0.053188 -0.679217 
1.447110 0.912760 -0.523852 0.688002 -0.166246 0.685281 
-0.546940 -0.611950 -0.048211 0.468833 0.034493 -0.837568 
0.465161 1.480076 0.591685 -0.315194 0.448404 -0.828703 
0.590521 0.741895 0.354577 -0.764606 0.140775 -0.615033 
-1.083713 1.411327 -0.242427 -0.820780 0.168992 0.504635 
0.853255 1.271746 0.248735 0.638135 -0.302283 0.609288 
-0.387578 2.059571 0.572879 -0.683731 0.631597 0.353558 
1.363760 2.363081 0.990533 0.254147 -0.774021 0.558256 
-0.902722 1.135540 -0.011777 -0.883162 0.044784 0.404749 
-0.217869 3.125725 -0.428862 0.786619 -0.331883 -0.518355 
0.817823 2.066795 0.949824 0.146496 -0.464171 0.822554 
-0.465969 -0.015901 0.016804 -0.005955 0.103591 -0.861586 
-0.871674 2.368412 -0.815185 0.708303 -0.510846 -0.485542 
-0.722724 1.600514 0.500193 -0.939167 0.179283 0.240038 
-0.601813 1.992178 0.178724 -0.714155 0.623828 0.246026 
0.134624 -0.291670 -0.047059 0.490636 -0.166642 -0.837651 
-1.207651 0.738130 -0.733545 0.813867 0.327619 -0.452065 
-1.092133 0.918228 -0.378339 -0.832329 -0.106608 0.506158 
-0.519163 2.329317 -0.213499 -0.765722 0.493612 0.388098 
1.204649 1.543635 0.165160 -0.379925 0.482195 -0.785526 
