0.336300 0.403774 0.329308 0.298153 -0.098617 0.936473 
0.644306 0.014379 0.486426 0.901725 0.087913 -0.354716 
0.006877 0.570670 -0.187596 0.327236 0.086753 -0.938525 
-0.237265 -1.146752 0.028132 0.494227 -0.193570 0.734690 
0.079934 0.429492 -0.168494 0.394326 0.040327 -0.914774 
-0.682108 -0.958288 0.553590 0.673520 -0.425387 0.457074 
-0.530029 0.023419 2.882244 0.951042 -0.238739 0.168670 
0.437706 0.675329 0.098663 0.724843 0.531046 -0.300875 
-0.584773 0.313024 0.638728 0.795661 -0.443213 0.392213 
0.608663 0.379180 1.632441 0.849838 0.059315 -0.440957 
-0.459059 0.386925 1.971004 0.885639 -0.341427 -0.274245 
-0.710557 -0.500158 0.647628 0.822519 -0.107931 0.409832 
-0.530273 0.063350 2.221672 0.754861 -0.516361 -0.393489 
-0.580324 0.908354 1.228020 -0.913380 -0.094131 0.349162 
-0.945369 -0.480063 1.630339 -0.551324 0.393411 -0.336522 
-0.163390 -0.576428 0.190354 -0.209724 -0.336710 0.915410 
0.609907 -0.825005 0.577769 0.741267 0.167193 -0.461797 
-0.272691 0.459613 0.390452 -0.297520 -0.000683 0.950377 
0.834265 -0.078985 2.152395 0.882856 0.044024 -0.399720 
0.567276 0.666353 1.699565 0.956059 0.144783 -0.059270 
0.067355 1.337409 0.168641 0.641768 0.660231 -0.192728 
-0.662400 -0.188113 0.468150 -0.916030 0.014514 -0.331222 
0.950866 0.451709 2.505617 0.878121 0.304416 -0.349678 
0.708596 -0.157019 1.125922 0.930373 0.169911 -0.021881 
0.671553 -0.049546 1.039649 -0.959598 -0.199076 0.179450 
1.211789 -0.209065 2.561857 -0.774452 -0.199965 0.599256 
-0.396296 0.375945 2.173283 -0.981473 0.114530 0.091448 
-0.258329 0.600025 0.406972 -0.524014 0.025020 0.819644 
0.445167 0.679725 0.246167 0.755748 0.623949 -0.063460 
0.086864 0.895992 -0.079060 0.509890 0.385499 -0.744700 
0.837883 -0.002694 2.192852 -0.812039 -0.046748 0.563368 
-0.752761 -0.610338 0.828406 0.846957 -0.068592 0.383508 
-0.412873 0.635006 0.450475 -0.635908 0.763376 0.082206 
0.076682 -0.141580 0.379934 0.120577 -0.330427 0.935290 
-0.552011 -0.098019 2.823534 0.936473 -0.297801 0.083901 
-0.498812 -1.125027 0.161635 0.229988 -0.406949 0.610402 
-0.555194 0.527603 0.444057 -0.703411 0.670456 -0.138541 
-0.466322 1.173496 1.444843 0.877859 -0.443719 0.036200 
0.292994 -0.371365 0.226127 0.487726 -0.289018 0.803797 
-0.164222 1.218434 0.423409 0.301513 0.842759 0.363153 
0.078662 0.314995 0.522212 0.240853 -0.031017 0.953475 
-0.692060 -0.187976 2.329125 0.778893 -0.543267 -0.285310 
-0.492501 0.045665 2.669897 0.955784 -0.196427 0.155179 
0.637693 1.144329 2.166385 -0.845207 0.161034 0.464111 
-0.434958 -0.196075 0.097731 -0.836326 -0.039012 -0.520131 
-0.518566 0.725772 1.585786 -0.880456 0.110915 0.385421 
-0.528976 1.031651 1.450063 -0.892124 -0.154266 0.344844 
0.646491 0.674210 1.941826 0.908583 0.139312 -0.350975 
1.063587 0.018500 2.450157 0.754903 0.087169 -0.637236 
-0.485553 1.045656 1.262547 0.926529 -0.017081 -0.186747 
0.514658 -0.295555 0.313504 -0.466486 -0.190870 0.724673 
0.632821 -0.177154 1.604820 0.867897 -0.035173 -0.083697 
0.031167 0.237531 0.512469 0.145969 -0.120383 0.967691 
-0.601510 0.544648 1.061981 0.917117 -0.355118 0.121717 
-0.510628 -0.022924 2.669413 -0.938774 0.297710 -0.001928 
-0.681973 0.597024 0.886901 -0.927879 0.311515 -0.141876 
-0.287015 -0.327991 0.245219 -0.491906 -0.290984 0.806416 
0.542946 -0.095268 0.314676 0.883523 0.026282 -0.412326 
0.964390 0.803457 2.720111 0.861865 0.157517 -0.479206 
-0.617676 -0.148115 2.371499 -0.841476 0.456359 0.217149 
-0.811382 -0.082932 1.058688 -0.971629 0.146441 -0.055905 
-0.501871 -0.923305 0.387386 -0.714885 -0.032492 -0.622581 
0.429061 0.674934 0.326472 0.622561 0.719335 0.084533 
0.562524 0.287288 1.450959 0.983366 0.110339 -0.047705 
0.713004 0.420543 1.931382 0.936793 0.225999 -0.191517 
0.654342 0.088999 1.064483 0.976011 0.132603 -0.058457 
-0.033546 0.809503 0.453299 -0.145371 -0.256814 0.951086 
0.911596 -0.711342 1.179566 0.861899 0.392669 -0.127232 
0.712966 -0.097710 0.706968 0.952534 0.120313 -0.223499 
-0.586143 0.107483 2.105458 0.809452 -0.486216 -0.286185 
-0.199080 -0.319359 -0.138492 -0.495544 -0.157791 -0.844543 
0.312112 0.890490 0.167369 0.924778 0.346290 -0.148733 
-0.521353 0.384587 3.195245 0.944636 -0.240924 0.196407 
-0.219129 -1.071186 0.000298 0.568319 -0.284534 0.712022 
-0.240838 0.107754 -0.110311 -0.455080 -0.063421 -0.881639 
-0.722333 0.293118 0.660906 -0.944411 0.210887 -0.184306 
1.119809 -0.192424 2.491017 0.792028 0.139843 -0.587716 
-0.258778 0.157314 0.410537 -0.450103 -0.175943 0.863046 
-0.219973 0.419550 -0.106649 -0.405667 -0.008570 -0.909971 
0.392891 1.243098 1.547518 0.980195 0.118457 -0.105837 
0.040417 -0.936540 0.000072 0.267656 -0.486529 0.799691 
0.154828 0.323649 0.514171 0.386299 -0.012934 0.914489 
0.009268 -0.378040 0.265937 -0.178039 -0.294769 0.929473 
-0.240550 1.037149 0.324327 -0.853244 0.448255 0.236105 
-0.425787 -0.332714 0.130960 -0.857196 -0.070785 -0.483718 
0.124084 -0.358604 -0.164443 0.405209 -0.214937 -0.874975 
0.140814 -0.541511 -0.083832 0.124911 -0.334569 -0.925135 
-0.312108 0.564466 0.366116 -0.500481 -0.012367 0.826304 
-0.102018 -0.953898 -0.017116 0.094498 -0.499495 0.835875 
0.459504 -0.436185 0.178865 -0.336897 -0.166456 0.856881 
0.634968 0.005841 1.650545 -0.968266 -0.128744 -0.042562 
-0.316334 0.069961 -0.070353 -0.463634 -0.096145 -0.873124 
0.241070 1.045969 0.143427 0.830707 0.415264 -0.299335 
-0.496465 0.323128 1.844989 0.891656 -0.338093 -0.043105 
0.654897 0.411348 1.719943 0.910635 0.138272 -0.333589 
0.717216 -0.029455 1.837432 0.982232 0.089269 -0.117728 
0.451632 -0.720886 0.247162 0.733177 0.014158 -0.590117 
0.649081 -0.776427 0.652656 0.767270 0.187847 -0.411309 
0.636295 0.749979 1.960051 0.902306 0.042065 -0.370637 
0.875622 0.639239 2.462318 0.881177 0.239119 -0.400853 
-0.824019 -0.023179 0.833989 0.962146 -0.164674 0.193457 
-0.731826 0.136369 1.016132 0.947866 -0.237960 0.099947 
0.550040 1.186790 1.970476 -0.811849 0.234720 0.466776 
1.228906 0.113161 2.810602 0.830097 0.255450 -0.488115 
0.198702 -0.411934 0.249812 0.239854 -0.318743 0.913353 
0.582564 0.876351 1.852788 0.917065 0.116720 -0.354585 
0.310073 -0.221579 -0.081344 0.578971 -0.127249 -0.787575 
-0.411324 0.395740 2.747076 0.971356 -0.204697 0.081189 
0.402763 0.664086 0.034196 0.679370 0.398085 -0.474832 
0.452895 0.354804 0.511401 -0.846914 -0.237706 0.379911 
-0.572605 0.184857 0.187050 -0.814922 0.077070 -0.531578 
-0.828256 -0.146354 1.092282 -0.975489 0.134409 -0.064332 
0.549523 1.115869 1.955591 -0.809562 -0.273838 0.499816 
-0.413245 0.427689 0.381003 0.750152 -0.334437 0.552564 
0.682182 -0.185993 1.745358 0.862572 -0.031887 -0.318822 
0.010223 -0.165477 -0.215231 0.346822 -0.163110 -0.903683 
0.405411 0.590531 0.410697 -0.909464 0.072750 0.379317 
-0.414144 0.346128 2.667047 0.977727 -0.169953 0.084291 
-0.453717 0.421773 2.980999 -0.967064 0.140723 -0.187616 
-0.637396 0.155935 1.354944 0.934965 -0.314746 -0.106058 
-0.650219 0.112432 0.340398 -0.856034 0.078616 -0.441985 
-0.899584 -0.701648 1.271614 -0.961813 -0.025241 -0.224019 
0.404285 -0.297150 0.101239 0.866800 -0.061867 -0.473908 
-0.540342 0.774182 1.036824 0.983244 -0.122578 -0.108901 
1.029167 0.483351 2.667927 0.863159 0.252923 -0.430937 
-0.462094 0.070288 0.046761 -0.796692 0.026431 -0.586347 
-0.724770 -0.074969 1.722120 0.821668 -0.471280 -0.242863 
0.868464 -0.777637 1.055516 0.817715 0.423134 -0.187730 
-0.573810 0.632360 1.208642 0.912741 -0.373537 0.065924 
0.391595 -1.174557 0.094411 0.130740 -0.153817 0.677203 
-0.496087 0.850711 1.475626 0.861587 -0.383343 -0.128721 
0.565807 0.628761 1.630311 0.834420 0.005805 -0.433249 
-0.852472 -0.346850 1.298807 0.974961 -0.133506 0.112849 
-0.651938 0.194473 0.348282 -0.852808 0.106568 -0.440083 
0.626610 -0.585539 0.603441 -0.776295 -0.205281 0.428127 
0.161478 0.460979 0.496585 0.390944 0.050417 0.917112 
0.071689 0.101019 -0.203330 0.477325 0.007521 -0.871393 
-0.439298 0.398216 -0.021657 -0.660951 0.047572 -0.728082 
0.252556 1.170968 0.579247 -0.545195 -0.114505 0.827635 
0.627362 0.067401 1.158535 -0.952316 -0.219748 0.176489 
-0.161212 0.507481 0.485029 -0.371665 0.069024 0.923952 
-0.528998 0.473023 0.172446 -0.796605 0.336058 -0.360957 
0.393849 1.155450 1.485915 0.970995 -0.048734 0.069087 
-0.000611 -0.116440 0.389464 0.020665 -0.346432 0.933295 
0.631113 0.228817 0.647157 0.961818 0.145703 -0.091574 
-0.828334 -0.390431 0.893815 0.925542 -0.084237 0.268042 
-0.434088 1.092117 1.695281 0.970523 -0.173889 0.114646 
0.707004 -0.165152 0.769053 -0.915886 -0.196961 0.252590 
-0.428213 0.097356 -0.017440 -0.698117 0.010243 -0.690989 
-0.280224 -0.898936 -0.016611 -0.098482 -0.111796 -0.955006 
-0.845530 -0.493653 0.981227 -0.941222 0.012021 -0.249887 
0.401705 0.799874 1.122113 -0.944333 -0.170520 -0.074403 
-0.331489 0.133151 0.354598 -0.523159 -0.181738 0.828158 
0.653001 0.225293 0.737539 0.985879 0.164989 -0.007648 
0.313892 1.161425 1.443585 -0.901511 -0.304178 0.128297 
-0.440454 1.190187 1.846628 -0.898577 0.247886 0.252792 
-0.154450 0.457727 -0.133959 -0.394376 0.017246 -0.914562 
-0.593873 0.220335 0.406159 0.583841 -0.383886 0.626679 
0.846423 0.128668 2.218433 0.856812 0.078036 -0.484199 
0.291778 1.439899 1.437732 0.100654 0.176167 -0.931332 
-0.530992 0.707999 1.446962 0.892272 -0.383023 -0.081738 
0.524429 -0.444601 0.370484 0.850481 0.021650 -0.426665 
0.411969 0.910560 1.088090 -0.819889 0.046759 -0.286286 
-0.622305 0.143243 0.283537 -0.840366 0.079120 -0.475801 
1.160063 0.639772 2.991804 -0.847882 -0.305447 0.429269 
0.942707 0.398087 2.459567 0.883037 0.332451 -0.313640 
0.081306 -0.259857 0.322574 0.079532 -0.351593 0.928299 
0.005982 1.197441 0.401970 0.010582 0.662765 0.740345 
0.647752 -0.049078 0.520124 0.912933 0.085040 -0.330451 
0.333762 1.211248 1.525565 -0.829146 -0.285421 0.453650 
-0.135611 -0.492965 -0.102323 -0.173209 -0.409629 -0.895351 
0.585206 0.245623 0.845108 -0.894998 -0.379802 0.208080 
0.921909 0.706123 2.600648 -0.865150 -0.250644 0.431765 
0.615615 -0.756511 0.582770 0.763832 0.154542 -0.441646 
-0.614414 -0.013173 2.215237 0.762564 -0.534718 -0.352504 
1.009282 0.316444 2.534721 0.877555 0.337566 -0.323261 
0.986100 -0.007100 2.390058 0.777718 0.048447 -0.615024 
0.461547 0.943052 1.223803 0.926339 0.327242 -0.021295 
-0.012554 0.945235 0.486611 -0.154219 -0.057382 0.978314 
-0.437644 0.400755 2.915906 0.956463 -0.255320 0.114030 
0.539746 0.477510 0.243058 0.885196 0.276410 -0.241793 
0.174289 0.960300 0.003142 0.603196 0.437737 -0.649248 
-0.202451 0.136160 0.444424 -0.387103 -0.207498 0.887495 
-0.412959 0.444613 2.837659 -0.975647 0.125578 -0.152731 
-0.570111 1.079880 1.304602 -0.962331 0.185571 0.123335 
0.246791 0.716164 0.403069 0.487560 0.232933 0.817790 
-0.384341 0.389366 2.239847 0.990000 -0.036380 0.067320 
0.447697 0.734606 0.862727 -0.965222 -0.227366 0.002306 
-0.741891 -0.543325 0.757925 0.843888 -0.086696 0.383961 
0.510381 0.867766 1.674835 0.947480 0.019777 -0.161098 
-0.222899 -0.274840 0.288809 -0.355764 -0.306306 0.859307 
0.582836 0.248614 1.026089 -0.913836 -0.307075 0.220774 
-0.539704 0.328729 0.362583 0.535514 -0.465412 0.679522 
0.600499 -0.477391 1.508348 -0.893511 0.057749 -0.357422 
0.606074 0.122716 1.219866 -0.949309 -0.228635 0.174302 
0.556311 -0.374786 0.411287 -0.572666 -0.171010 0.613779 
0.824343 -0.476918 1.222249 0.827198 0.316244 0.211418 
0.554238 0.487130 0.433047 0.812526 0.531194 -0.130884 
0.727446 -0.608025 1.869499 -0.932093 -0.006966 0.250796 
-0.679920 -0.486224 0.557291 0.799266 -0.122859 0.439758 
0.682128 0.983010 2.160896 0.924663 0.164139 -0.311787 
0.640331 0.085738 0.557266 0.925942 0.109034 -0.259407 
0.731722 1.092939 2.376594 0.849373 0.428733 -0.290760 
-0.728847 -0.013454 1.281567 -0.958667 0.216770 0.056779 
-0.432025 1.229421 1.543970 0.990048 -0.109599 -0.008158 
0.710475 -0.235439 0.726074 0.954759 0.107987 -0.223571 
-0.262215 0.393729 0.415542 -0.328800 -0.013525 0.938434 
0.462481 0.945657 1.644612 -0.761090 -0.418899 0.432883 
1.029326 -0.090480 2.423584 -0.815522 -0.148165 0.537794 
-0.812391 -0.243742 1.918324 -0.828799 0.492530 0.198396 
-0.287374 -0.397413 0.217786 -0.466966 -0.298466 0.814569 
0.946271 0.752222 2.670404 -0.859206 -0.286882 0.418438 
0.850664 -0.399601 1.025813 0.939861 0.261785 -0.125077 
0.322871 1.090968 1.375918 -0.979915 -0.176343 -0.027275 
-0.748527 -0.108040 1.622185 -0.706283 0.353621 -0.341423 
0.860518 -0.252967 2.225582 -0.847845 -0.027610 0.518038 
-0.693547 0.519219 0.860427 -0.956750 0.191632 0.002135 
-0.454708 0.620621 1.691239 0.955626 -0.236374 -0.005833 
0.262857 0.202521 0.410464 0.501886 -0.120115 0.842926 
0.384206 0.941687 1.469097 -0.818866 -0.448443 0.303960 
0.836451 -0.620880 1.018240 0.868164 0.306221 -0.185822 
0.312553 -0.912792 -0.008295 0.595044 -0.049437 -0.796820 
-0.592606 0.155239 1.679339 0.835382 -0.410409 -0.168384 
0.542779 0.206801 0.480366 -0.684394 -0.350773 0.539339 
-0.793525 -0.163958 1.756661 -0.897329 0.437279 0.036200 
0.580256 0.212003 1.205902 -0.934755 -0.262706 0.188205 
0.306441 -0.022083 -0.076670 0.490302 -0.114619 -0.856617 
0.663340 -0.159513 1.444630 -0.864143 -0.247551 -0.173434 
1.015002 0.058843 2.413150 0.756017 0.056851 -0.639438 
0.710963 -0.262586 1.304451 0.839174 0.237577 0.236239 
0.667845 1.127901 2.233557 0.813182 0.486716 -0.252636 
-0.265963 -0.006906 0.359890 -0.461329 -0.236546 0.844180 
0.151527 -0.285447 -0.157589 0.453411 -0.161421 -0.861879 
-0.018225 1.246357 0.085269 -0.559887 0.292799 -0.753120 
0.819735 -0.000664 2.122059 0.894645 0.065782 -0.370102 
-0.310483 -1.305091 0.018918 -0.884985 0.304001 0.001096 
0.620808 0.188790 1.658287 -0.974044 -0.201210 0.034994 
0.993929 0.450954 2.584369 0.871104 0.284276 -0.384421 
-0.378919 0.573596 2.253738 -0.990098 0.056186 0.094235 
-0.450445 0.768764 1.562445 0.924369 -0.273573 -0.038682 
-0.516384 -0.761129 0.305764 -0.730922 -0.002334 -0.589553 
0.449292 -0.639741 0.235875 0.764826 0.001745 -0.556487 
0.439734 0.713299 1.485995 -0.862597 -0.372017 0.254519 
0.644763 0.970148 2.094044 -0.813787 -0.261578 0.504622 
-0.314770 0.742514 -0.030011 -0.674033 0.524469 -0.475882 
0.287508 -0.105699 -0.089153 0.489057 -0.128053 -0.859004 
-0.922909 -0.462221 1.401700 -0.148338 0.301230 -0.755297 
-0.121282 -0.711081 -0.051326 -0.016651 -0.111103 -0.977985 
-0.202783 1.035733 0.062309 -0.654778 0.388189 -0.623115 
-0.601612 0.221168 1.528177 -0.947995 0.258809 0.013883 
0.781383 -0.373326 0.919307 -0.918830 -0.254352 0.191675 
0.423968 1.076871 1.671660 -0.845198 -0.219187 0.479395 
0.170109 -0.768991 0.118886 -0.039106 -0.323402 0.876218 
0.166117 -0.165851 -0.157576 0.502046 -0.088469 -0.850752 
-0.533859 0.271001 1.769555 0.885302 -0.317036 0.143485 
-0.831198 -0.226905 1.161614 0.970208 -0.151187 0.109752 
0.162252 -0.898966 0.050076 -0.216101 -0.351607 0.850116 
-0.504512 0.087185 2.817222 -0.953583 0.241456 -0.115613 
0.314855 0.738994 0.339722 0.721773 0.264214 0.594105 
0.048261 -0.566015 -0.070345 0.150165 -0.281869 -0.925153 
-0.464209 0.196325 2.149373 0.786908 -0.472762 -0.381126 
1.204826 -0.079389 2.635683 -0.790253 -0.213611 0.568930 
-0.654455 -0.014559 0.490097 0.640183 -0.255839 0.539480 
0.909720 0.624052 2.526400 0.874174 0.242246 -0.412946 
0.242384 -1.242833 0.043824 -0.177323 -0.026700 0.979362 
-0.812910 0.102062 0.830712 -0.973368 0.095374 -0.073062 
-0.015862 1.415247 0.150568 -0.438793 0.790620 -0.298282 
0.195892 1.031686 0.045149 0.633064 0.398551 -0.661900 
1.217156 0.587303 3.066680 -0.847201 -0.291056 0.440938 
-0.819357 0.049208 0.891823 -0.973690 0.090927 -0.050710 
0.606402 0.178742 1.272992 0.978883 0.135132 -0.038533 
-0.626741 -0.693854 0.544004 0.739553 -0.100937 0.529672 
0.001147 -0.692174 0.191263 0.508373 -0.337263 0.788574 
0.473464 -0.486556 0.225233 -0.414497 -0.165170 0.795406 
-0.547229 0.236330 0.331640 0.506635 -0.409103 0.706190 
1.062485 -0.170877 2.447040 0.799437 0.106860 -0.582863 
-0.445859 0.545133 3.042790 -0.955742 0.243538 -0.118185 
0.098885 0.796199 -0.110192 0.456206 0.341000 -0.797910 
-0.655015 0.087502 1.382396 0.939136 -0.299135 -0.109288 
-0.581761 1.038820 1.248264 -0.890610 0.306281 -0.092450 
-0.471287 0.238340 0.002996 -0.726837 0.058160 -0.668912 
0.044058 0.573011 0.488564 0.142623 0.143386 0.964554 
0.884197 0.235005 2.305675 0.753854 -0.016309 -0.645820 
0.576436 -0.173846 0.419031 0.907632 0.038155 -0.355172 
0.820900 0.084403 2.166629 -0.832396 -0.071342 0.525425 
-0.128169 -0.327460 0.291000 -0.123039 -0.351046 0.926384 
-0.454464 0.621167 0.524198 0.913913 -0.124776 0.374886 
1.270441 0.297874 3.002094 0.847196 0.267210 -0.458983 
0.625135 0.268663 1.639632 0.865417 0.066448 -0.417566 
-0.597907 0.771451 1.207461 -0.923556 -0.025330 0.318001 
-0.504422 0.299400 0.034081 -0.769378 0.087042 -0.627310 
0.155960 -0.124376 0.375781 0.256443 -0.301265 0.909999 
-0.316621 -0.088461 -0.076148 -0.529017 -0.104116 -0.825927 
0.014622 0.027543 0.460436 0.100000 -0.315173 0.943542 
-0.424894 0.680412 0.214394 -0.682047 0.718484 -0.070650 
-0.495340 0.440926 3.158456 0.949898 -0.214458 0.197652 
-0.654982 0.237153 0.606849 0.735332 -0.428720 0.433345 
1.188874 0.464818 2.943480 0.850646 0.227366 -0.469319 
0.316583 0.423334 -0.082775 0.483828 -0.043673 -0.870872 
-0.804701 -0.358849 0.811232 0.909344 -0.100052 0.287714 
0.675331 -0.485449 0.677969 0.863703 0.135790 -0.323640 
-0.324948 0.215477 0.368434 -0.493378 -0.123154 0.849900 
-0.435613 0.490986 2.974636 -0.970121 0.121998 -0.186072 
-0.411067 1.206139 1.760352 0.996644 -0.023202 -0.050314 
-0.893177 -0.557811 1.155222 -0.967037 -0.006099 -0.213066 
0.478784 0.566828 0.565683 0.811919 0.543304 0.023653 
0.134734 -0.615420 -0.058037 0.035488 -0.211852 -0.972114 
0.692578 -0.305226 0.740589 -0.909578 -0.178732 0.269028 
0.105987 -0.080597 0.402101 0.193555 -0.308705 0.924340 
0.015421 0.743238 -0.160709 0.245705 0.231379 -0.937233 
-0.487579 -0.795268 0.246084 0.601972 -0.131704 0.703697 
-0.568077 0.699598 0.996462 0.953262 -0.226726 0.018536 
0.635931 0.834026 1.993219 0.935771 0.199510 -0.250092 
0.058864 1.212336 0.082887 0.485377 0.307537 -0.803807 
-0.616804 0.238906 1.348243 0.929582 -0.333495 -0.090671 
-0.867702 -0.457636 1.040421 0.951307 -0.054882 0.237661 
-0.836400 -0.569991 1.013548 -0.932288 -0.001908 -0.267581 
0.632176 -0.401208 1.597093 0.877252 -0.062410 0.075686 
0.186399 1.123309 0.108820 0.678214 0.454074 -0.500028 
0.497495 0.475048 1.471286 -0.906123 -0.298199 0.208025 
0.421083 0.462734 0.010182 0.680926 0.072682 -0.629840 
0.635159 0.491975 1.778419 0.951655 0.268205 -0.054720 
0.634104 -0.693449 0.617166 -0.738048 -0.237203 0.452980 
-0.895229 -0.264957 0.951950 -0.982135 0.053895 -0.171783 
0.380738 -0.234899 0.189446 0.169174 -0.179932 0.874033 
0.550030 0.235042 0.752851 -0.868685 -0.434480 0.202036 
-0.544899 0.287560 0.104756 -0.786017 0.093618 -0.589258 
-0.525228 0.906870 1.293633 0.900352 -0.411213 0.082126 
0.615929 -0.042699 0.449280 0.900787 0.068708 -0.362086 
1.191687 0.691459 3.085339 -0.843020 -0.182365 0.490954 
0.434602 0.516629 0.469568 -0.930922 0.076164 0.309240 
-0.054484 -0.316626 0.293524 -0.018384 -0.365575 0.924903 
-0.199915 -0.520241 -0.076311 -0.023384 -0.315748 -0.918494 
0.623666 0.090508 1.629909 -0.979385 -0.162890 0.051227 
-0.283447 -0.228892 0.282633 -0.499899 -0.273145 0.812608 
0.722242 -0.327853 1.337940 0.799115 0.266338 0.343358 
0.644111 0.112240 1.692550 -0.981241 -0.171929 0.018324 
0.659617 -0.109459 1.350385 -0.906435 -0.219344 -0.043444 
0.615873 0.364964 0.809171 0.973877 0.172798 0.049837 
0.556648 0.366825 1.313046 0.978847 0.115592 0.027802 
-0.460973 0.049878 0.234270 0.202874 -0.313961 0.832530 
0.855929 0.806394 2.513917 -0.875873 -0.245741 0.413257 
-0.684940 0.158443 0.422577 -0.873634 0.108008 -0.394403 
-0.652157 0.378768 1.048670 0.929257 -0.309537 0.109008 
0.458459 0.571234 0.930651 -0.969973 -0.223508 -0.024539 
0.211726 -0.687919 0.136660 0.131960 -0.306400 0.886192 
0.056763 -0.034824 0.428212 0.137527 -0.314760 0.935345 
0.419526 0.312910 -0.008905 0.632905 -0.016698 -0.735699 
-0.534526 0.044833 2.948460 -0.953832 0.236718 -0.181521 
0.460876 -0.034601 0.113640 0.845230 -0.012569 -0.508592 
0.881403 -0.720310 1.117009 -0.825999 -0.407092 0.187571 
0.301693 0.146750 0.368595 0.539129 -0.171289 0.816233 
0.412339 0.032518 -0.007293 0.754020 -0.038926 -0.629923 
0.384095 0.315779 0.321339 0.085953 -0.206444 0.838678 
-0.658938 -0.346758 0.478663 -0.878251 0.019280 -0.369755 
0.385278 -0.158876 0.205187 0.141157 -0.162514 0.881360 
-0.563639 0.704584 1.205374 0.909571 -0.382081 0.083262 
-0.495099 -0.616404 0.238218 0.478567 -0.141440 0.754585 
0.099552 -0.676011 -0.056979 0.009727 -0.121858 -0.975635 
0.625177 -0.246936 1.596198 -0.928433 -0.025603 -0.264076 
-0.412884 0.298209 2.574418 0.977075 -0.143034 0.116961 
-0.362719 0.701437 0.004800 -0.627131 0.514655 -0.453330 
-0.386950 0.308319 2.281847 0.984459 -0.054982 0.125709 
0.374796 0.466814 -0.050676 0.595986 0.001451 -0.759586 
0.220321 -1.288635 -0.004980 -0.228055 -0.016741 -0.959782 
-0.326772 0.797579 0.092883 -0.826902 0.433456 -0.263029 
1.078750 0.316620 2.665227 -0.821796 -0.213746 0.516185 
-0.308455 -0.538849 0.146441 -0.308931 -0.241706 0.892524 
0.344094 -0.647746 0.025841 0.749245 -0.061982 -0.623698 
-0.494104 0.333495 3.050511 -0.959703 0.171837 -0.200579 
0.790880 0.016111 2.040306 0.920324 0.074908 -0.289470 
0.736917 -0.247019 1.914873 -0.798618 -0.000287 0.553084 
-0.715133 0.111055 1.108289 0.946569 -0.250668 0.040240 
-0.165871 -0.005338 0.423256 -0.321801 -0.277369 0.899068 
0.456046 0.681242 0.174313 0.755629 0.618352 -0.148426 
0.164432 1.088286 0.395024 0.821690 0.356773 -0.162211 
-0.733456 0.158499 0.764991 0.869787 -0.384171 0.272819 
0.158083 0.903516 -0.036554 0.591326 0.403648 -0.675087 
0.002032 -0.079198 -0.222142 0.363259 -0.119468 -0.902013 
-0.783786 -0.223476 2.028843 0.799882 -0.510231 -0.097764 
0.557642 0.720956 1.621583 0.962711 0.132339 -0.072925 
0.458884 1.013085 1.670732 -0.755888 -0.482134 0.394087 
0.552403 -0.261102 0.403711 0.912971 0.019012 -0.348492 
0.703837 -0.269230 1.372666 0.821336 0.251524 0.291363 
-0.385075 0.570280 -0.000192 -0.620014 0.211806 -0.625194 
-0.412310 0.591177 1.979988 -0.979400 0.074958 0.166054 
-0.399381 0.749514 2.089370 -0.976139 -0.001833 0.170570 
-0.222115 1.103078 0.290766 -0.867446 0.469851 0.094679 
-0.429970 1.076903 1.921374 -0.944305 -0.051459 0.269697 
-0.437607 0.556997 0.473108 0.902461 -0.098436 0.374533 
0.285929 0.721472 -0.087206 0.524619 0.413596 -0.722389 
0.487861 0.553464 0.648487 -0.957888 -0.166546 0.115877 
-0.419934 0.503833 0.027778 -0.648495 0.179701 -0.596090 
0.349762 0.629843 0.333736 0.441440 0.154463 0.771344 
-0.412508 0.961294 2.046475 -0.961352 -0.035474 0.211457 
-0.539892 0.066295 0.309564 0.459083 -0.336275 0.731650 
0.880641 -0.149738 2.280219 -0.817449 -0.027210 0.570639 
0.532683 0.306675 0.796300 -0.877158 -0.423321 0.187084 
0.955915 0.509008 2.553197 -0.836060 -0.203883 0.498182 
0.633126 0.936911 2.020515 0.936766 0.163394 -0.264009 
-0.012068 0.466478 -0.198573 -0.378951 0.068533 -0.921409 
0.464289 -1.037361 0.156701 0.595288 0.268481 -0.663713 
-0.472655 0.021747 2.487064 -0.936854 0.309225 0.091995 
0.598450 -0.639107 0.536611 0.794840 0.110127 -0.434875 
-0.413376 0.334556 2.106537 0.808088 -0.401922 -0.415397 
0.224371 -0.073876 -0.123328 0.489325 -0.093896 -0.859976 
1.120666 -0.048323 2.492513 0.779803 0.164875 -0.595550 
-0.298591 -0.492385 -0.052626 -0.646742 -0.125975 -0.726382 
0.461130 0.632155 1.390194 -0.872150 -0.364720 0.248815 
0.915723 -0.624149 1.336428 -0.834338 -0.428224 -0.120800 
0.600548 0.133318 0.681990 -0.839632 -0.364931 0.284210 
0.918235 0.957994 2.699275 0.836174 0.450769 -0.285394 
0.060750 -0.108180 -0.199128 0.413502 -0.107257 -0.883564 
0.494101 0.512958 1.286324 -0.888943 -0.348042 0.232079 
0.731678 -0.106374 0.805176 0.977463 0.137343 -0.144172 
0.785162 -0.486788 1.301170 -0.770819 -0.342118 -0.386129 
-0.583373 0.665743 0.805532 0.943634 -0.117342 0.079896 
-0.690988 0.008919 1.695817 -0.892009 0.371248 -0.203243 
-0.899833 -0.400349 1.604656 0.518049 -0.408317 0.283863 
0.697362 1.105055 2.300778 -0.870590 0.065047 0.453919 
0.642437 -0.518675 0.614358 0.844181 0.116518 -0.364459 
0.916006 0.553303 2.500334 0.877067 0.275231 -0.376879 
0.500095 0.634538 0.214115 0.835116 0.505428 -0.135579 
0.883279 -0.519381 1.185206 -0.886057 -0.367449 0.023797 
0.077379 -0.990801 -0.039431 0.012134 -0.511004 0.811522 
-0.857666 -0.600850 1.092853 -0.943710 -0.010432 -0.251414 
-0.561456 -0.077585 0.335823 0.466769 -0.263874 0.705138 
0.946345 0.089888 2.360542 0.763666 0.016787 -0.635123 
-0.841000 -0.739676 1.135182 0.903962 -0.018661 0.310275 
-0.735510 0.193931 0.644188 -0.934938 0.168261 -0.241260 
0.218460 0.856361 0.400321 0.620258 0.021480 0.776754 
-0.686752 0.361655 0.896062 0.920362 -0.307551 0.203643 
0.826655 -0.434746 1.119370 -0.882459 -0.316134 -0.016579 
1.228428 0.249343 2.897912 0.846698 0.264784 -0.460391 
0.360498 1.164737 1.576187 -0.862819 -0.230376 0.444219 
0.781937 0.316628 2.114036 -0.895493 -0.141825 0.412721 
0.589214 0.282238 1.193048 0.975990 0.132264 0.027562 
0.581606 -0.857776 0.523443 0.723191 0.151679 -0.497788 
-0.464944 0.449149 0.043789 -0.708699 0.180069 -0.574690 
1.153658 0.562320 2.936823 -0.847068 -0.305175 0.431483 
-0.402653 0.494871 0.405176 0.829303 -0.216672 0.476572 
-0.383775 0.648594 2.306214 0.984369 -0.143659 0.051665 
0.285121 0.358900 -0.074549 0.424734 -0.045128 -0.901764 
-0.358831 0.569350 2.569866 0.984934 -0.156492 0.005305 
-0.781806 -0.102833 0.633539 -0.942858 0.060660 -0.259167 
0.675687 -0.059398 0.757555 -0.905675 -0.258101 0.241021 
0.807644 -0.391293 2.087187 -0.878715 -0.022475 0.454201 
-0.232316 0.496024 -0.122483 -0.468678 0.005371 -0.877827 
-0.136313 0.640137 0.462375 -0.115672 0.279244 0.940460 
0.102636 0.146132 0.485936 0.262011 -0.207512 0.928773 
0.519413 0.466827 0.792810 -0.976087 -0.032091 -0.070001 
-0.748704 -0.474675 0.733592 0.855048 -0.098182 0.365554 
-0.489528 1.170778 1.511377 -0.870195 -0.288500 0.294805 
0.633905 -1.036483 0.351015 -0.573296 -0.606558 0.506879 
-0.496533 -0.002096 2.343238 -0.916975 0.345793 0.125530 
0.583535 -0.476095 1.435656 -0.877553 0.048089 -0.417284 
0.868668 0.400062 2.321927 -0.791573 -0.114114 0.597403 
0.370974 0.912612 1.226807 -0.969179 -0.218919 0.002146 
0.615163 -0.180532 0.504797 0.922243 0.058111 -0.317031 
-0.867188 -0.245785 1.025885 0.976002 -0.120863 0.167413 
-0.066116 -0.429177 -0.159228 -0.233763 -0.339331 -0.906225 
-0.539451 0.233591 1.868116 0.850460 -0.379569 0.035634 
0.658054 0.428977 1.799013 0.955380 0.262970 -0.043829 
-0.715655 0.146675 0.690549 0.817640 -0.359427 0.342901 
-0.343961 0.930684 2.478729 -0.938278 0.276540 0.195156 
0.553960 0.287614 1.252676 -0.927462 -0.281325 0.190935 
-0.654513 0.369757 0.483858 -0.893031 0.259423 -0.234581 
-0.387899 0.847828 2.222991 -0.981628 -0.005065 0.142918 
-0.394549 0.898800 2.175373 -0.974609 -0.010047 0.166999 
0.483752 0.593920 0.867740 -0.971149 -0.101385 -0.166691 
-0.670136 -0.014974 2.042877 -0.785946 0.510902 0.341725 
-0.006400 -0.403292 -0.185861 -0.220395 -0.359208 -0.890418 
-0.141085 -1.054196 -0.090213 -0.364116 0.216856 -0.880789 
0.247293 -0.212940 -0.114359 0.505697 -0.130797 -0.847817 
-0.759083 -0.866418 0.809463 -0.792744 0.248758 -0.365475 
0.532160 -0.043300 0.270011 0.871556 0.024430 -0.439585 
0.388936 -0.159927 0.011441 0.839799 -0.059824 -0.533707 
-0.594742 0.267741 3.352932 0.937185 -0.229395 0.261082 
-0.609836 -0.307404 2.571871 -0.882101 0.430826 0.142359 
-0.250556 -1.374291 0.013438 0.722399 -0.564214 0.140135 
-0.088674 0.875804 -0.094741 -0.491690 0.390723 -0.761015 
0.724105 -0.266469 1.208766 0.857530 0.222680 0.175961 
0.716793 -0.253584 1.844411 0.882099 -0.013051 -0.442123 
-0.628157 0.397979 0.809792 0.854805 -0.404939 0.233530 
0.550955 -0.574576 0.434179 0.802478 0.055565 -0.466729 
0.646686 -0.368932 0.639435 -0.830659 -0.173572 0.363870 
0.828887 -0.735366 1.010587 -0.799391 -0.376204 0.250310 
0.712792 -0.567615 0.761961 0.849247 0.188339 -0.302154 
-0.804920 -0.273536 2.104850 -0.796824 0.531058 0.232366 
-0.345982 0.753167 2.651160 0.970800 -0.210617 -0.032198 
1.177238 0.271288 2.817432 0.853000 0.278029 -0.435637 
1.108603 0.651319 2.898046 0.854443 0.185326 -0.480037 
-0.576019 0.488757 0.628617 -0.660273 0.668897 -0.196791 
0.542515 0.359622 1.117437 -0.905077 -0.330451 0.221282 
-0.511034 -0.068169 2.594865 -0.932395 0.322573 0.053473 
-0.548527 -0.058961 0.234955 -0.851473 0.017339 -0.470325 
-0.700411 -0.087368 2.070871 0.777214 -0.501053 -0.074586 
0.633747 0.626257 1.874575 0.922732 0.214658 -0.286567 
0.401314 0.963594 1.143705 0.497064 0.540336 -0.488710 
0.330131 -0.497181 0.150232 0.288269 -0.242345 0.871603 
0.000660 -0.848330 -0.088179 0.656228 0.108024 -0.721219 
0.244490 0.418976 -0.100721 0.437089 -0.021695 -0.894141 
0.051176 0.001573 -0.207607 0.435254 -0.051334 -0.881153 
0.504851 0.649334 1.208220 0.977135 0.066607 0.122465 
0.520376 0.380616 1.488586 -0.924835 -0.264640 0.186209 
-0.408621 0.327630 -0.020787 -0.556048 0.003943 -0.797920 
0.682804 0.875991 2.118178 0.925683 0.178600 -0.303134 
-0.395032 0.797323 2.157529 -0.980007 -0.015720 0.150175 
0.620030 0.567185 1.788050 0.944565 0.226516 -0.120204 
0.723333 0.301068 1.964395 -0.821079 -0.095684 0.521264 
0.712266 1.009213 2.253841 0.915940 0.184348 -0.334304 
-0.820683 -0.789454 1.020511 -0.871429 0.113183 -0.303433 
-0.627912 0.709432 1.051800 -0.942119 0.002978 0.310189 
-0.603874 0.587328 1.297220 -0.926047 0.069494 0.271035 
0.507509 0.508404 0.988195 -0.871723 -0.405729 0.260806 
0.894048 0.447709 2.402143 -0.804734 -0.147641 0.565747 
0.558715 0.183181 0.233000 0.845156 0.055200 -0.490154 
0.714358 -0.169390 0.940786 -0.958816 -0.184898 0.159721 
-0.234603 1.091184 0.220603 -0.879219 0.428823 -0.078613 
0.636224 -0.335190 1.453100 -0.850469 -0.130389 -0.336586 
0.640084 -0.962449 0.486063 -0.619683 -0.460072 0.501358 
-0.199405 0.941364 0.007706 -0.639607 0.435972 -0.620507 
0.561921 0.292641 1.127418 -0.915953 -0.304979 0.210928 
0.471154 -0.900361 0.303211 0.678730 0.069377 -0.620478 
-0.184505 1.099007 0.083664 -0.643855 0.431026 -0.585654 
0.620293 -0.522370 1.562989 -0.896917 0.054384 -0.259546 
0.112803 1.102923 0.463865 -0.200164 0.160852 0.917728 
-0.337729 0.438945 -0.079635 -0.490001 -0.035187 -0.868819 
0.689843 -0.875461 0.691376 -0.686003 -0.358715 0.440058 
-0.493107 0.584684 0.410854 -0.694890 0.690618 -0.050460 
-0.561908 -0.759958 0.412015 0.682365 -0.112803 0.608658 
0.303651 -0.043676 0.317174 0.539158 -0.214693 0.805726 
0.157803 -0.587347 0.188677 0.208766 -0.347857 0.911682 
-0.538822 -0.843530 0.426362 -0.740731 -0.021113 -0.578478 
-0.676070 0.007242 1.783558 0.822786 -0.386214 0.317529 
-0.787670 -0.837321 0.895740 0.807294 -0.228872 0.352190 
0.789935 -0.355430 1.027401 -0.903474 -0.269237 0.030057 
0.559755 0.426616 1.127626 0.972848 0.129096 0.113562 
0.605536 -0.005680 0.557837 -0.739163 -0.258625 0.475769 
0.715811 0.721019 2.152875 -0.840737 -0.141820 0.510517 
-0.593566 -0.716500 0.469545 0.711223 -0.109315 0.568258 
-0.424955 0.230538 2.526838 -0.958700 0.234453 0.022707 
-0.745474 0.275953 0.734954 -0.963836 0.219591 -0.144274 
0.706850 0.170822 1.879048 -0.722031 -0.022322 0.661602 
0.421820 -0.139955 0.073631 0.848163 -0.040983 -0.509837 
0.346904 0.328945 -0.048309 0.460404 -0.061235 -0.877830 
0.048727 -0.437577 0.256208 0.053965 -0.218240 0.971501 
-0.515499 -0.119950 2.543342 0.936347 -0.270413 0.033525 
0.486993 0.704013 1.580499 -0.882785 -0.377298 0.153469 
0.200523 0.387294 0.477474 0.372109 0.003923 0.923731 
-0.021098 -1.201269 -0.198138 -0.548274 -0.771256 -0.171741 
-0.023035 0.303764 -0.220589 -0.440970 0.061771 -0.894026 
0.246016 0.013326 -0.108966 0.476561 -0.086755 -0.868727 
0.608357 0.115416 0.416457 0.889781 0.084467 -0.366463 
-0.130988 -0.877908 0.042743 0.090313 -0.422052 0.855614 
-0.043778 0.235276 -0.215371 -0.456613 0.044997 -0.885670 
-0.336976 0.872782 2.517689 0.993210 -0.023315 -0.018529 
0.196246 -0.251700 0.308372 0.300005 -0.308877 0.881418 
0.740715 -0.306597 1.031330 -0.875973 -0.240308 -0.081365 
0.211381 0.316696 0.471597 0.444297 -0.019816 0.886768 
-0.441069 1.111022 1.841688 -0.936453 -0.067892 0.295941 
0.655154 0.025686 0.957088 -0.941255 -0.240145 0.202092 
-0.531190 -0.024526 2.808999 0.945755 -0.254990 0.128690 
-0.653875 -0.640387 0.583271 0.765641 -0.101295 0.492389 
-0.626734 0.292390 0.694922 0.822354 -0.408780 0.333025 
-0.723487 -0.146752 0.593871 0.732179 -0.170221 0.429951 
1.033568 0.417555 2.637923 0.866825 0.280469 -0.398482 
-0.666559 -0.677923 0.640341 0.772616 -0.088559 0.485202 
-0.690973 0.056040 1.323351 -0.951795 0.247250 0.097323 
-0.219148 -0.172557 -0.129125 -0.502914 -0.110604 -0.849692 
-0.420300 0.640804 0.068187 -0.693939 0.400884 -0.450614 
-0.716804 -0.127075 2.133284 0.769358 -0.529318 -0.170053 
-0.052568 -1.062876 -0.086692 -0.173189 -0.505234 0.774918 
0.268515 -0.886570 0.073563 -0.153294 -0.191113 0.896104 
-0.833126 -0.020058 0.902853 -0.974859 0.105992 -0.085119 
-0.620323 0.105556 1.775576 0.824041 -0.367654 0.332827 
-0.654217 -0.049456 0.405004 -0.887436 0.043504 -0.384482 
0.290697 -0.111981 0.309144 0.521607 -0.235483 0.810158 
0.060171 1.100871 0.025301 0.370681 0.447519 -0.800402 
-0.524254 0.955329 1.234027 0.898426 -0.413880 0.123051 
-0.587148 -0.247192 0.365830 -0.900110 -0.015755 -0.374850 
0.602081 0.373984 1.751841 -0.937735 -0.214290 0.216099 
0.620420 0.288417 0.579731 0.950379 0.171155 -0.094586 
0.515856 1.188404 1.814965 0.917270 0.259560 -0.295633 
0.140940 -0.475995 0.235330 0.126493 -0.331709 0.932209 
-0.630905 0.424096 1.232421 -0.942020 0.150739 0.235617 
0.508387 0.626476 1.591536 -0.898672 -0.351825 0.131088 
-0.339104 -0.178107 -0.063650 -0.624314 -0.087879 -0.750471 
-0.508234 0.601395 0.311145 -0.759625 0.624701 -0.096530 
0.337370 0.711424 -0.039734 0.585503 0.461913 -0.602707 
1.030860 0.355005 2.600191 -0.817852 -0.198392 0.527701 
0.777075 -0.359578 2.011519 -0.855392 -0.014311 0.479793 
-0.396205 0.210137 0.330647 -0.283827 -0.234193 0.806570 
0.704579 -0.200679 1.238893 0.884346 0.204551 0.111575 
0.900560 0.501161 2.445642 -0.820028 -0.168454 0.535120 
-0.647440 0.066338 1.677409 0.776442 -0.464619 -0.361304 
-0.812015 -0.735938 1.064201 0.883696 -0.019364 0.341786 
-0.815426 -0.001600 0.695429 -0.950273 0.102445 -0.229912 
-0.467785 0.155499 0.025548 -0.782946 0.046686 -0.610049 
-0.387969 1.110388 1.977106 0.995590 -0.025833 -0.059915 
0.750258 0.707115 2.221588 0.910249 0.229773 -0.341114 
-0.228650 0.664799 0.421808 -0.414876 0.263497 0.825803 
0.940504 0.628742 2.594895 -0.862661 -0.232686 0.447539 
-0.844526 -0.101983 0.794987 0.951316 -0.144733 0.214948 
0.752913 0.149116 1.953959 0.951249 0.116798 -0.210713 
0.586054 0.222192 1.578449 -0.967643 -0.212694 0.088964 
-0.373771 0.519719 2.352108 -0.989109 0.092868 0.049392 
0.815287 -0.450305 0.986860 -0.902888 -0.295967 0.177802 
0.550599 -0.847810 0.459507 0.717411 0.122984 -0.527664 
0.661925 0.404910 1.872162 -0.841906 -0.114685 0.513109 
-0.498179 -0.546882 0.245616 -0.791556 -0.020693 -0.527517 
0.890024 -0.554505 1.252927 0.859229 0.365547 0.090364 
-0.545807 0.979747 1.086914 -0.657525 0.441914 -0.416784 
-0.547222 -0.688752 0.333997 -0.752754 0.008301 -0.552049 
-0.276032 0.365327 -0.077877 -0.399637 -0.035504 -0.914104 
0.478087 0.719714 1.354647 0.983135 0.024090 0.068285 
0.569192 0.211919 0.332197 0.874286 0.077459 -0.390136 
0.223809 0.683814 -0.125791 0.462000 0.210057 -0.845340 
-0.419726 0.654502 1.952226 -0.984713 0.020029 0.148618 
-0.504074 0.340666 0.300790 0.399874 -0.423430 0.761132 
-0.813665 -0.246179 1.311991 -0.975953 0.152186 -0.011131 
-0.608678 -0.026932 0.322191 -0.867012 0.038153 -0.430371 
0.641022 0.162786 1.016452 0.974122 0.130720 -0.012540 
0.530157 -0.525966 0.377699 -0.608053 -0.165364 0.619419 
-0.171754 0.287550 -0.143814 -0.433742 0.001719 -0.897917 
-0.564065 0.509635 0.305297 -0.832486 0.430549 -0.205392 
0.447670 0.921840 1.493545 0.948046 -0.047711 -0.057367 
0.830543 0.486613 2.289322 -0.817510 -0.110584 0.558636 
-0.380120 0.490482 2.249568 -0.985190 0.094818 0.094592 
-0.310227 -0.127114 0.293494 -0.521378 -0.241949 0.810748 
-0.404836 -0.283032 0.079474 -0.841675 -0.065215 -0.516423 
-0.018459 0.893119 -0.118911 -0.415016 0.405878 -0.803380 
0.335599 -0.847412 0.025068 0.669685 -0.040219 -0.715088 
0.708146 0.653578 2.086530 0.892158 0.143844 -0.421903 
-0.893358 -0.431018 1.185572 0.978518 -0.075012 0.181764 
0.584690 0.417344 0.920670 0.971051 0.129064 0.127876 
0.556199 0.421774 0.574587 0.744696 0.625483 -0.106257 
0.529365 0.248059 0.683910 -0.858510 -0.402914 0.259082 
-0.330602 0.298555 0.354296 -0.404607 -0.092790 0.892649 
0.412547 0.872468 1.151026 -0.801583 0.101387 -0.369028 
-0.596711 0.980667 1.206921 -0.958255 0.239072 0.016677 
0.084570 0.026934 0.450909 0.208523 -0.293349 0.924761 
-0.465731 0.488352 0.491480 0.888434 -0.115565 0.366259 
0.192742 1.068474 0.318063 0.373305 0.643762 0.472513 
-0.372561 -0.372385 0.159166 -0.229751 -0.220711 0.871026 
-0.091313 1.278672 0.295231 -0.341615 0.780426 0.517605 
-0.409656 1.170249 1.936217 0.889684 0.358010 0.094031 
-0.443087 -1.160591 0.126218 -0.584115 0.253830 -0.656473 
0.407057 0.396595 0.314277 -0.268838 -0.222481 0.807586 
-0.501531 -0.133324 0.235508 0.351924 -0.262319 0.813016 
0.524642 0.575242 0.333112 0.857095 0.475845 -0.079065 
0.310815 1.332988 1.450694 -0.732115 -0.196439 -0.569788 
0.071540 0.686446 -0.159591 0.313610 0.170166 -0.920740 
0.330160 -0.569645 0.126583 0.139509 -0.224568 0.906771 
1.122222 0.004831 2.536809 0.818700 0.254796 -0.481937 
-0.608355 0.425539 1.164803 0.922004 -0.346230 0.043414 
-0.271887 0.238029 0.419485 -0.481897 -0.085852 0.861437 
0.241775 0.118359 0.407254 0.459646 -0.209916 0.850718 
-0.202794 0.692719 -0.129054 -0.450973 0.213821 -0.846251 
-0.338109 -0.370501 0.001446 -0.825243 -0.101429 -0.550629 
-0.378887 1.072290 2.175281 0.932857 0.286361 0.060917 
-0.412750 0.524794 1.956509 -0.965553 0.136481 0.203769 
0.463459 0.672532 0.822572 -0.969083 -0.230217 0.002502 
0.688629 -0.393233 0.696104 0.895682 0.123492 -0.290725 
-0.520615 0.815780 1.557459 -0.889918 0.045984 0.343224 
-0.534030 -0.174374 2.501474 0.848882 -0.440910 -0.219018 
-0.618854 -0.340527 0.421266 0.558775 -0.142726 0.604595 
0.149753 -0.009375 0.426721 0.293630 -0.280342 0.908975 
0.723088 -0.184149 1.882528 -0.770179 0.005664 0.591814 
-0.159171 1.162314 0.112140 -0.643911 0.498983 -0.504287 
-0.571424 0.526313 1.383410 0.916800 -0.370067 -0.046251 
-0.897763 -0.482911 1.334102 0.982799 -0.090339 0.158050 
-0.094764 0.758302 0.429634 -0.118157 -0.032077 0.978672 
-0.735219 0.201995 1.039926 -0.961315 0.130256 0.078564 
0.575788 0.369218 1.563773 0.918340 0.072351 -0.246763 
0.380910 1.021977 1.541323 -0.744363 -0.235432 0.612580 
0.030605 0.153247 -0.222038 0.458001 0.022424 -0.880313 
-0.608538 0.288787 0.555797 0.679531 -0.470181 0.496549 
0.430767 0.767968 1.287088 -0.840989 -0.428967 0.286911 
0.261358 0.079617 -0.098665 0.466934 -0.080833 -0.875344 
-0.960043 -0.493495 1.843269 0.864654 -0.493422 -0.022344 
-0.593927 0.429645 1.300531 0.921348 -0.353972 -0.024942 
0.783661 -0.291791 2.030723 -0.832910 -0.012598 0.516035 
-0.776733 -0.198966 1.961448 0.810325 -0.482892 -0.004540 
-0.336356 -0.056590 0.295676 -0.544784 -0.217196 0.805904 
-0.564862 0.155680 0.355334 0.520513 -0.366368 0.681732 
-0.454615 0.541187 1.707308 0.965682 -0.209396 0.005303 
0.560015 0.512510 0.328720 0.914904 0.343597 -0.125850 
-0.592187 0.329565 1.462344 -0.946976 0.196784 0.135114 
0.418864 0.793085 1.461286 -0.845721 -0.401364 0.277351 
-0.458250 -0.532047 0.185671 -0.792226 -0.037429 -0.542343 
0.119098 0.638316 0.462958 0.092098 0.276764 0.944912 
-0.028496 1.074063 0.007188 -0.307599 0.460602 -0.823321 
-0.161018 -0.764706 -0.031813 -0.036733 -0.112822 -0.986609 
-0.273537 -0.222280 -0.100486 -0.504843 -0.143445 -0.846981 
-0.548355 0.812551 1.100918 0.942608 -0.247358 0.064756 
0.488865 0.006426 0.293143 -0.490684 -0.280853 0.751788 
0.567885 -0.652456 0.475817 0.782058 0.087751 -0.469153 
0.666305 0.067213 0.679840 0.957991 0.131133 -0.162465 
-0.011711 -1.115476 -0.163756 -0.426168 0.350240 -0.808642 
-0.260989 1.026067 0.223461 -0.898539 0.381631 -0.036163 
0.368079 0.564694 0.300653 0.204372 0.241197 0.852579 
-0.685778 0.227598 0.696559 0.803605 -0.437022 0.346129 
0.490474 0.847480 1.126237 0.892870 0.393152 -0.164475 
0.235167 -0.809753 0.086065 -0.099849 -0.267419 0.859868 
-0.724582 -0.437396 0.618533 -0.870897 0.037088 -0.356149 
0.313323 -0.270044 0.250214 0.549806 -0.258292 0.788886 
0.516409 0.539477 1.355842 0.981781 0.066882 0.037494 
-0.232469 1.016966 0.397475 -0.777667 -0.090554 0.582190 
-0.584276 0.594403 1.422083 -0.913784 0.068338 0.267098 
-0.808841 -0.084649 0.985050 0.965016 -0.169732 0.111113 
-0.725851 -0.670166 0.794340 -0.861191 -0.008759 -0.382905 
0.621290 0.022304 1.583813 0.925730 0.062963 -0.170301 
0.225453 -0.147205 -0.124705 0.498721 -0.108466 -0.853220 
0.293630 0.441590 0.372149 0.275440 -0.057103 0.954780 
-0.501683 -0.013124 0.141643 -0.826267 0.016879 -0.525108 
-0.857773 -0.319594 1.579665 -0.533370 0.357598 -0.425108 
0.938348 0.909099 2.744460 -0.855442 -0.200005 0.463606 
0.566491 0.234531 1.298247 -0.939316 -0.254562 0.176917 
0.575008 0.184359 0.628508 -0.796952 -0.382593 0.341871 
-0.430151 0.183432 2.476012 -0.951351 0.258657 0.057841 
-0.562191 -0.324669 0.333862 -0.875108 -0.019808 -0.410907 
-0.531829 0.693512 1.517670 -0.940189 0.007923 0.152286 
0.975264 0.852502 2.773768 -0.851118 -0.348827 0.391419 
0.431062 0.661517 0.418543 -0.751176 0.218887 0.397610 
-0.494676 0.545260 1.647226 -0.838648 0.202777 0.449840 
0.440023 -0.362336 0.134678 -0.287832 -0.183907 0.909684 
0.237964 0.951042 0.059612 0.722376 0.399448 -0.514012 
0.810717 -0.675179 0.974635 -0.815168 -0.349169 0.251929 
-0.162624 -0.121547 -0.158905 -0.501017 -0.076607 -0.852437 
-0.495384 0.166432 2.905734 0.956643 -0.237628 0.153314 
0.428746 -0.069572 0.059287 0.839494 -0.032121 -0.526782 
-0.707476 -0.007390 1.358460 -0.955604 0.235549 0.089497 
0.546317 0.290666 1.525247 -0.945086 -0.231304 0.154603 
-0.493343 0.592398 0.573273 0.915460 -0.136692 0.353404 
-0.136143 -0.056077 -0.171832 -0.493396 -0.052331 -0.858297 
0.448402 0.501625 0.068106 0.732805 0.159481 -0.504968 
-0.237638 0.528169 0.408755 -0.324865 0.033517 0.936915 
0.214526 0.791402 -0.073783 0.541833 0.458581 -0.681152 
-0.552661 -0.236492 2.593990 0.921371 -0.342196 -0.033909 
0.315161 0.084415 0.342037 0.555349 -0.181854 0.805075 
0.721553 -0.384026 0.762088 0.907869 0.148915 -0.254879 
-0.623848 0.476855 1.046828 0.922236 -0.335330 0.121904 
-0.558536 0.325020 0.519198 0.693310 -0.446091 0.510973 
-0.419539 1.026965 1.996180 -0.953038 -0.038865 0.240142 
0.047957 0.840980 -0.125520 0.433491 0.347461 -0.819774 
-0.857073 -0.330783 1.924573 0.831537 -0.493092 -0.031534 
0.695490 -0.456952 1.786609 -0.934913 -0.022973 0.083082 
0.549729 0.418906 1.260991 0.977312 0.112312 0.060004 
-0.328627 0.834402 0.181990 -0.906642 0.357462 -0.040455 
0.641964 -0.071988 1.434286 -0.907640 -0.218396 -0.052209 
0.469680 0.620549 0.132124 0.793253 0.360711 -0.334890 
-0.511778 -0.832968 0.323519 0.636320 -0.117459 0.673317 
0.626475 1.061997 2.113209 -0.834823 -0.267791 0.462000 
0.708908 0.105366 1.805541 0.976336 0.084673 -0.161827 
0.375724 -0.074957 0.239741 0.237814 -0.164190 0.858086 
0.052413 0.497120 -0.171662 0.368288 0.052747 -0.926279 
0.701330 0.914421 2.174773 0.921777 0.162591 -0.327640 
-0.862126 -0.286568 1.131794 0.975717 -0.125226 0.146930 
-0.228863 0.834148 -0.047825 -0.567767 0.474894 -0.665590 
-0.655995 0.445228 1.100203 -0.951586 0.119018 0.230040 
-0.742799 -0.369849 0.616846 -0.884910 0.048238 -0.331018 
1.000544 0.705494 2.740572 -0.854091 -0.306114 0.415753 
1.255741 0.637450 3.163118 0.841543 0.323025 -0.405150 
-0.646828 0.323446 0.430825 -0.880202 0.174614 -0.336497 
0.187656 0.091047 -0.139252 0.470570 -0.045901 -0.874097 
-0.529211 -0.126064 2.452213 -0.914523 0.366406 0.115728 
1.190643 0.144878 2.760049 0.837770 0.269088 -0.460636 
1.105162 0.554251 2.838388 0.852896 0.198085 -0.477165 
-0.766897 -0.213923 2.135729 0.778153 -0.545201 -0.219603 
0.270613 0.376161 0.402939 0.353705 -0.053254 0.920770 
-0.438779 -1.036533 0.130540 0.524868 -0.269264 0.759635 
0.283050 0.270816 -0.081473 0.440734 -0.053730 -0.893725 
0.608851 0.237967 1.123934 0.975227 0.131626 0.013192 
0.243891 -0.179323 0.324057 0.451084 -0.272187 0.836857 
-0.762334 -0.149109 1.900307 -0.820617 0.488635 0.247384 
0.187646 0.127904 0.450356 0.393595 -0.213181 0.883877 
-0.453921 0.953665 1.632331 0.914262 -0.344552 -0.062638 
-0.506006 0.261261 3.032330 -0.957912 0.188456 -0.197745 
0.977012 0.579021 2.632543 -0.860357 -0.237962 0.449115 
-0.445618 0.724621 1.736417 0.948699 -0.233102 -0.099554 
1.112864 0.235303 2.674809 0.857692 0.301912 -0.395488 
0.036149 0.221795 -0.219793 0.464190 0.046511 -0.881464 
0.122447 0.052144 -0.176484 0.480117 -0.024414 -0.868456 
-0.390729 1.104392 2.060842 0.918433 0.253903 0.049110 
-0.760278 0.093582 0.769575 0.887975 -0.324542 0.261103 
-0.770730 -0.301563 0.643725 -0.906212 0.056989 -0.295512 
-0.427280 0.539404 1.887596 -0.964108 0.151583 0.216689 
-0.353717 0.983046 2.334368 0.971740 0.130110 -0.006103 
-0.607732 0.901031 1.126189 -0.828069 0.350094 -0.199688 
0.493367 -0.971992 0.308544 -0.573139 -0.235993 0.690262 
-0.601717 0.184109 1.752774 -0.826443 0.425995 0.360652 
-0.771023 -0.793777 0.953355 -0.863720 0.033738 -0.353149 
-0.258559 0.867918 0.352243 -0.765346 0.112258 0.588744 
0.086324 -0.810355 -0.072367 0.132530 0.043881 -0.944837 
0.736022 -0.350429 1.272153 0.801686 0.263132 0.327617 
-0.406603 0.706916 1.995431 -0.969752 0.011444 0.200532 
1.224377 0.316870 2.928708 -0.844297 -0.283265 0.453566 
-0.492570 0.423487 0.509208 0.875442 -0.131305 0.357963 
-0.475701 0.727490 1.663139 -0.886387 0.039134 0.327494 
-0.345058 -0.297927 -0.012657 -0.776550 -0.090416 -0.600102 
-0.283239 -0.147744 -0.093323 -0.491681 -0.132552 -0.855676 
-0.901828 -0.393028 1.714887 0.714768 -0.453739 0.062586 
-0.365724 -0.485406 0.114962 -0.068480 -0.199872 0.936867 
-0.788656 -0.014947 0.968703 0.960401 -0.187552 0.110967 
0.324979 -0.420345 -0.020380 0.771198 -0.109957 -0.592899 
0.112322 1.136889 0.052995 0.470013 0.433588 -0.759636 
0.917949 0.791077 2.619666 0.870516 0.187103 -0.451058 
-0.079808 -0.188681 -0.188444 -0.409700 -0.142546 -0.880985 
0.505452 -0.012875 0.200159 0.857411 0.012577 -0.474460 
-0.639221 0.471059 0.794673 0.985686 0.059037 -0.020597 
-0.458302 0.799927 1.703162 -0.926801 -0.030032 0.242631 
-0.516668 0.260637 1.931870 0.849048 -0.402843 -0.100475 
1.343080 0.536180 3.267936 -0.846388 -0.260776 0.463944 
-0.614081 0.183518 1.585554 -0.934414 0.289539 -0.074186 
0.676416 -0.013759 0.619375 0.935150 0.111429 -0.256505 
0.643862 -0.004496 1.226500 -0.968907 -0.182409 0.156540 
0.480032 0.679757 0.890902 0.799967 0.472495 -0.333238 
0.157945 0.215553 0.492526 0.374023 -0.126695 0.906939 
-0.121161 0.252754 0.504678 -0.299631 -0.092007 0.931907 
