0.679939 0.363222 0.995421 0.977170 -0.174916 -0.082619 
-0.207825 1.055341 0.266263 -0.243255 0.800109 0.412062 
-0.675877 -0.195163 1.193390 -0.951843 -0.226015 -0.046085 
0.626062 -0.123674 0.870232 -0.954708 0.000280 0.256449 
-0.444405 0.321401 0.234348 0.606396 -0.257491 0.738033 
-0.853548 -0.059661 2.566906 -0.851558 -0.512729 -0.049832 
0.224045 0.481074 0.332012 0.276203 -0.112076 0.948678 
0.740582 0.753651 1.455405 -0.865287 -0.254901 0.357342 
0.721771 0.654867 1.174744 0.969799 -0.219597 -0.080770 
-0.898467 0.024274 2.375300 -0.887694 -0.430353 -0.110547 
-0.764634 0.807796 1.188745 0.961688 0.188914 0.180306 
0.039851 -0.361904 0.218750 0.052141 -0.136696 0.986608 
-0.112963 1.231523 0.304042 -0.015908 0.856245 0.472161 
-0.177488 1.223772 0.338770 -0.884852 -0.416207 -0.125276 
0.262226 0.547556 -0.212737 0.525175 0.123506 -0.823499 
-0.698232 -0.089107 1.316547 -0.950351 -0.272051 -0.089023 
0.661284 -0.355570 2.099686 -0.737984 0.540392 0.290934 
-0.272561 0.464626 0.294423 -0.223302 -0.125666 0.961584 
0.512014 -0.834392 0.545196 -0.736028 -0.064233 0.504107 
0.821651 0.998051 1.613211 0.944305 -0.274846 -0.020569 
0.204215 -0.852440 0.078561 -0.252159 -0.108963 0.832208 
-0.482881 -0.147882 0.162786 -0.886756 -0.109105 -0.416028 
-0.776332 -0.087355 2.026475 -0.907306 -0.416363 0.009887 
0.695078 -0.701096 0.936842 0.973909 0.085943 -0.151451 
0.245495 -0.359276 0.179016 0.423591 -0.181000 0.849962 
-0.465845 0.662034 0.186295 -0.813030 0.545918 -0.114806 
-0.893813 0.351871 1.765485 -0.934843 -0.271634 -0.169766 
-0.159746 0.322449 0.375525 -0.340537 -0.129025 0.929388 
-0.627218 -0.070938 0.534671 -0.947719 -0.092092 -0.263059 
-0.249979 -1.151921 0.109238 -0.108355 0.169818 0.802451 
-0.611431 0.368180 0.592604 -0.807374 0.480301 -0.309064 
0.786341 0.865691 1.635431 -0.805138 -0.158657 0.487265 
-0.672802 -0.161734 1.881240 0.903360 0.385310 -0.130080 
-0.960809 0.174469 2.258198 -0.907148 -0.375617 -0.162847 
0.833131 0.532130 1.670523 -0.929521 -0.150453 0.135495 
0.346573 -0.807434 0.159174 0.706997 -0.158128 -0.637950 
0.949261 0.262895 1.901079 0.983958 -0.031198 -0.006540 
-0.435245 -0.512568 1.514878 0.861982 0.418757 -0.197242 
-0.042957 -0.846137 0.071901 -0.248683 -0.295918 0.882081 
-0.983469 1.195264 1.529924 -0.794104 -0.051121 -0.565203 
0.314080 -0.468061 0.122109 0.507575 -0.175390 0.809887 
-0.801342 0.527664 1.538795 0.933575 0.060242 0.212628 
-0.672421 -0.183931 1.467949 -0.936231 -0.294729 0.032395 
0.884345 0.886079 1.935127 -0.867462 -0.081855 0.403596 
-0.696988 -0.061860 0.880991 -0.968921 -0.172447 -0.129864 
0.498670 0.050977 0.433258 -0.750429 -0.137933 0.543858 
-0.021981 0.568163 0.399860 -0.082319 -0.043799 0.989060 
0.941796 0.367302 3.081350 -0.924424 0.111728 -0.320801 
0.660674 -0.432538 1.183429 -0.966484 0.117612 -0.013868 
-0.927522 0.214614 2.827602 -0.910305 -0.370111 0.167044 
0.647931 -0.381532 1.011062 0.964599 -0.111802 -0.056288 
-0.366159 -0.195367 0.110615 -0.124019 -0.119861 0.912501 
-0.041406 1.250583 0.280696 -0.104115 0.789067 0.598582 
0.387955 -0.791433 0.289186 -0.607060 0.007943 0.695268 
-0.799423 0.484536 1.374832 -0.921652 -0.375758 -0.036603 
0.548819 -0.702361 0.606726 0.860572 -0.022201 -0.373544 
-0.632002 -0.334586 0.651443 -0.938788 -0.115488 -0.240539 
-0.102884 0.780405 -0.195407 -0.459179 0.398787 -0.771823 
-0.999724 0.734759 1.941069 -0.838455 -0.463050 -0.216235 
-0.643549 -0.557409 0.996845 -0.968296 -0.083476 0.027143 
-0.886555 0.505949 1.688918 -0.807057 -0.371887 -0.387839 
0.753552 -0.346092 2.430533 0.834289 -0.548329 -0.033697 
-0.447670 -0.510644 1.879881 -0.795037 -0.541371 -0.111383 
0.813529 -0.080598 3.025265 0.902633 -0.325496 0.252892 
0.786421 0.073369 1.550028 -0.943126 0.157057 0.170123 
0.834623 0.096710 3.180135 0.903486 -0.266146 0.331368 
0.646410 -0.406215 1.435555 0.902312 -0.318230 0.086250 
0.279048 -0.074214 0.214752 0.492479 -0.189369 0.833404 
-0.521042 -0.494944 2.122876 -0.835754 -0.516039 -0.139766 
-0.083606 0.561655 -0.274471 -0.409126 0.171072 -0.883848 
0.325276 0.679017 0.293213 0.652667 0.232308 0.705346 
-0.872945 0.059806 2.675913 0.919728 0.320353 -0.151227 
-0.412138 0.388160 0.253620 0.709242 -0.117680 0.640875 
-0.707730 0.461327 1.062311 0.912755 -0.047116 0.346946 
-0.608582 -0.446387 1.386593 -0.925371 -0.239327 0.207256 
-0.775576 0.189275 1.595113 -0.892968 -0.355177 -0.165732 
0.613917 -0.356145 1.741609 -0.825051 0.488975 -0.230930 
0.523193 0.086028 0.526977 -0.823871 -0.145855 0.451982 
-0.480771 -0.626119 0.392400 -0.812998 -0.155203 -0.455916 
0.517585 0.168324 0.254421 0.913797 -0.075639 -0.367417 
0.606936 0.594571 0.793108 0.869591 0.251200 -0.389070 
-0.357294 -0.949903 0.226060 0.575315 0.029636 0.748192 
0.602468 0.186522 0.634283 0.973713 -0.115478 -0.182547 
-0.261917 0.098521 -0.210521 -0.546590 -0.092760 -0.823094 
-0.968960 1.101083 1.715886 0.864129 0.190733 0.440935 
-0.851342 0.005951 2.129837 -0.912064 -0.389663 -0.067285 
-0.721018 0.086444 1.462102 -0.939722 -0.336168 -0.048507 
0.832507 -0.023353 1.660480 0.878102 -0.308255 -0.281856 
-0.138949 -0.953320 0.037538 0.301221 -0.214304 0.870105 
-0.736430 -0.184668 2.785566 -0.870956 -0.474054 0.073000 
0.615932 -0.463256 0.974988 -0.969103 0.050125 0.026974 
0.438886 -0.989614 0.377069 -0.619367 -0.076409 0.652057 
-1.055413 0.415163 2.643539 0.855075 0.486295 0.081701 
-0.515265 0.278892 0.448807 0.741571 -0.219158 0.586434 
-0.845350 0.299819 1.852116 0.817642 0.290305 0.494744 
0.069762 1.326797 0.146327 0.646353 0.645014 0.214578 
0.342399 0.045686 -0.142441 0.640527 -0.128290 -0.722441 
0.497542 -0.137715 0.393776 -0.679268 -0.089211 0.582718 
0.528130 0.493476 0.099607 0.931662 0.163961 -0.272062 
-0.744054 0.224973 1.540946 0.941185 0.193428 0.136075 
-0.920746 0.077635 2.262468 -0.914431 -0.369232 -0.141763 
0.732686 -0.200845 1.291680 0.956923 -0.204589 -0.114841 
-0.562361 0.511123 0.206442 -0.930454 0.240572 -0.229984 
0.964091 0.164354 1.996751 0.966259 -0.167676 -0.011577 
1.014565 0.115106 2.270857 0.926876 -0.331547 -0.146121 
1.086842 0.716017 2.759746 0.977717 -0.026620 0.104138 
0.776373 0.025951 1.435454 0.956028 -0.263093 -0.119266 
-0.363514 -0.105085 -0.109527 -0.687924 -0.158899 -0.661548 
0.752536 0.996115 1.438736 0.371671 0.648767 -0.591933 
0.110407 1.274147 0.229433 0.415777 0.773340 0.437788 
-0.573048 0.224115 0.568448 0.826453 -0.200335 0.480106 
0.336498 0.119370 0.199943 0.349441 -0.173740 0.865390 
-0.663017 -0.455608 0.802481 -0.972769 -0.066142 -0.148482 
-0.700520 0.032987 0.779302 -0.970794 -0.160654 -0.132476 
-0.509570 -0.129862 0.346094 0.614970 -0.082660 0.619501 
-0.478199 0.018822 0.089567 -0.875908 -0.082502 -0.451294 
-0.205262 0.089049 0.281340 -0.348153 -0.207247 0.908389 
-1.031068 0.622514 3.428012 0.914179 0.360315 -0.150788 
0.174840 1.015977 0.381356 0.419484 -0.184307 0.827838 
-0.519741 -0.216046 0.287144 -0.906708 -0.117689 -0.361619 
-0.318915 -0.966432 0.121628 0.498981 0.029997 0.847557 
-1.152471 0.668210 2.948405 -0.924908 -0.366038 0.085513 
0.357340 -0.625465 0.064383 0.773310 -0.154701 -0.572637 
0.061402 0.720318 0.355442 0.074359 0.021409 0.994222 
-0.679080 -0.119329 1.226336 0.960307 0.206336 0.107544 
-1.216377 0.850837 2.711856 -0.969639 -0.184967 -0.033090 
0.650768 0.368811 0.758454 0.969666 -0.000010 -0.186860 
-0.522876 -0.355444 1.782868 0.864664 0.451959 -0.138934 
0.099618 0.511605 -0.280705 0.455180 0.134780 -0.870592 
-0.162842 0.953155 0.382597 -0.322090 -0.137824 0.904531 
1.009331 0.768333 2.176583 0.995750 0.022700 -0.045534 
0.581761 0.533296 0.760305 -0.956035 0.186392 0.132915 
0.681783 -0.257715 1.155964 -0.964289 0.122431 0.121078 
0.483921 -0.009846 0.369106 -0.680023 -0.130582 0.607752 
0.816709 0.874956 1.561928 0.937930 -0.279256 -0.166707 
0.405443 0.251013 -0.094842 0.772572 -0.070324 -0.596367 
0.913577 0.848439 2.117291 -0.886902 -0.043021 0.277784 
-0.921891 0.275097 3.086061 0.855999 0.493158 -0.071816 
0.419463 0.156026 0.176698 -0.514542 -0.209853 0.802267 
-0.852139 0.919453 1.404534 0.916617 -0.146989 0.357951 
-0.323296 -0.064948 -0.154983 -0.591714 -0.157054 -0.765676 
0.143021 -1.040758 -0.016178 0.393903 -0.046107 -0.894243 
-1.011710 0.316034 2.447098 -0.835465 -0.499194 -0.186795 
-0.130779 1.106191 0.240467 -0.796503 0.056901 0.479669 
-0.891082 0.273324 1.904549 -0.971253 -0.200124 0.000469 
0.351561 -0.777982 0.093771 -0.405245 -0.014901 0.888793 
-0.932307 0.258911 2.044382 -0.945536 -0.258563 -0.120138 
-0.315234 0.779649 0.252785 -0.763556 0.277569 0.524549 
0.635823 -0.597810 1.078983 -0.969304 0.047762 -0.050207 
0.116827 0.194601 0.342875 0.248962 -0.185951 0.942263 
-0.295884 0.253826 -0.201281 -0.569960 -0.051361 -0.816731 
0.015281 1.141816 -0.041758 0.334019 0.399380 -0.849732 
0.315160 -0.744655 0.001557 0.721512 -0.171516 -0.644226 
-0.217588 -0.684199 0.107529 -0.122541 -0.166692 0.882966 
-0.584094 -0.218287 0.539024 0.786988 0.003757 0.408198 
-0.512757 -0.441776 1.975752 0.852720 0.472777 0.040072 
-0.494911 -0.372385 0.287575 -0.886847 -0.139116 -0.383449 
-0.013959 1.103541 0.402917 -0.048300 0.337148 0.919940 
0.625321 -0.946608 0.716768 0.867999 0.203909 -0.315897 
0.765585 -0.240925 2.067683 0.858906 -0.496765 0.045966 
0.855243 -0.122949 2.172625 -0.790628 0.441659 0.303716 
0.723384 -0.245156 1.350350 -0.962005 0.181334 0.077242 
-0.981322 0.353435 3.020131 -0.902202 -0.398283 0.145336 
-0.385716 0.229420 -0.121978 -0.701155 -0.063512 -0.677455 
0.865054 -0.141004 2.245408 0.882969 -0.443461 -0.031855 
0.045703 1.075781 -0.054960 0.328467 0.482256 -0.799834 
0.150880 -0.288371 -0.234652 0.439528 -0.238129 -0.848755 
-0.544832 0.073530 0.463333 0.768919 -0.128537 0.498796 
-0.597099 -0.457140 2.305894 0.850967 0.495548 0.129874 
0.643076 -0.393390 0.799169 0.970958 -0.010194 -0.198822 
-0.388376 -0.695890 0.172101 -0.769291 -0.170502 -0.557122 
0.686538 0.012935 1.024178 0.967655 -0.152193 -0.156126 
-0.761764 0.646327 1.175196 0.913139 -0.094749 0.359317 
0.433256 0.674153 0.198361 -0.034133 0.600732 0.652934 
-0.121311 -0.748287 -0.066595 -0.078404 -0.256983 -0.942773 
1.054691 0.515470 2.305054 -0.904868 0.166722 0.355170 
0.333888 0.195270 0.218004 0.350485 -0.183687 0.861862 
0.047632 1.358259 0.070373 0.558650 0.573256 -0.504444 
0.897617 -0.063236 2.638283 -0.911114 0.320368 -0.133467 
0.392587 -0.549684 0.048156 -0.322175 -0.044999 0.929308 
0.949281 0.013702 2.424160 -0.919023 0.312491 -0.010933 
-0.078220 0.490053 -0.289107 -0.444809 0.132750 -0.877824 
-0.487920 0.322942 0.020937 -0.872548 0.007818 -0.456196 
-1.026999 1.100546 1.763537 -0.939947 0.059607 -0.147587 
0.438814 0.601034 0.319053 -0.852427 0.305482 0.415603 
-0.258650 -0.549048 0.125470 -0.406202 -0.178693 0.894652 
0.966491 0.916826 2.191306 -0.913345 -0.014558 0.319250 
-0.030689 -1.233707 -0.085207 -0.565121 -0.757834 0.278747 
-0.118410 0.952765 -0.099092 -0.522654 0.475658 -0.682292 
-0.676019 -0.278786 0.742572 -0.976731 -0.097294 -0.170131 
0.524122 -0.301008 0.458114 -0.708611 -0.031046 0.517951 
-0.300724 0.924575 0.104929 -0.918958 0.357530 -0.142889 
-0.511894 -0.464862 0.388088 -0.865784 -0.142259 -0.389532 
0.533432 -0.075894 0.365053 0.923099 -0.065306 -0.352832 
1.070779 0.545991 2.857192 -0.965035 0.056779 -0.211704 
-0.080018 1.066735 -0.047062 -0.397004 0.465239 -0.768036 
0.454775 -0.482974 0.306655 0.846426 -0.115102 -0.448499 
0.966604 0.826906 2.260035 -0.915137 -0.002701 0.233931 
-1.125185 0.650492 3.011858 0.943579 0.287274 -0.099662 
-0.921221 1.167162 1.548792 0.911293 0.321939 -0.153406 
0.571208 0.602798 0.694749 0.936203 0.147315 -0.302218 
-0.807524 0.433456 1.611448 0.949948 0.089618 0.112462 
0.759447 -0.230093 3.012719 -0.898095 0.388601 -0.198650 
0.167404 0.189257 -0.270382 0.529562 -0.035089 -0.838843 
-0.772600 0.026667 3.080578 0.865686 0.472512 -0.134918 
-1.042977 0.774226 2.180631 0.871347 0.246242 0.310248 
-1.113407 1.024763 2.130492 -0.944058 0.184843 -0.112275 
0.274743 0.355608 -0.207605 0.568789 -0.002858 -0.813878 
0.700232 0.296140 1.088109 0.972865 -0.193986 -0.089071 
-1.109741 0.835205 2.188730 -0.953881 -0.270534 -0.108054 
-0.535968 0.291015 0.181469 -0.897103 -0.023306 -0.406504 
-0.473076 0.576729 0.024279 -0.811521 0.267123 -0.403617 
-1.097886 0.772761 2.444470 0.897996 0.276581 0.170097 
-1.005271 0.682004 1.992929 -0.845838 -0.440226 -0.235315 
-0.287410 -0.292655 -0.167992 -0.532549 -0.228403 -0.806424 
-0.401346 0.697060 0.173593 -0.351152 0.616298 0.642209 
-0.781034 0.692469 0.992774 -0.763291 0.254042 -0.516386 
0.863713 -0.132014 2.619737 -0.896231 0.370576 -0.096542 
-0.682144 0.401077 0.725296 -0.830425 0.351666 -0.382851 
-0.661991 0.052261 0.664787 -0.964273 -0.109973 -0.232193 
0.634506 0.583603 1.033064 -0.880858 -0.212433 0.404707 
-0.316424 -0.878839 0.073852 -0.699717 -0.189689 -0.666087 
-0.746515 0.454555 0.983902 -0.955986 -0.285930 -0.016989 
0.915915 0.451402 1.888521 -0.885941 -0.034798 0.392354 
0.081771 -0.889259 0.048295 -0.032653 -0.305841 0.895033 
-0.307101 -1.193448 0.154364 -0.085609 -0.010804 0.688141 
0.351312 0.764350 0.208150 0.828382 0.357563 0.375351 
-0.141046 -0.279700 -0.239738 -0.436278 -0.237864 -0.849036 
-0.691440 -0.021954 1.351050 0.951381 0.226917 0.116404 
0.682203 -0.282599 1.490827 -0.915110 0.304064 -0.001090 
-0.050020 1.327296 0.074838 -0.619698 0.529144 -0.508520 
-1.006295 0.351443 2.844889 -0.916430 -0.364291 0.146364 
0.212234 0.828567 -0.128614 0.541461 0.494699 -0.669070 
-0.994118 0.307118 2.761567 -0.922849 -0.343184 0.162980 
0.715002 0.044690 1.266368 -0.937384 0.084599 0.231453 
0.161330 -1.365423 0.134071 -0.462577 -0.296880 0.603260 
-1.111488 0.569499 2.457800 -0.963033 -0.237771 -0.068769 
-0.323522 -0.537564 -0.066062 -0.720928 -0.193873 -0.633399 
-1.141808 0.831177 2.450773 0.901906 0.298664 0.216428 
0.685215 -0.361267 2.189954 0.829158 -0.545400 -0.010656 
0.834860 0.717075 1.709512 -0.809882 -0.223230 0.441688 
-0.652015 -0.304823 1.099623 -0.951401 -0.186611 0.008972 
0.973502 0.458344 2.008175 0.950303 -0.035362 -0.272613 
-0.354416 -0.602835 1.752800 -0.809645 -0.546353 0.069423 
0.526427 0.526978 0.379715 0.888540 0.407249 -0.110214 
0.214232 -0.086004 0.251213 0.415195 -0.200192 0.866164 
0.814603 -0.189534 2.080112 0.871958 -0.478285 0.062525 
-0.929856 0.899114 1.552585 -0.863202 -0.434844 -0.110193 
-0.844410 0.642096 1.441923 -0.905360 -0.413260 -0.039842 
0.864041 0.619925 1.773651 -0.837168 -0.155336 0.423646 
-1.202934 0.794954 2.798278 -0.946766 -0.296137 0.010697 
-0.985072 1.044932 1.668815 -0.956180 -0.284835 -0.023749 
-0.217121 0.488101 0.338087 -0.278275 -0.104686 0.949435 
0.063980 -0.049444 -0.302665 0.436541 -0.126425 -0.867307 
-0.969432 1.040787 1.758829 0.830959 0.114467 0.495898 
-1.005239 0.349472 2.211919 -0.892761 -0.352521 -0.256528 
0.108101 -0.544594 -0.138213 0.071325 -0.427332 -0.896480 
-0.706942 0.037164 0.948248 -0.964387 -0.205581 -0.103462 
-0.502300 0.259636 0.371815 0.689985 -0.239110 0.633807 
-1.123830 0.702757 3.168892 -0.921381 -0.361408 0.124048 
-0.679472 -0.049572 1.088141 0.957978 0.135955 0.169333 
-0.036989 -0.872226 -0.061905 -0.252053 -0.073956 -0.943340 
0.005969 -0.085579 -0.318978 0.376839 -0.175565 -0.880569 
0.087575 1.231400 0.295084 0.074803 0.822960 0.547500 
-0.977101 0.253146 2.188641 -0.914547 -0.334045 -0.210349 
-0.841351 0.162194 1.821786 -0.877238 -0.343672 -0.269156 
0.184730 0.414265 0.368049 0.331823 -0.111224 0.933650 
-0.973816 0.252910 2.611394 0.942237 0.247471 -0.199507 
-0.088474 0.277981 0.367254 -0.201219 -0.164451 0.954159 
0.795115 0.950141 1.472541 0.951111 -0.214727 -0.148708 
0.470564 0.057691 0.334048 -0.660088 -0.156011 0.642979 
-0.750610 0.219710 1.457250 -0.931482 -0.354655 -0.046427 
-0.573540 -0.296441 1.801206 -0.771738 -0.525662 -0.196466 
0.783882 0.933785 1.399193 0.752594 0.311166 -0.406875 
-0.676795 0.571712 0.765177 -0.827511 0.235005 -0.487656 
0.689040 -0.189846 1.042152 0.962392 -0.139280 -0.190253 
0.517591 0.009509 0.493102 -0.798039 -0.116095 0.483953 
-0.415646 -0.638811 2.104097 -0.809014 -0.549828 -0.201868 
0.669120 0.784232 1.258666 -0.947984 -0.020541 0.259249 
0.082173 0.436708 0.392432 0.200303 -0.094015 0.959942 
-0.750651 0.319008 1.474951 0.935652 0.133624 0.181002 
0.022937 1.282462 0.247243 0.156758 0.776798 0.605919 
-0.621042 -0.364172 2.176555 0.774937 0.485348 0.291253 
-0.703148 0.386233 1.081645 0.918658 -0.013530 0.317779 
0.871984 -0.140345 2.356421 -0.883609 0.431532 0.102181 
-0.986361 1.077787 1.603488 -0.941786 -0.292044 -0.141659 
0.821438 -0.175469 2.799043 0.872584 -0.454509 0.071803 
0.661619 0.196847 1.072355 -0.915016 -0.059126 0.311903 
1.024372 0.397851 2.888848 -0.965105 0.153406 -0.185515 
0.119023 1.264944 0.112874 0.737129 0.587452 -0.163980 
-0.108405 0.192320 0.342712 -0.226307 -0.191448 0.946795 
-0.360997 0.097427 0.189291 -0.167896 -0.184281 0.868799 
-0.538613 0.018659 0.252860 -0.902740 -0.078565 -0.382131 
-0.733545 -0.071716 2.978312 0.882555 0.427866 -0.164207 
0.684944 0.447314 1.018704 0.978594 -0.188481 -0.062332 
-0.684883 0.026704 1.118890 0.950599 0.121953 0.187766 
0.677546 -0.260873 1.051054 0.962755 -0.134533 -0.135111 
1.081107 0.796048 2.752427 0.915819 0.243694 0.157001 
0.996352 0.429056 2.105230 -0.945593 0.000298 0.298117 
0.742766 -0.068152 1.361449 -0.953380 0.171745 0.180900 
0.614901 -0.381834 0.718797 0.949321 -0.026753 -0.257590 
0.362406 0.629915 -0.132700 0.631256 0.243060 -0.683146 
0.646506 -0.419077 2.248249 0.814866 -0.568747 -0.037805 
-0.811083 -0.077985 2.159864 -0.904805 -0.413872 -0.032967 
-0.092319 0.705347 0.360648 -0.093612 0.058064 0.987653 
-1.090343 0.485669 2.681390 0.885738 0.429831 0.058568 
-0.059927 0.909850 0.405316 -0.207551 -0.100505 0.963886 
0.362686 -0.465094 -0.033888 0.830767 -0.153400 -0.518474 
-0.817669 0.169851 1.892946 0.747299 0.346933 0.537864 
0.862550 -0.007412 2.947104 -0.906695 0.357645 -0.161080 
0.121174 -0.613478 -0.104625 0.053571 -0.357525 -0.928099 
0.830201 0.185098 1.642014 -0.959283 0.057245 0.084362 
-1.144528 0.782320 2.333318 -0.953967 -0.263452 -0.130777 
-0.621540 -0.189314 0.643528 0.896160 0.021854 0.294558 
0.045995 0.630910 0.383902 0.042642 0.194298 0.969308 
0.606335 -0.603714 0.718363 0.916133 0.006699 -0.288731 
-0.296837 0.534431 0.285329 -0.312482 -0.119926 0.911617 
0.933588 0.006835 2.687662 0.863790 -0.474278 -0.045171 
-1.101939 0.600368 2.526517 0.904576 0.336416 0.145971 
1.061500 0.582212 2.932766 0.959152 -0.116670 0.247058 
-0.484671 -0.044228 0.129962 -0.882098 -0.092255 -0.432576 
0.520748 0.250212 0.245327 0.918186 -0.072048 -0.347029 
-0.648381 -0.120727 0.609555 -0.959698 -0.098549 -0.229973 
0.628534 0.746074 0.937905 -0.949880 0.104675 0.165716 
0.356784 -1.025321 0.200872 -0.519644 -0.049093 0.791040 
0.522047 0.511855 0.452327 0.871373 0.454289 -0.087072 
0.899074 0.261666 3.135171 0.918859 -0.220485 0.311494 
0.079715 -1.037733 -0.055071 0.376695 0.061230 -0.920935 
-0.508333 -0.554933 0.471470 0.777687 0.048058 0.474722 
0.553003 -0.244919 0.495087 0.938546 -0.072343 -0.310535 
-1.188867 0.943953 2.424223 0.844591 0.452589 0.221626 
-0.685275 0.091737 1.038892 0.945963 0.069504 0.228626 
-0.176916 -0.446196 -0.182221 -0.355392 -0.367946 -0.839870 
0.603327 -0.424329 2.106195 -0.749290 0.561835 0.236451 
-0.611823 -0.573598 0.725245 -0.931040 -0.075207 -0.216312 
-0.715713 0.103583 1.210892 -0.951943 -0.279862 -0.063972 
0.809205 -0.255611 2.541161 0.846606 -0.522415 -0.023812 
-1.046853 0.613617 3.348337 -0.905538 -0.390655 0.149543 
0.711321 -0.128272 1.221290 -0.959581 0.142151 0.189584 
-0.913497 0.083515 2.412809 0.921686 0.328688 0.011637 
0.909606 0.535682 3.244919 0.876447 0.055764 0.416139 
-1.170034 0.695228 2.575212 -0.945075 -0.291511 -0.093296 
-0.283762 0.949362 0.229621 -0.911577 0.266538 0.268768 
1.026156 0.155735 2.206789 0.942408 -0.280404 -0.168047 
-1.177840 0.738024 2.468777 -0.954572 -0.255187 -0.151119 
-1.017352 0.923391 1.856300 -0.964455 -0.253521 -0.035030 
0.402390 0.409679 -0.104750 0.734115 0.014759 -0.621433 
-0.637907 -0.271935 2.025065 0.689855 0.476208 0.472326 
0.901180 0.838818 1.857668 0.914533 -0.322084 -0.187733 
0.164632 -0.577995 0.143930 0.235153 -0.244522 0.939908 
-0.676003 -0.088083 1.648232 0.929899 0.341033 -0.019942 
0.806075 0.308324 1.545721 0.944730 -0.279083 -0.149366 
0.424909 -0.911436 0.365952 0.741289 -0.085089 -0.555952 
0.168504 0.492127 0.377068 0.334970 -0.091837 0.935279 
0.738151 0.522311 1.251125 0.965663 -0.232630 -0.092067 
-0.260749 -0.335612 0.177214 -0.474627 -0.187149 0.826793 
-0.779310 0.054101 1.790615 -0.786803 -0.418654 -0.407709 
0.256419 0.617709 -0.210761 0.512611 0.210601 -0.817003 
0.638292 -0.586615 0.783337 0.942469 0.029628 -0.244977 
1.044148 0.182249 2.469678 0.883836 -0.428129 -0.158444 
0.540084 0.225992 0.351750 0.931544 -0.093127 -0.307426 
0.154128 1.172138 0.046401 0.636809 0.510921 -0.505497 
-1.161452 0.790621 3.114411 0.961580 0.220536 -0.128801 
-0.735688 -0.142586 2.009299 -0.898835 -0.430056 0.002569 
0.089129 -0.113655 0.272564 0.159634 -0.205370 0.962422 
1.003627 0.640310 2.204360 -0.926634 0.002794 0.303882 
-0.685058 0.142344 0.963514 0.942561 0.023682 0.263530 
-0.566294 0.436298 0.238787 -0.926428 0.152646 -0.271261 
0.219499 0.432624 -0.234133 0.532321 0.052002 -0.833273 
0.045978 0.810282 -0.208567 0.423760 0.377075 -0.812326 
0.113515 -0.461123 -0.191475 0.256455 -0.432987 -0.853994 
-0.790477 0.410623 1.431900 -0.921332 -0.377186 -0.042010 
0.034060 0.504790 -0.305760 0.424662 0.156625 -0.887029 
-0.593398 0.301434 0.690644 0.899115 -0.005938 0.363793 
0.200392 0.700360 -0.209045 0.446488 0.320065 -0.818110 
-0.999817 0.362358 2.929087 -0.909673 -0.381758 0.142169 
-0.698740 -0.213970 2.056295 -0.886418 -0.447961 -0.024799 
-0.241329 0.745122 -0.168235 -0.545186 0.519248 -0.634773 
0.896681 -0.036105 2.107867 -0.800656 0.397876 0.343099 
0.682059 0.211217 1.004495 0.973138 -0.164140 -0.114815 
-0.201929 -0.373170 0.192629 -0.308018 -0.192770 0.914839 
-0.644543 -0.469750 0.952772 -0.965278 -0.102839 0.006493 
0.700937 -0.392448 1.311644 0.957992 -0.190706 0.032820 
-0.606397 -0.195003 1.620169 -0.867680 -0.427221 -0.050585 
-0.417861 -0.292649 0.039704 -0.865503 -0.136739 -0.464460 
-1.042085 0.377612 2.701892 -0.928262 -0.339722 0.136871 
-0.040591 -0.503319 -0.162199 -0.062834 -0.635815 -0.766765 
-1.093398 1.041323 2.064762 0.701596 0.581579 0.298092 
-0.394314 0.562287 0.276283 0.726213 0.216576 0.511959 
-0.650414 -0.250569 1.035991 0.962804 0.138391 0.070789 
1.075405 0.438390 2.347011 0.899357 -0.258144 -0.344588 
-1.088686 0.863859 2.289967 0.884423 0.248613 0.265723 
0.203706 -0.608681 -0.088211 0.012960 -0.351611 -0.916187 
0.571839 0.452316 0.289954 0.959537 0.139316 -0.194463 
0.304205 0.804969 0.252160 0.752162 0.287547 0.526513 
0.623750 0.410559 0.953000 -0.885461 -0.199981 0.396313 
0.566511 0.426485 0.820493 -0.952971 0.069246 0.214755 
0.428698 -0.439627 0.107412 -0.365189 -0.050590 0.868242 
0.438671 -0.585936 1.943281 -0.777679 0.599046 0.001228 
0.213255 -0.201382 -0.218355 0.504750 -0.176485 -0.833459 
0.487098 -0.516647 1.803115 -0.787638 0.563781 -0.123356 
-0.791707 -0.128184 2.678209 -0.862100 -0.492054 0.013885 
0.743804 0.612432 1.273053 0.964224 -0.237092 -0.095358 
0.339010 -0.181830 -0.122158 0.650845 -0.190873 -0.687307 
0.566119 0.518626 0.688887 -0.954940 0.135658 0.188369 
-1.097240 0.644711 3.118832 0.941625 0.275820 -0.130478 
-1.027508 0.423110 2.965522 0.883918 0.444682 -0.044082 
-0.771974 0.495984 1.156001 -0.940585 -0.330425 -0.019338 
-0.600332 -0.293772 1.904102 -0.768492 -0.526615 -0.290587 
-0.226497 1.024254 0.030194 -0.733576 0.394581 -0.476031 
0.597680 0.322373 0.472366 0.971957 0.024650 -0.176653 
-0.142899 0.055688 0.305608 -0.272517 -0.214266 0.936317 
0.280894 -0.809747 0.102696 -0.004013 -0.080447 0.890063 
-0.846166 0.102944 2.017594 0.763051 0.376573 0.451248 
-0.516830 0.077442 0.387128 0.698607 -0.148734 0.576959 
0.569462 0.274394 0.398811 0.951096 -0.030099 -0.246563 
-0.149670 -0.543384 0.158058 -0.215076 -0.234647 0.946655 
-0.382850 -0.498331 1.576675 0.837320 0.499322 -0.174739 
-0.822284 0.072526 1.927017 -0.935087 -0.328018 0.011360 
0.859851 0.793433 1.718610 0.939615 -0.249720 -0.089818 
-0.583646 0.354832 0.315365 -0.929451 0.058719 -0.297229 
0.704204 -0.297409 2.070022 -0.721074 0.522420 0.354195 
-0.240251 0.848167 -0.103154 -0.580942 0.509489 -0.628218 
0.612819 0.129498 0.681786 0.977617 -0.109354 -0.174916 
-0.413349 -1.131874 0.196248 -0.680126 0.289440 -0.604219 
0.274120 -0.621666 -0.093089 0.545396 -0.238184 -0.798560 
0.470878 -0.395547 0.269017 -0.523370 -0.037695 0.707013 
-0.542162 -0.598883 1.355219 0.915781 0.224739 -0.283476 
0.645080 0.131186 0.992754 -0.922683 -0.062173 0.307672 
-1.132537 0.781692 3.251346 0.949545 0.257623 -0.137788 
-0.531450 -0.396824 0.404353 -0.889754 -0.136008 -0.355623 
1.094307 0.709658 2.665574 0.986259 -0.018615 0.036159 
0.475913 -0.469223 0.374643 -0.643115 -0.018003 0.603759 
0.371770 -0.467510 0.049716 -0.018249 -0.099533 0.917641 
0.371912 0.454395 0.254147 -0.711118 0.049667 0.562321 
-0.322450 0.625080 0.295215 -0.584649 -0.110421 0.773610 
-0.981405 0.546829 3.519765 0.896749 0.411054 -0.157473 
0.914126 -0.008918 2.778165 0.872416 -0.452380 0.003693 
-0.386566 -0.320986 -0.034558 -0.853098 -0.143367 -0.495188 
0.623666 0.516137 0.815452 0.826146 0.365309 -0.403948 
0.890242 0.326523 3.192603 0.916685 -0.196919 0.331744 
0.662285 0.749643 1.037535 0.743647 0.358919 -0.446287 
-0.560282 -0.487162 0.536351 -0.879751 -0.131086 -0.338933 
0.318331 0.655769 -0.191029 0.557698 0.258237 -0.786945 
0.844153 -0.187929 2.308268 0.871938 -0.468142 -0.034846 
-0.685030 -0.317656 2.271173 -0.870597 -0.476931 -0.055581 
0.424682 0.344799 -0.078904 0.799115 -0.025783 -0.558854 
0.115798 0.558980 0.395317 0.289122 -0.065684 0.946259 
0.670897 -0.662238 0.876156 -0.954161 -0.116572 0.213346 
-0.730694 0.286878 0.977465 -0.959020 -0.255539 -0.050938 
-0.657301 -0.219715 1.129264 0.959878 0.167794 0.063126 
0.549746 -0.441187 0.628585 -0.869974 -0.014478 0.363805 
0.667712 0.816794 1.098757 -0.862535 0.276374 0.006502 
-0.594317 -0.917456 0.779609 -0.907627 0.100835 -0.202461 
-0.686341 -0.360887 2.388726 0.862530 0.475830 0.100839 
0.502406 0.183615 0.186258 0.903775 -0.071764 -0.396442 
0.408884 0.421807 0.387589 -0.889581 0.079210 0.405721 
-0.229820 1.066535 0.420192 -0.546445 0.653773 -0.491813 
0.677480 0.140566 1.128084 -0.923095 -0.012352 0.285139 
0.401168 -0.622161 0.217817 0.784901 -0.136542 -0.535667 
-0.693018 -0.247085 2.119994 -0.881291 -0.457113 -0.034931 
0.881466 0.697924 1.767424 0.946356 -0.196942 -0.100920 
0.699691 0.441004 1.260082 -0.890779 -0.122166 0.334513 
-0.418382 -0.605994 0.198492 0.480018 0.000265 0.772320 
0.329355 -0.868291 0.082084 -0.407711 -0.006258 0.902260 
-0.635506 -0.718132 1.097003 -0.969781 -0.057423 0.088223 
-0.893012 0.806890 1.514748 -0.885510 -0.450798 -0.053336 
-0.627395 -0.630852 0.799177 -0.947942 -0.051231 -0.171023 
0.296483 0.249811 0.251673 0.398399 -0.162176 0.893863 
0.792038 0.152071 1.500246 0.952051 -0.275489 -0.128937 
1.071856 0.653655 2.925410 0.961755 -0.081697 0.236973 
-1.015740 0.641099 2.052150 -0.847095 -0.433957 -0.252335 
-0.518552 -0.292164 0.311584 -0.910183 -0.130055 -0.349324 
-0.274439 -0.778628 0.107598 -0.037292 -0.070012 0.889409 
0.439380 0.208682 0.250945 -0.611160 -0.213630 0.726453 
-0.773277 -0.274328 2.503772 -0.880235 -0.473236 -0.024147 
0.652088 0.403356 0.821370 0.985254 -0.122882 -0.087826 
1.008754 0.112194 2.430138 0.887424 -0.421671 -0.141995 
-0.704502 0.003014 1.028161 -0.961494 -0.218829 -0.102243 
-0.393935 0.129860 -0.103520 -0.724444 -0.092762 -0.642253 
-1.079529 0.763042 3.490399 -0.923244 -0.238168 0.176033 
0.963703 0.434526 3.066972 -0.924582 0.067171 -0.334058 
-0.735558 0.344830 0.916966 -0.960682 -0.251032 -0.045485 
-0.755216 -0.113007 2.835716 -0.861690 -0.485453 0.076705 
1.039493 0.317993 2.272595 -0.958083 0.151577 0.208682 
0.339320 0.316642 0.228111 0.212612 -0.173766 0.902449 
-1.036077 0.726327 2.126925 0.866003 0.262185 0.355918 
0.406821 -0.517593 0.161448 0.822881 -0.134794 -0.498573 
0.359092 -0.732208 0.148677 0.736331 -0.153365 -0.604333 
0.489292 -0.639931 0.500844 -0.755910 -0.018080 0.501384 
0.994955 0.103725 2.613876 0.857697 -0.488427 -0.114331 
0.123975 -0.007755 -0.282840 0.491550 -0.086029 -0.853073 
0.903238 0.058276 2.907775 0.921939 -0.239138 0.270242 
-0.431182 0.678480 -0.007838 -0.717150 0.536825 -0.338934 
-0.609348 0.568345 0.640584 -0.877317 0.149734 -0.436187 
0.913906 0.763084 1.882360 0.922449 -0.261654 -0.203243 
0.021814 -0.976001 -0.057040 0.348872 0.022184 -0.921666 
-0.645354 -0.305789 1.388482 -0.934279 -0.256979 0.101428 
-0.688860 -0.048702 1.574939 0.943380 0.318456 0.045774 
-0.636837 -0.223259 1.898650 0.892159 0.404652 -0.095289 
0.228166 1.105811 0.093432 0.851415 0.453041 -0.247908 
0.864005 -0.022587 1.946882 -0.727770 0.390523 0.512075 
-0.351408 0.277295 -0.161510 -0.627548 -0.051916 -0.761692 
-0.958429 1.108574 1.519822 -0.651196 0.255123 -0.536264 
1.049987 0.544635 2.641714 -0.963037 0.088200 -0.041217 
-0.590621 -0.654932 0.710838 -0.915224 -0.071565 -0.235810 
-0.728292 0.273759 0.858281 -0.964382 -0.224741 -0.065531 
-0.494628 -0.004694 0.318478 0.613759 -0.137053 0.650942 
-0.794326 0.115631 1.736355 -0.813975 -0.369049 -0.384290 
-0.629806 -0.085544 0.680643 0.930633 -0.020307 0.284081 
-0.963981 0.255837 2.685298 0.813721 0.568060 0.063991 
0.644420 0.050729 0.976128 -0.933061 -0.033671 0.287385 
-0.638677 -0.374786 0.955120 -0.956124 -0.140800 0.017215 
-0.794333 0.088123 3.195438 -0.869621 -0.464141 0.167588 
-0.108138 1.192741 0.019063 -0.548953 0.406335 -0.724842 
0.609078 0.238646 0.864732 -0.908965 -0.157759 0.356343 
0.176778 -0.376106 -0.211925 0.435541 -0.281872 -0.843300 
-0.351644 -1.122216 0.158701 0.327482 -0.138745 0.708718 
0.204995 0.893963 -0.090834 0.611353 0.452000 -0.636782 
-0.727956 0.322019 1.337420 0.929187 0.092642 0.224850 
0.428452 0.281540 0.225569 -0.601141 -0.239042 0.752025 
0.681977 0.693597 1.219691 -0.862345 -0.278022 0.402902 
0.722193 0.790784 1.197910 0.615117 0.441391 -0.497834 
0.509606 0.274082 0.175651 0.910747 -0.050067 -0.367889 
0.488030 -0.526673 1.966074 -0.793974 0.572615 -0.007194 
-0.331483 -1.056983 0.107533 -0.665825 -0.021535 -0.686135 
-0.813711 0.437611 1.538638 -0.904659 -0.399409 -0.070478 
-0.094365 -0.009716 -0.297278 -0.474265 -0.088616 -0.859717 
-0.620454 -0.428973 0.670721 -0.932437 -0.102094 -0.237898 
-0.204283 -1.081684 0.094002 0.397961 0.070309 0.891626 
0.951484 0.903597 2.016457 0.997129 -0.011133 -0.042635 
-0.897648 1.014159 1.575016 0.797472 0.001709 0.582439 
0.396016 -0.205849 -0.045167 0.863266 -0.125799 -0.485170 
-0.592129 -0.527264 1.340053 0.934071 0.190352 -0.243713 
-0.408069 -0.514235 0.123989 -0.824691 -0.157809 -0.496454 
-0.635648 -0.290069 1.458482 0.937382 0.259162 -0.097037 
1.025352 0.226821 2.193237 0.940138 -0.228774 -0.208237 
0.449606 0.368606 0.481560 -0.905082 0.053698 0.363832 
0.985608 0.308042 2.071756 -0.945098 0.081415 0.286285 
0.315124 -0.649927 -0.035596 0.706870 -0.183247 -0.651123 
0.900949 0.304317 1.721914 0.839668 -0.192370 -0.469510 
0.691026 -0.119163 1.044183 0.963805 -0.146084 -0.183045 
0.293348 -0.242163 -0.165863 0.542561 -0.212905 -0.799327 
-0.937100 0.388596 3.386015 0.886071 0.436840 -0.150284 
-0.355120 0.689136 0.229232 -0.578032 0.294942 0.622285 
1.027519 0.240478 2.699116 -0.924020 0.353323 -0.018917 
0.749786 -0.157107 1.645721 -0.911589 0.335013 -0.033136 
-0.603896 0.396645 0.368322 -0.944419 0.110948 -0.241581 
0.891211 -0.102700 2.413372 -0.894331 0.392825 0.034585 
1.001419 0.842793 2.169178 0.996434 0.000472 -0.058749 
-1.096426 0.875780 2.123788 -0.955527 -0.268493 -0.094814 
-0.606022 -0.536814 1.103957 -0.943007 -0.145384 0.163251 
-0.173772 -1.055788 0.009579 -0.408804 -0.127994 -0.866280 
0.716412 -0.335660 2.249546 -0.780860 0.533139 0.198833 
-0.208593 0.849292 0.337443 -0.575659 0.000610 0.800624 
-0.410503 -0.541782 1.821207 0.830419 0.511081 -0.044689 
0.663565 -0.293793 1.938819 -0.824855 0.498819 0.100464 
-1.050731 0.629287 2.139833 -0.881977 -0.375792 -0.267342 
0.153594 0.617659 0.386479 0.161463 0.260197 0.939822 
0.966468 0.247608 2.037018 -0.922259 0.147333 0.313398 
0.755272 0.390659 1.471401 -0.904485 -0.041241 0.269658 
-0.682259 -0.184902 1.015840 -0.962894 -0.184219 -0.110391 
-0.546807 -0.434613 0.469118 -0.883373 -0.136258 -0.350379 
-0.143328 1.147092 0.320255 -0.972520 -0.086940 -0.103266 
-0.127130 0.131561 -0.290448 -0.503167 -0.041868 -0.853168 
0.717080 -0.273982 1.280250 0.957755 -0.194219 -0.063611 
0.108854 1.038167 0.405931 0.067848 -0.063288 0.952851 
-1.105202 0.701718 3.257877 -0.917982 -0.366015 0.135619 
-1.024032 0.508522 3.199046 0.916190 0.350518 -0.134409 
-0.726392 -0.301251 2.380986 -0.875274 -0.475255 -0.041911 
-0.798893 0.571876 1.226553 -0.929299 -0.356703 -0.023889 
1.066793 0.810974 2.510889 -0.968007 0.070237 0.174548 
-0.387369 -0.591461 1.512101 -0.839894 -0.455092 0.238213 
-0.771793 0.581766 1.012837 -0.947874 -0.312241 -0.007044 
-0.638327 -0.368550 1.037102 -0.951619 -0.161752 0.038419 
0.320199 0.585181 -0.194157 0.567168 0.170579 -0.795103 
-0.350775 -0.632013 0.029854 -0.777000 -0.171509 -0.576679 
-0.465683 -1.058170 0.333377 0.699167 -0.311056 0.542359 
-0.307045 0.832866 0.025927 -0.794797 0.467102 -0.293612 
-0.268405 0.891824 -0.002560 -0.760857 0.432655 -0.425373 
0.459127 0.013740 0.082174 0.884841 -0.084671 -0.444386 
0.764309 -0.284778 2.782092 0.869713 -0.463558 0.101816 
-0.999468 0.524266 3.367346 0.905778 0.381845 -0.147779 
0.460978 -0.795165 0.440171 -0.687998 -0.030736 0.578388 
0.427326 -0.303841 0.111573 -0.388212 -0.086512 0.864100 
0.831423 -0.201546 2.599528 0.852888 -0.505462 -0.014705 
-0.461358 -0.369252 0.190729 0.411814 -0.036240 0.786367 
-1.168368 0.816351 3.189036 -0.960713 -0.166081 0.145436 
-0.539272 0.403841 0.530243 0.874059 0.315729 0.338540 
-0.607166 -0.711167 0.805662 0.910516 -0.012883 0.217321 
-0.498742 0.186616 0.349804 0.681710 -0.201438 0.622191 
-1.216045 0.896601 2.772287 0.833115 0.507979 0.084828 
-0.033784 0.089633 -0.334669 -0.450159 -0.052887 -0.874408 
0.079069 0.582501 -0.270072 0.394037 0.185165 -0.885697 
-0.757522 0.363350 1.270068 -0.938962 -0.335493 -0.029953 
-0.823074 0.696566 1.481563 0.926046 -0.028143 0.276330 
1.054201 0.317565 2.698152 -0.941609 0.292128 -0.037971 
-0.474179 0.206066 0.284747 0.624324 -0.225108 0.689957 
0.685225 -0.107368 1.117210 -0.955567 0.091559 0.215089 
0.868308 0.598158 1.659469 0.878380 -0.227305 -0.349803 
0.873356 -0.052891 2.015913 -0.740624 0.417896 0.453915 
0.457853 0.240589 0.322784 -0.676287 -0.215949 0.655381 
-0.672054 -0.181707 0.693138 -0.973178 -0.105585 -0.192356 
0.732081 0.048129 1.337446 -0.937796 0.111416 0.219186 
-1.141922 0.775144 2.534078 0.908850 0.311413 0.159278 
-0.155915 -0.903325 -0.011574 -0.201478 -0.185117 -0.942277 
-0.493192 -0.545930 1.436945 -0.882400 -0.338618 0.240563 
-0.351349 -0.582616 1.683818 -0.809197 -0.544189 0.116539 
0.578176 0.056036 0.717571 -0.943015 -0.122660 0.291915 
1.057032 0.376694 2.382566 -0.966589 0.091139 0.123636 
-0.735095 0.322897 1.082989 -0.953867 -0.286989 -0.033218 
0.276259 0.940286 0.259414 0.873379 0.148762 0.407948 
0.810767 0.275108 1.610372 -0.939430 0.018903 0.145814 
0.934197 0.764470 2.009803 -0.852024 0.062364 0.464531 
-0.989792 0.397178 3.129893 0.889211 0.435165 -0.093367 
-0.141208 1.193480 0.401698 0.397831 0.604938 0.655073 
0.209713 -0.752046 0.096101 -0.027395 -0.150466 0.861487 
-0.542440 0.428085 0.165491 -0.912227 0.139648 -0.311040 
0.163885 1.224618 0.216111 0.640537 0.739271 0.007978 
0.400647 -0.164012 0.096161 -0.255319 -0.126320 0.894131 
-1.169169 0.958146 2.339426 -0.965725 0.043163 -0.129444 
-0.448649 -0.735954 0.385201 0.698681 0.036755 0.577537 
-0.880193 0.250992 3.289236 -0.874478 -0.457800 0.159360 
0.241366 -1.058879 0.053801 0.421986 -0.205051 -0.826165 
-0.260220 1.031500 0.218557 -0.914005 0.362205 0.133814 
-0.731862 0.023423 1.661598 0.950915 0.282825 -0.008588 
-0.061668 1.136793 -0.029736 -0.394792 0.425571 -0.803268 
-0.556925 -0.246376 1.589336 0.895971 0.399227 -0.059822 
1.031004 0.606564 3.034995 0.948255 -0.102639 0.292704 
-0.433024 0.077055 0.159883 0.474240 -0.211475 0.824736 
-0.498670 0.642358 0.413586 -0.858914 0.411819 -0.120376 
0.718731 -0.056083 1.171371 0.961750 -0.185738 -0.158231 
0.216662 -1.317168 0.110757 0.912329 0.095033 -0.150565 
-0.660041 -0.708066 0.930986 -0.981443 -0.010720 -0.087408 
0.803389 -0.234222 2.264059 -0.782485 0.496822 0.243664 
0.671880 -0.916799 0.832089 0.913577 0.199408 -0.245002 
-0.153947 -1.269520 0.111614 0.807368 -0.068776 0.304849 
-0.211118 -0.782261 -0.037030 -0.118527 -0.310928 -0.936259 
0.622736 -0.350582 1.818981 -0.830681 0.488461 -0.179974 
-0.604230 -0.240759 1.770271 -0.772494 -0.515801 -0.205559 
1.069729 0.673005 2.351406 0.994627 0.038709 -0.064568 
-0.437038 -0.227041 0.067682 -0.870566 -0.124890 -0.454286 
-1.155658 0.889606 2.320919 -0.964246 -0.232156 -0.110296 
-0.598457 0.160033 0.630753 0.874498 -0.159224 0.411630 
-0.855329 0.135929 1.949315 -0.943906 -0.295368 -0.008650 
-1.010304 0.339946 2.540902 0.864847 0.465790 0.074011 
-0.026628 -1.035118 -0.016137 -0.362865 -0.312314 0.875687 
0.803596 -0.251103 2.333011 -0.811877 0.499097 0.172115 
-0.821533 0.704731 1.060665 -0.942121 -0.053868 -0.255773 
-0.564943 0.304393 0.269599 -0.914638 -0.003494 -0.356047 
0.601401 0.115846 0.813514 -0.926158 -0.122578 0.324731 
0.047332 -0.577816 -0.114979 0.179952 -0.377771 -0.890454 
0.301854 -0.556106 -0.085678 0.639127 -0.212061 -0.706800 
-0.771687 0.534663 1.089950 -0.944006 -0.321904 -0.013677 
-0.104653 0.778523 0.366278 -0.170971 -0.114355 0.967106 
-0.976422 0.574648 2.007065 0.912074 0.128844 0.318148 
-0.030803 0.041658 0.312629 -0.118370 -0.225712 0.964179 
-1.059347 0.532218 3.091933 0.921107 0.352292 -0.105195 
-0.283758 0.091611 0.235592 -0.424312 -0.193652 0.877961 
0.738741 0.112531 1.375145 -0.930227 0.095850 0.229819 
-0.269745 -0.629220 -0.084854 -0.393863 -0.272592 -0.815081 
0.862901 -0.154991 2.547596 0.848358 -0.516374 -0.055832 
0.943996 -0.001861 2.198148 0.915406 -0.364317 -0.083236 
0.828504 0.047284 1.629662 -0.970782 0.140136 0.065328 
-0.563860 0.231815 0.315785 -0.909510 -0.078210 -0.379732 
-0.714297 0.726009 0.853295 -0.896705 0.087332 -0.424196 
-0.565861 -0.016175 0.510412 0.800805 -0.079651 0.441540 
-0.874100 0.049526 2.189681 0.841147 0.385401 0.274660 
0.739662 -0.230530 1.419139 -0.961051 0.202935 0.069153 
0.577872 0.501590 0.898730 -0.967262 0.001415 0.213442 
-0.214083 1.097021 0.059779 -0.778818 0.439974 -0.381574 
0.505850 -0.519262 2.046098 -0.743888 0.591916 0.210341 
-0.186665 -0.916002 0.075341 0.423179 -0.097973 0.826793 
0.163040 -1.089684 0.068286 -0.722574 -0.078815 0.576449 
-0.085673 -0.605498 0.155506 -0.244340 -0.249326 0.932465 
-0.873543 0.106390 2.768533 -0.830990 -0.533900 -0.005173 
0.318807 -0.286454 0.164280 0.599848 -0.183473 0.768670 
-0.008177 1.185517 0.349305 0.008601 0.637595 0.763387 
-0.704364 -0.023328 1.271119 -0.951426 -0.272439 -0.083149 
1.103936 0.817483 2.576328 0.993016 0.070155 -0.043662 
-0.950215 0.885611 1.741138 0.877671 -0.106192 0.394985 
-0.425442 -0.921410 0.399784 -0.775419 -0.126834 -0.484905 
0.639988 -0.537518 1.125119 0.963291 -0.126530 0.090281 
-0.064895 -0.079805 -0.297880 -0.427909 -0.145752 -0.867256 
0.859425 1.083831 1.798109 0.821388 0.491414 -0.038917 
-0.957302 0.421255 2.016794 -0.934053 -0.201869 -0.289448 
-0.033298 0.486954 0.395959 -0.102363 -0.077640 0.981726 
0.860371 0.708679 1.642843 0.903908 -0.190670 -0.237868 
0.675363 -0.039577 1.088220 -0.946300 0.050413 0.240208 
0.560034 0.304534 0.754202 -0.913720 -0.189264 0.353778 
0.216373 -0.840886 -0.019417 0.073035 -0.293734 -0.944729 
-0.939631 0.143871 2.550892 0.937104 0.267218 -0.148326 
0.657165 0.375664 0.890496 0.980132 -0.152679 -0.090861 
-1.026710 0.336443 2.609559 -0.936880 -0.310167 0.141056 
-1.022328 0.688992 3.635786 -0.902684 -0.387482 0.184969 
-0.823582 0.811752 1.355957 0.917189 -0.114314 0.345381 
-0.901905 0.051026 2.474968 0.922232 0.325802 -0.041400 
-0.428470 -0.433671 1.571400 0.853713 0.470043 -0.141746 
-0.232493 0.403539 0.329882 -0.278567 -0.124724 0.946779 
-0.485444 -0.460041 1.911463 0.847839 0.481126 -0.003279 
-0.570239 0.461288 0.444106 -0.839207 0.455404 -0.234328 
-0.424931 -0.747815 0.304368 -0.767103 -0.166739 -0.531851 
0.503552 0.110366 0.193940 0.902168 -0.060556 -0.408431 
-1.112245 0.589589 2.966806 0.932401 0.334777 -0.075882 
0.556937 0.514128 0.610203 0.913938 0.252824 -0.242220 
0.608228 -0.114099 0.663922 0.966524 -0.065292 -0.235640 
1.077704 0.595913 2.778607 -0.972004 0.076683 -0.111129 
0.839362 0.043447 3.092401 -0.905773 0.310313 -0.249730 
0.046146 -1.227606 -0.087892 0.321274 0.108567 -0.922425 
-0.602285 0.063666 0.626090 0.880101 -0.107102 0.378887 
0.610642 -0.378934 1.885758 0.758748 -0.583713 -0.184255 
0.607906 -0.682500 0.727781 0.907853 0.022336 -0.293693 
0.841118 -0.202616 2.477462 -0.873751 0.443531 0.002013 
0.888847 1.054755 1.854769 0.910342 0.279158 -0.096564 
-0.729787 0.162860 1.399607 -0.940367 -0.333941 -0.042643 
-0.634463 -0.621110 1.037332 0.971452 0.040800 -0.033008 
-0.766126 0.311619 1.560048 0.942028 0.154505 0.141188 
0.188284 0.271487 -0.263582 0.546483 -0.014669 -0.832203 
-0.634830 -0.200920 1.829429 0.894817 0.399990 -0.156533 
-0.157684 1.061938 0.427452 0.052990 -0.116230 0.915959 
-0.013273 0.903162 -0.185771 -0.400820 0.453481 -0.787824 
-0.840438 0.741455 1.248704 -0.916267 -0.386312 -0.023459 
0.196369 0.175640 0.307689 0.357524 -0.180514 0.912420 
-1.178172 0.730098 2.822542 0.945402 0.286906 -0.012958 
0.655922 -0.602838 1.278098 0.960401 -0.160701 0.180013 
0.201012 -1.140745 0.107117 -0.111386 0.154686 0.929138 
-0.550670 -0.845697 0.704006 -0.887119 -0.056157 -0.262618 
1.069199 0.672019 2.822156 -0.956907 0.014740 -0.155287 
0.924524 0.163495 1.884743 0.971587 -0.124335 0.068928 
-0.598728 0.206990 0.441139 -0.928374 -0.090878 -0.331776 
-0.273380 0.842571 0.274002 -0.759078 0.168208 0.569141 
-1.031991 0.381836 2.341629 -0.852746 -0.440830 -0.252579 
0.595832 0.229922 0.543648 0.968331 -0.067756 -0.198559 
0.471774 -0.531210 1.695119 0.749613 -0.602781 0.082744 
0.601007 -0.356198 1.630613 -0.832568 0.466099 -0.193666 
-1.070859 0.676971 2.341280 0.886740 0.294723 0.238392 
-0.528839 0.145744 0.429283 0.739281 -0.171298 0.550141 
-0.549038 -0.952151 0.646206 -0.860085 0.112968 -0.295074 
-0.292281 -0.673014 0.099783 -0.116269 -0.105347 0.892818 
-0.579664 0.184520 0.371357 -0.918610 -0.082674 -0.353865 
-0.179626 0.427728 0.371753 -0.329053 -0.104488 0.935876 
0.177522 0.766012 -0.177437 0.501854 0.465467 -0.700994 
-0.374959 -0.607984 1.853113 0.818662 0.531399 0.002926 
-0.060325 1.291079 0.225944 -0.315851 0.758723 0.547542 
-1.081456 0.644642 3.205002 0.934798 0.297097 -0.136080 
0.719589 0.185928 1.176325 0.967617 -0.208106 -0.105274 
0.321998 0.851938 0.172787 0.886827 0.336650 0.176601 
-0.449561 -0.967816 0.459551 0.696260 -0.035288 0.539311 
0.989022 0.178976 2.063322 0.963577 -0.180209 -0.072577 
0.654904 0.650695 1.117921 -0.874009 -0.240736 0.403095 
0.347004 -0.177224 0.144034 0.375067 -0.153695 0.838250 
0.102966 -0.789421 0.080781 0.045274 -0.287656 0.918946 
-0.174711 0.869616 -0.125273 -0.551393 0.464554 -0.678415 
0.572304 0.132020 0.499911 0.950631 -0.092904 -0.258687 
-1.017815 0.997586 1.802788 -0.959359 -0.271768 -0.036770 
0.412180 -0.387798 0.041662 -0.308233 -0.073337 0.933676 
-0.814325 0.690949 1.142041 -0.929147 -0.355997 -0.015759 
-0.608319 -0.672654 1.160316 -0.950182 -0.109549 0.180923 
0.614926 -0.010095 0.843901 -0.939452 -0.059797 0.294383 
-1.154493 0.727205 3.015055 0.957904 0.236142 -0.113089 
0.792756 1.140361 1.580400 0.383401 0.146254 -0.843538 
-0.746909 0.761699 1.126900 0.931360 0.229624 0.130580 
-0.664471 -0.836315 1.012650 -0.991312 0.021607 -0.044883 
-0.174825 1.093824 0.361919 -0.794118 0.407856 -0.295467 
-0.400893 -0.585561 0.122947 0.387374 -0.017275 0.855533 
-0.427008 -0.386039 0.104227 -0.865121 -0.148232 -0.449009 
-0.839802 0.538935 1.645467 0.954707 0.035383 0.099003 
0.465558 -0.965878 0.447322 -0.653327 -0.063251 0.605534 
0.827891 -0.061252 1.890761 -0.710146 0.403584 0.506459 
1.086390 0.838178 2.645118 -0.960581 0.184681 0.120096 
-0.423087 0.530554 0.336743 0.858802 0.195036 0.455284 
0.525187 0.165756 0.548588 -0.839890 -0.177939 0.432193 
0.369626 -0.884990 0.249173 0.702467 -0.134964 -0.626637 
-0.724213 0.367635 0.846362 -0.960557 -0.227074 -0.080799 
-0.255443 -0.917675 0.099478 0.158627 0.024658 0.922166 
0.676569 -0.313475 1.098811 0.962107 -0.141974 -0.083179 
-0.521612 -0.876270 0.641937 0.795210 -0.013240 0.383664 
-0.961386 0.335775 3.088294 -0.896520 -0.409404 0.151789 
-0.188039 -0.296709 0.211671 -0.299527 -0.186747 0.913861 
0.800193 0.664981 1.519388 0.949942 -0.281824 -0.131970 
-0.392955 -0.642074 2.020871 -0.806695 -0.552034 -0.142243 
-0.928976 0.230340 2.112779 0.897885 0.321357 0.269683 
-0.997368 0.569447 2.075241 0.921604 0.144108 0.286667 
0.380468 -0.763337 0.221545 -0.533538 -0.002484 0.761735 
-0.726063 0.210462 1.242609 -0.948816 -0.305842 -0.039568 
0.150796 -0.103337 -0.261038 0.491456 -0.125401 -0.847783 
0.752179 -0.200389 1.491087 0.940339 -0.279665 -0.059196 
0.765164 0.744571 1.362704 0.958804 -0.254007 -0.108724 
1.006097 0.599002 2.139713 0.908797 -0.260699 -0.290460 
-0.655334 0.275447 0.563329 -0.963434 -0.025256 -0.243023 
-0.558134 -0.108059 0.480000 0.751669 -0.053748 0.473726 
0.575384 -0.242591 0.569096 0.948987 -0.064063 -0.286625 
0.278322 -0.153406 -0.183638 0.534884 -0.180759 -0.816119 
0.563889 0.428934 0.678437 -0.934239 0.236437 0.186838 
-0.834071 0.377626 1.797714 0.890252 0.220285 0.322439 
-0.252361 0.677919 0.334071 -0.466573 0.211981 0.826063 
0.672943 -0.605338 0.924895 0.971805 0.033657 -0.127587 
0.803921 -0.145080 2.975262 0.901830 -0.348135 0.225520 
0.566362 -0.809511 0.657943 -0.802715 -0.088139 0.411525 
0.595131 0.343099 0.674952 0.839621 0.438302 -0.296706 
-0.633674 0.181089 0.726611 0.915796 -0.128763 0.361853 
0.718733 -0.329061 1.344877 0.956751 -0.205901 -0.005294 
0.628246 -0.393836 0.915948 0.966814 -0.085255 -0.072783 
-0.146905 1.206514 0.075908 -0.700733 0.546497 -0.390013 
-0.862430 0.733645 1.663677 0.866337 0.101607 0.392532 
-0.149245 0.319889 -0.278738 -0.510617 0.022186 -0.852090 
-0.530276 0.577149 0.198422 -0.900960 0.367762 -0.179917 
-0.806566 -0.163814 2.380658 0.866137 0.432917 0.133751 
-0.638033 -0.306253 0.843100 0.969322 0.078423 0.093224 
0.557156 0.081644 0.646948 -0.910941 -0.140204 0.334041 
0.448429 -0.561049 1.755676 -0.773774 0.582789 -0.137929 
1.052112 0.250227 2.628245 -0.924207 0.373288 0.025754 
0.436669 0.336047 0.347017 -0.746178 -0.131999 0.577424 
-0.760782 0.805583 1.002622 0.842997 0.320105 0.092172 
-0.694764 0.236510 0.762312 -0.962777 -0.170405 -0.157006 
0.440379 0.114554 -0.019060 0.872300 -0.083030 -0.477264 
-0.649957 -0.256874 1.328553 0.948382 0.218624 -0.032353 
