-0.270386 -0.338706 0.197929 -0.567485 -0.110655 0.778151 
0.336607 -0.485251 -0.021450 0.552577 -0.062321 -0.816889 
-3.221506 0.391720 -0.068132 -0.014649 0.246542 0.956337 
-2.974739 0.115845 -0.021662 0.157529 -0.338217 -0.921084 
0.642775 -0.001241 0.254733 -0.019469 -0.205783 0.960380 
-0.741425 0.260043 0.184448 -0.385164 -0.015900 -0.876300 
0.137494 0.843714 -0.050597 0.538710 0.345545 -0.748408 
1.251278 -0.042109 0.256915 -0.005510 -0.082342 0.979072 
-1.024018 -0.469436 0.237813 -0.207078 0.033518 -0.976823 
0.100307 0.642910 0.462211 0.069465 0.230982 0.967765 
-0.999139 -0.225470 0.279384 0.115868 -0.073033 0.990106 
-1.002688 0.670841 0.304836 0.078516 0.162271 -0.980027 
-0.013549 0.626866 -0.220233 -0.363648 0.456031 -0.803512 
-0.297552 0.222257 -0.140559 -0.766791 -0.005307 -0.630869 
2.276476 0.893321 0.266130 0.437295 0.002426 -0.897677 
0.340962 -0.717620 0.032829 0.425386 -0.130631 -0.871159 
-0.870955 0.147854 0.232297 -0.269353 -0.054765 -0.939293 
0.201114 0.015857 -0.215947 0.630549 -0.062572 -0.742262 
-0.048508 0.977291 -0.039590 -0.361526 0.235219 -0.882266 
1.900784 0.211460 0.190298 0.099316 -0.199952 -0.973544 
0.432616 -0.283941 0.111611 0.210214 -0.141303 0.948940 
2.995779 -0.387790 0.693662 0.478956 -0.341972 -0.797367 
-0.538434 -0.125001 0.194673 -0.062901 -0.176912 0.953126 
1.992197 -0.099221 0.191814 0.047015 -0.158564 -0.979794 
-2.753484 0.429648 -0.025299 -0.263457 0.022074 0.962531 
-0.038188 1.299542 0.180040 -0.256792 0.881038 0.372572 
3.255350 0.653359 0.578195 -0.582040 -0.046807 0.775031 
2.852527 -0.462166 0.603926 0.422600 -0.357206 -0.828755 
0.837026 0.011123 0.200633 0.279367 -0.009436 -0.918014 
-0.757852 0.189625 0.192021 -0.370053 -0.050021 -0.880831 
-2.583235 -0.208254 0.122830 -0.398447 0.269872 0.822416 
-0.276718 -0.461871 0.181830 -0.558548 -0.117353 0.807680 
0.520789 0.535471 0.166252 0.608833 0.341635 -0.644111 
1.750820 0.806914 0.274113 0.106558 -0.155206 0.962123 
2.139001 0.460550 0.263222 0.087237 -0.045063 0.970796 
-0.319339 -0.471775 0.119022 -0.441655 -0.113807 0.875561 
-0.053681 0.402471 -0.295341 -0.537710 0.205016 -0.790252 
-1.949843 0.502166 0.294253 -0.173527 -0.176341 0.935261 
0.346835 -1.201132 0.161648 0.497915 0.303007 0.746865 
-0.644604 0.337974 0.152419 -0.501578 0.082854 -0.800840 
2.390487 0.507354 0.276459 0.231270 -0.129688 -0.939956 
-0.101870 0.046874 -0.286377 -0.554132 -0.027957 -0.813863 
2.551799 -0.134269 0.347649 0.389308 -0.241283 -0.880584 
-2.404772 -0.305300 0.188195 0.002073 -0.276871 -0.957750 
1.271804 -0.534414 0.236157 -0.087296 0.011352 0.992189 
-2.406775 -0.213580 0.151554 0.006508 -0.255043 -0.963601 
-0.136484 -0.468024 -0.143022 -0.371295 -0.406974 -0.819250 
1.648821 0.763119 0.287423 0.095119 -0.051963 0.979310 
3.515057 0.449298 0.858364 -0.727181 0.000955 0.666758 
-0.305925 -0.231902 -0.054495 -0.635096 -0.104891 -0.752236 
-0.045144 1.092697 0.424499 0.016716 0.308967 0.910775 
2.330562 -0.060429 0.276301 0.490958 -0.155088 -0.840635 
-0.871725 0.276207 0.330176 -0.068380 -0.171002 0.978781 
1.637819 -0.181799 0.218083 -0.093056 0.068031 0.986173 
1.490738 0.671000 0.289250 0.141679 -0.133417 0.961928 
2.795454 0.524762 0.366091 -0.113097 0.235393 0.955673 
-1.940543 0.915239 0.228289 0.098380 0.173326 -0.968086 
-0.685423 -0.258229 0.121101 -0.400426 -0.011239 -0.883046 
0.235415 -0.863021 0.046485 -0.014731 -0.322114 -0.919772 
2.537737 0.088166 0.310959 -0.214291 0.128732 0.957434 
0.196178 0.095334 -0.227789 0.650131 -0.030157 -0.727665 
1.772753 0.361023 0.236054 0.026368 -0.137250 0.951962 
-2.907442 0.678177 -0.084444 0.163106 0.049692 -0.982600 
3.029064 -0.260152 0.667414 -0.512492 0.267429 0.793720 
-2.906226 0.750568 -0.074683 0.159237 0.044216 -0.985333 
-0.379908 -1.424433 0.161858 -0.062603 -0.199053 -0.970758 
2.994876 0.244564 0.451971 0.280270 -0.374512 -0.874377 
-1.686853 0.412724 0.259242 0.001164 -0.224742 -0.968101 
-0.321444 0.803492 0.324568 -0.746513 0.410036 0.443698 
2.297083 0.020668 0.255334 0.517339 -0.077319 -0.838057 
0.039904 0.206763 -0.346015 0.543210 0.047530 -0.828690 
-0.468904 -0.432596 0.039182 -0.491202 -0.044397 -0.842440 
-0.389079 -0.223109 0.001149 -0.618092 -0.021906 -0.769270 
-0.224915 0.683052 -0.106077 -0.487830 0.520412 -0.669995 
0.934275 -0.480642 0.231040 -0.032488 -0.075178 0.993963 
-1.948482 -0.208624 0.276283 -0.103129 0.164393 0.980192 
-3.170580 0.607050 -0.083077 -0.019951 0.071766 0.985447 
-1.835197 0.905073 0.277806 0.368289 0.691325 -0.570913 
-2.134752 0.032707 0.163431 0.453360 -0.163601 -0.844648 
2.559574 -0.449627 0.488597 -0.159084 0.339791 0.878025 
3.454189 0.603014 0.735996 0.718854 0.093318 -0.668113 
1.998018 1.225522 0.230428 0.018454 0.272831 -0.917058 
-1.881748 -0.019853 0.263020 0.078984 -0.205058 -0.972967 
0.109515 0.664865 -0.161674 0.410259 0.488747 -0.746344 
-3.696653 0.350584 0.049885 -0.260332 -0.129706 -0.953741 
3.207542 -0.283284 0.828736 0.564285 -0.318467 -0.750283 
0.607360 -0.916472 0.156070 0.031535 0.012624 0.993947 
-2.200977 -0.141991 0.190387 0.416024 -0.264218 -0.844577 
-1.023008 0.458030 0.306352 0.051935 0.308285 0.944107 
0.210137 0.618863 0.440906 0.260271 -0.186184 0.922657 
0.326016 0.077990 0.003188 0.698817 -0.050722 -0.701541 
0.597691 0.460898 0.365665 -0.090948 0.211308 0.963251 
2.683557 0.677389 0.393639 -0.227572 -0.016798 0.920170 
-2.587999 -0.296125 0.151763 -0.427612 0.297418 0.794018 
-1.911316 -0.496661 0.372006 0.035929 -0.266784 -0.954369 
2.715175 0.017673 0.357159 0.323174 -0.221886 -0.914498 
2.064229 -0.280192 0.267431 0.074872 -0.294722 -0.940513 
1.954818 0.739575 0.197124 0.065164 -0.239647 -0.967165 
-2.698765 0.257676 -0.003143 -0.245122 0.088437 0.960703 
-1.588584 -0.365021 0.287348 -0.047043 -0.134381 -0.975433 
-1.385725 -0.259489 0.286305 0.038254 0.030723 0.985699 
-0.367486 0.146302 0.036242 -0.710014 -0.015398 -0.689940 
-3.863646 0.362716 0.115106 0.309301 0.085590 0.941597 
0.047034 1.344339 0.023247 0.595554 0.607736 -0.479882 
0.456354 0.412855 0.365836 -0.105804 -0.068372 0.967373 
1.555305 0.246267 0.214097 0.099419 -0.188131 -0.976752 
-2.564081 -0.792278 0.358354 0.187240 -0.367085 -0.908045 
-1.517371 0.175982 0.260775 -0.040438 -0.184610 -0.973033 
0.460073 0.314465 0.086286 0.653112 0.051830 -0.711810 
-1.536480 0.279376 0.297176 -0.158197 -0.126009 0.954302 
-0.296556 -0.781428 0.149609 -0.244985 -0.028387 0.922481 
3.223891 0.079503 0.679921 0.460338 -0.360447 -0.788523 
1.422227 0.501908 0.273704 0.172282 -0.247917 0.936194 
0.326045 -0.307951 0.175231 0.580726 -0.151099 0.759840 
-1.927927 0.276419 0.289087 -0.153128 -0.070765 0.949964 
-1.679187 -0.602453 0.346084 0.069201 0.155876 0.973305 
-1.249837 0.089357 0.290899 -0.040074 -0.120124 0.969614 
-2.558704 -0.723339 0.329943 0.161857 -0.354912 -0.915122 
1.575743 0.741211 0.298597 0.013288 0.073965 0.985595 
0.483072 -1.120590 0.150675 0.109278 0.138364 0.910680 
-0.187694 1.169903 0.144167 -0.828329 0.485872 -0.225222 
0.928089 -0.914902 0.184684 -0.064584 -0.058508 0.993519 
0.384889 -0.388719 0.065262 0.284336 -0.113324 0.947239 
1.948551 0.296776 0.222574 -0.087460 -0.094369 0.944322 
-1.702091 -0.797200 0.427099 0.101671 0.230077 0.955723 
3.439544 0.422338 0.766476 0.672040 -0.132881 -0.722761 
1.478444 -0.551257 0.212745 0.120683 -0.104114 -0.985679 
2.325668 -0.477375 0.434425 0.409163 -0.349697 -0.832068 
-0.142849 0.112395 -0.265779 -0.609566 -0.011569 -0.766052 
-1.123901 0.312610 0.257924 -0.163764 -0.131717 -0.973325 
-0.294671 -0.315194 -0.076500 -0.610883 -0.136547 -0.768492 
0.121744 -0.712138 -0.020172 -0.034042 -0.431821 -0.898207 
-3.086235 0.595374 -0.046099 -0.037763 0.055990 0.968900 
-0.316340 -0.390239 0.164461 -0.636299 -0.125960 0.746835 
-1.757853 0.884559 0.280976 0.254647 0.562528 0.704389 
2.938267 0.181621 0.444845 -0.526926 0.076126 0.819576 
-0.866318 0.051966 0.224559 -0.284193 -0.034765 -0.930643 
-1.875231 -0.230854 0.267945 0.078322 -0.183382 -0.975411 
2.678521 0.081488 0.340465 -0.304196 0.158552 0.936283 
0.227295 0.173778 -0.214989 0.701838 -0.005933 -0.683984 
0.522155 -0.296510 0.127201 0.184342 -0.125060 0.956756 
-0.079237 -0.073378 0.267009 -0.137861 -0.127430 0.974718 
0.336684 0.748973 0.092102 0.789223 0.442921 -0.374909 
2.362663 0.759298 0.273353 0.223950 -0.269341 -0.922288 
-1.610252 0.257850 0.295130 -0.155322 -0.105512 0.954827 
0.310773 -0.785102 0.017916 0.317887 -0.241697 -0.891927 
-2.120589 0.105661 0.200077 -0.017330 -0.032122 0.984192 
-1.388612 -0.799507 0.325190 0.184334 0.063361 0.976040 
0.260080 0.484924 -0.165209 0.649450 0.134121 -0.726524 
0.014527 -0.783358 0.208211 0.445773 -0.025352 0.886426 
0.109303 -0.306455 -0.216233 0.457241 -0.259498 -0.826598 
-0.193089 0.525317 0.423446 -0.148382 -0.244420 0.954899 
3.113529 -0.107819 0.673986 -0.574495 0.204547 0.768060 
0.175962 -0.463693 0.226264 0.266736 -0.135846 0.948173 
-3.412420 0.345559 -0.017447 0.093617 0.190271 0.960100 
1.982304 -0.487883 0.341039 0.168337 -0.374549 -0.891493 
0.213640 0.275883 -0.235178 0.720415 0.037289 -0.671180 
-2.239582 -0.556911 0.338977 0.267368 -0.367087 -0.865672 
-3.613655 0.415131 0.010274 -0.234398 -0.119111 -0.961847 
0.340823 0.778084 0.317855 0.771973 0.419524 0.391722 
0.962569 0.220223 0.246244 0.173710 -0.079116 -0.979991 
1.697009 0.377178 0.206838 0.092320 -0.204117 -0.973693 
1.331437 0.588992 0.297621 0.138263 -0.137508 0.959165 
0.040735 0.050981 0.275398 0.088584 -0.184480 0.976708 
2.984083 -0.041139 0.529386 0.343271 -0.407166 -0.844215 
2.739154 0.156837 0.358538 -0.325713 0.128578 0.926160 
0.866209 -0.697516 0.201184 -0.018216 -0.054466 0.993742 
2.296307 0.636462 0.278128 -0.065457 -0.232135 0.928889 
-0.122744 0.544949 -0.206457 -0.506650 0.291772 -0.772978 
1.388816 0.679703 0.284197 -0.128339 0.315680 0.897901 
0.206673 -0.947161 0.137360 0.040123 0.026343 0.988950 
-2.277678 -0.628541 0.360026 0.251342 -0.370376 -0.873214 
0.174572 -0.541368 0.204671 0.233997 -0.173125 0.953001 
-0.365112 -0.007387 0.198481 -0.127571 -0.249811 0.946128 
0.786004 -0.092258 0.255475 -0.022479 -0.156494 0.974452 
1.955658 -0.349894 0.282223 -0.313196 0.234638 0.885523 
-2.356649 0.667990 0.119045 0.210445 -0.262548 -0.916719 
-3.736998 0.192208 0.088113 0.256445 0.162476 0.950057 
0.753650 -0.363210 0.195464 0.057264 -0.074324 0.982655 
-0.407165 0.044486 0.221405 -0.048494 -0.256318 0.941913 
1.017339 0.254784 0.291713 0.110660 -0.210838 0.966227 
0.669977 -0.134876 0.215173 0.042925 -0.158184 0.965626 
-2.263767 0.308831 0.131422 0.043030 -0.048275 -0.975567 
1.028090 -0.541508 0.231552 -0.049473 -0.096791 0.993648 
-2.980795 0.684425 -0.091463 0.138442 0.013604 -0.984727 
-0.392103 -0.502317 0.014318 -0.517127 -0.060021 -0.830219 
2.700308 0.472630 0.343529 -0.216152 -0.017943 0.960081 
3.017340 0.180206 0.486355 -0.592379 0.063032 0.783190 
-0.612399 -0.299671 0.154633 -0.123360 -0.107344 0.963171 
1.606499 0.434152 0.254236 0.096741 -0.192707 0.944151 
1.089212 0.089773 0.277329 0.059142 -0.168187 0.970806 
3.343759 0.476995 0.656794 0.630102 -0.119694 -0.762465 
-0.949950 -0.906942 0.195458 -0.206662 0.029649 -0.972912 
-2.163875 0.262368 0.147901 0.481028 -0.166542 -0.826211 
-0.250379 -0.078742 -0.171907 -0.652343 -0.108605 -0.721219 
1.345054 0.503984 0.280503 0.199057 -0.258663 0.934251 
0.575365 0.000109 0.100941 0.504535 -0.001219 -0.802559 
-1.725869 -0.655425 0.377809 -0.066465 -0.223156 -0.959220 
2.950527 0.679535 0.459859 -0.353624 0.046706 0.896872 
-0.959366 0.253731 0.258701 -0.200633 -0.088961 -0.974578 
0.097625 -0.436864 0.247419 0.144121 -0.161426 0.974322 
-3.044690 -0.408750 0.125918 0.043022 -0.310416 -0.943969 
-2.522171 -0.844599 0.391489 0.204283 -0.374723 -0.902565 
0.204214 0.850730 -0.017032 0.607053 0.356769 -0.696512 
-1.888694 -0.151888 0.279181 -0.113597 0.129512 0.977831 
-0.387867 -1.030580 0.110232 -0.263072 -0.184266 -0.945504 
-2.649932 -0.176049 0.083262 0.103843 -0.241339 -0.958607 
-1.762728 0.289561 0.292797 -0.156356 -0.099801 0.951034 
2.322505 -0.811536 0.606985 -0.268260 0.411162 0.867484 
2.054368 -0.636581 0.442095 -0.398512 0.360235 0.826017 
2.304705 0.793394 0.306405 -0.134237 -0.137782 0.966788 
2.410028 0.818851 0.347358 -0.098202 -0.059913 0.936561 
-0.191592 0.288380 0.351741 -0.125677 -0.312560 0.940694 
-0.477728 0.460584 0.112516 -0.700334 0.178235 -0.655930 
-2.316989 0.976011 0.163363 -0.355612 0.493586 0.759566 
2.145855 -0.561130 0.434076 -0.432211 0.335106 0.815443 
2.349254 -0.125006 0.310759 0.098725 0.240500 0.936038 
1.505587 -0.636108 0.211237 0.118849 -0.115369 -0.985696 
-0.612091 0.495487 0.199824 -0.468108 0.389841 -0.689884 
-1.354468 0.772283 0.293902 0.146503 0.297580 -0.889622 
-0.240548 1.272230 0.466324 -0.769018 -0.460472 -0.440649 
-2.574659 -0.419816 0.194884 0.052014 -0.302695 -0.946374 
1.724952 0.745582 0.211311 0.074268 -0.233548 -0.968978 
-2.202647 -0.626621 0.381450 0.003013 0.306774 0.938214 
-2.420591 0.030574 0.113163 -0.442750 0.172298 0.852585 
-0.067871 0.334354 -0.312384 -0.571286 0.129198 -0.785019 
-3.218560 -0.115104 0.067801 0.073512 0.180249 0.961569 
2.391196 -0.764399 0.600860 -0.285036 0.401682 0.865591 
0.388267 0.029001 0.029818 0.657245 -0.013843 -0.729708 
0.128796 -0.954116 0.095715 -0.085422 -0.418598 -0.900813 
-0.685793 -0.827626 0.162834 -0.249425 -0.074060 -0.956658 
2.684138 0.726232 0.337907 0.405550 0.044553 -0.908111 
-1.337665 -0.649809 0.329986 0.165496 0.055787 0.979968 
-1.640384 -0.536399 0.321643 0.064296 0.125419 0.978842 
-0.382465 -0.952232 0.101383 -0.299697 -0.173937 -0.932394 
1.482419 0.819442 0.263701 -0.230326 0.407902 -0.782514 
-0.555695 0.403904 0.370707 0.096300 -0.027749 0.972501 
0.035298 0.404357 -0.306041 0.521118 0.214101 -0.803629 
-2.387846 0.093967 0.084483 0.026594 -0.041854 -0.987904 
3.155963 0.349847 0.526533 -0.453691 0.265072 0.837051 
-0.218963 0.821204 -0.025717 -0.575938 0.421512 -0.692632 
2.455624 0.926069 0.310265 0.346246 0.256931 -0.861650 
0.915394 0.292007 0.229896 0.213114 0.028709 -0.974032 
-0.087901 1.003320 0.440803 -0.192962 0.084670 0.970390 
-2.203547 0.980187 0.194011 0.140961 0.458008 -0.821132 
-1.855563 0.054616 0.262362 0.067797 -0.208960 -0.972060 
0.283301 0.287329 -0.189000 0.786550 0.026766 -0.611835 
1.800561 -0.448058 0.277615 -0.202722 0.233005 0.931735 
-2.018644 -0.262632 0.280751 -0.047045 0.187604 0.974105 
-0.227696 0.598841 0.430905 -0.233457 -0.184993 0.931446 
2.663835 0.619127 0.330465 0.458299 0.134235 -0.870245 
-1.590434 -0.452538 0.310827 0.050029 0.103503 0.980632 
-1.702981 0.486729 0.258542 0.002690 -0.231556 -0.966806 
0.218229 0.401980 0.386472 0.116363 -0.278984 0.949121 
-2.166218 -0.552366 0.360245 0.051475 0.289298 0.946278 
0.672451 -0.449596 0.174507 0.080923 -0.058595 0.981034 
-1.353325 -0.322989 0.278514 -0.112393 -0.082973 -0.976973 
-0.541555 0.269571 0.108170 -0.571613 0.014397 -0.768837 
-0.201062 -1.203960 0.176749 0.194456 -0.004008 0.612782 
-3.883715 0.479165 0.111360 0.326149 0.029151 0.937744 
-1.462789 -0.766694 0.351645 -0.186639 -0.138092 -0.972013 
-2.750889 0.786135 0.036665 -0.261526 0.011914 0.924474 
-0.018088 0.687182 -0.175416 -0.303536 0.567765 -0.755728 
-0.293566 0.720281 -0.051178 -0.588355 0.549241 -0.588407 
-0.176546 0.660185 0.450087 -0.185243 0.282968 0.920375 
3.036542 0.804175 0.439373 0.417259 0.166467 -0.887831 
3.301543 0.038134 0.769343 0.670306 -0.162501 -0.708406 
0.165311 1.171076 0.358682 0.883841 0.062596 -0.324639 
3.482705 0.485059 0.798250 0.687467 -0.111306 -0.712150 
3.618849 0.460858 0.979925 -0.612104 0.279138 0.690653 
-1.842915 0.850382 0.329410 -0.012678 0.063674 0.994226 
-0.862859 -0.058581 0.216353 -0.299546 -0.011927 -0.921689 
2.173486 0.519485 0.233104 0.415701 -0.161186 -0.862527 
0.234976 -0.409033 -0.142386 0.533838 -0.254151 -0.801969 
-2.080461 0.419039 0.230417 -0.078178 -0.169568 0.957736 
-0.312365 -0.395537 -0.063259 -0.607417 -0.084415 -0.782970 
-2.892556 -0.398143 0.111459 -0.119274 0.290138 0.947315 
2.506918 -0.394188 0.448592 -0.069432 0.329291 0.887325 
1.936089 -0.047399 0.187744 0.085780 -0.171831 -0.977948 
-1.788463 -0.767704 0.442803 0.064151 0.264937 0.950075 
-2.353672 -0.382545 0.231496 0.290883 -0.344111 -0.883156 
-0.620246 0.641497 0.317380 0.083521 0.289253 0.931907 
-1.609511 0.844369 0.285738 0.177375 0.419297 0.785890 
-3.552626 -0.060024 0.101439 0.157997 0.213973 0.961251 
-1.214988 0.147537 0.257602 -0.136008 -0.115768 -0.974875 
0.359990 -0.239769 0.123688 0.269130 -0.170498 0.927423 
0.349475 0.614808 -0.055098 0.648345 0.328956 -0.679409 
-0.378268 0.049483 0.029190 -0.682285 -0.016907 -0.712581 
-0.546513 0.507156 0.149437 -0.599465 0.302838 -0.661346 
-2.198698 0.532628 0.191452 -0.454475 -0.177229 0.824463 
-0.134423 0.584656 0.453004 -0.170575 -0.255256 0.950243 
-0.039010 -0.526365 -0.122058 -0.132290 -0.629450 -0.763117 
3.191899 0.661200 0.539441 -0.510618 0.002944 0.825113 
2.595435 -0.180818 0.392699 -0.188699 0.254183 0.910184 
0.034567 -0.201347 0.264023 0.130052 -0.043151 0.983580 
-1.313725 -0.232730 0.263491 -0.102868 -0.068200 -0.978065 
1.904735 0.908519 0.276702 0.018678 0.090389 0.966763 
-1.286296 -0.298259 0.273922 -0.127864 -0.067387 -0.977539 
-0.021932 1.027608 0.452351 -0.161543 0.186944 0.964723 
-1.208600 0.367444 0.302401 -0.118609 -0.236308 0.952376 
1.825831 -0.214178 0.201906 -0.112224 0.122137 0.984674 
0.785978 0.338170 0.344403 0.049925 -0.086494 0.981085 
2.377563 -0.371301 0.393276 0.450523 -0.325780 -0.825064 
-1.850705 -0.705542 0.438600 0.028546 0.276940 0.949254 
3.512361 0.047507 0.966224 0.692245 -0.236086 -0.680075 
-3.422843 0.515643 -0.051318 0.167747 0.019002 0.971308 
1.382081 0.540906 0.230808 0.085998 -0.203466 -0.975033 
0.014173 0.915038 -0.075863 0.344268 0.316487 -0.875531 
-0.773983 0.004474 0.293634 0.115646 -0.177891 0.968862 
2.846683 -0.003801 0.438868 0.331662 -0.311674 -0.880925 
1.014516 -0.876746 0.193628 0.086747 0.037984 -0.992459 
0.287279 0.794249 0.367509 0.589836 0.367055 0.654739 
3.618918 0.185999 1.039562 0.728427 -0.193188 -0.655354 
-0.338734 0.785006 0.131636 -0.852187 0.413990 -0.293444 
2.857260 -0.229804 0.522783 -0.449255 0.239756 0.836662 
0.511085 -0.052929 0.068201 0.543024 -0.008046 -0.790171 
0.495227 -0.561446 0.119191 0.162045 -0.047212 0.971350 
2.464697 -0.333518 0.396924 0.464756 -0.318731 -0.823792 
0.938195 0.106913 0.288768 0.046923 -0.175804 0.978874 
0.809660 -0.783335 0.187037 -0.007064 -0.039077 0.993722 
-0.580691 0.546581 0.246258 -0.476602 0.481408 -0.651386 
-0.793965 0.596110 0.312554 0.020618 0.160466 0.964754 
-2.985279 0.210230 -0.045609 0.168646 -0.342296 -0.917201 
0.458542 -0.271571 0.018319 0.535574 -0.020558 -0.815236 
3.362612 0.700347 0.644031 -0.370254 0.486751 0.784842 
1.309950 -0.261210 0.241550 -0.074686 -0.007013 0.990873 
-0.183415 0.356707 0.383143 -0.128039 -0.321740 0.937170 
-1.197601 0.313818 0.257616 -0.146170 -0.145861 -0.973046 
-3.226760 0.317648 -0.056282 -0.219384 0.006272 -0.972944 
-0.301752 -0.467463 -0.064910 -0.560852 -0.141180 -0.801393 
3.086556 -0.176679 0.680527 -0.549668 0.234711 0.777426 
0.332469 -0.186525 -0.023106 0.648297 -0.035490 -0.754028 
-0.217724 0.896064 0.008272 -0.666774 0.291239 -0.680292 
-1.298069 0.310939 0.258656 -0.114074 -0.166234 -0.972576 
-2.629146 0.279413 0.006816 0.294057 -0.122670 -0.934600 
-3.302291 0.334143 -0.042553 -0.205913 -0.034037 -0.972069 
2.684405 0.541154 0.332405 0.150467 -0.296149 -0.933159 
-3.621116 -0.034597 0.109028 -0.201867 -0.207793 -0.953490 
2.959929 0.845155 0.421819 0.383517 0.264034 -0.877025 
3.092319 0.385853 0.489632 -0.408551 0.199362 0.867549 
-2.285474 0.908013 0.192771 -0.475894 -0.060250 0.849143 
-2.049232 0.114602 0.206868 0.289805 -0.192108 -0.900020 
1.182338 0.251319 0.279268 0.120088 -0.204924 0.955526 
0.078834 -0.639454 -0.052232 0.097297 -0.440115 -0.884305 
1.870643 0.106957 0.214491 -0.054071 -0.005310 0.967703 
-1.111439 -0.057682 0.285278 0.039080 -0.098230 0.980519 
2.640418 0.426354 0.319629 0.161664 -0.166060 -0.954197 
2.115840 0.251415 0.200588 -0.049475 -0.157274 -0.980180 
0.082525 0.744996 0.436400 0.096002 0.086694 0.988188 
0.033605 -0.696953 0.209158 0.366042 -0.075235 0.921804 
-1.590997 0.498861 0.258552 -0.031442 -0.224686 -0.967666 
0.311637 0.875491 0.157609 0.913735 0.321257 -0.227617 
-1.244367 -0.202874 0.279455 0.053898 -0.010859 0.988045 
2.498761 0.787312 0.370464 -0.148566 -0.043240 0.923486 
1.578946 0.666172 0.268565 0.149052 -0.305370 0.931246 
-2.285198 0.009760 0.179588 -0.297646 0.101696 0.897650 
2.169368 -0.642440 0.481638 -0.386092 0.357764 0.829119 
1.410630 0.606257 0.280079 0.195537 -0.298485 0.930409 
-2.789059 -0.590643 0.214685 0.124626 -0.339859 -0.929313 
-0.028089 0.940331 0.451318 -0.155955 0.066786 0.972563 
-0.723053 0.595687 0.314327 0.048604 0.236964 0.946964 
-0.295016 -0.994124 0.126562 0.033787 0.047354 0.991376 
-1.282450 0.510502 0.258727 -0.124597 -0.203445 -0.970355 
-0.029812 0.187553 -0.350439 -0.529057 0.041165 -0.840582 
1.221818 -0.748683 0.215356 -0.080726 -0.022961 0.992371 
-0.435913 0.239141 0.292498 0.075827 -0.314171 0.938819 
-0.359862 0.302076 0.050890 -0.751073 0.029355 -0.651449 
2.484965 0.139940 0.298984 -0.171719 0.089683 0.970122 
1.602351 -0.767854 0.328786 -0.249763 0.266748 0.904889 
2.859172 0.705664 0.440531 -0.309455 0.029021 0.904273 
-2.099181 -0.529214 0.360781 0.191914 -0.353672 -0.883997 
-1.358002 0.537486 0.258449 -0.103058 -0.211421 -0.969250 
-2.709729 -0.044371 0.035794 -0.189900 0.200560 0.958597 
0.337480 0.800358 0.145414 0.875049 0.398447 -0.267186 
-0.842838 -0.627994 0.200186 -0.228404 -0.025564 -0.966628 
2.713333 -0.192222 0.424116 0.353201 -0.257693 -0.892655 
0.901800 0.137533 0.231367 0.215071 -0.050243 -0.959149 
3.496339 0.347218 0.849913 0.691994 -0.152569 -0.700017 
-2.894901 -0.070925 0.026758 0.143588 -0.300080 -0.936618 
-2.736406 -0.141398 0.051248 0.146731 -0.230235 -0.957498 
-1.953337 0.183214 0.284114 -0.141172 -0.024286 0.956310 
1.035997 -0.230786 0.241076 0.133727 0.010519 -0.990203 
-1.053959 -0.111711 0.283232 0.069721 -0.091820 0.984600 
2.079419 0.609656 0.196408 0.267902 -0.074477 -0.919661 
0.216056 1.114044 0.111274 0.859303 0.396469 -0.307434 
1.252375 0.273993 0.274989 0.123880 -0.194791 0.952832 
3.091744 0.800038 0.483169 -0.315467 0.231182 0.904193 
1.946313 0.380088 0.226034 -0.062867 -0.131920 0.942934 
3.355943 0.251139 0.745224 -0.586059 0.223864 0.758310 
2.526800 -0.203027 0.366276 0.413941 -0.267829 -0.861701 
-2.027685 -0.185770 0.253914 -0.052215 0.151364 0.979836 
-0.342735 0.688610 -0.009568 -0.624948 0.575493 -0.488797 
-3.239648 0.061655 0.020762 0.131774 0.102457 0.970526 
1.978790 0.224627 0.192934 0.051914 -0.186814 -0.975548 
2.353490 -0.292501 0.361242 0.141604 0.310308 0.909294 
2.043596 0.071614 0.219508 -0.299832 -0.008128 0.908203 
2.971091 -0.216810 0.596413 0.400938 -0.377921 -0.825853 
2.465615 0.429771 0.287300 0.209912 -0.089600 -0.953949 
0.273124 -0.695014 0.153646 0.354987 -0.058148 0.892555 
1.283168 -0.791534 0.212202 0.104120 -0.040476 -0.990279 
0.887206 0.483752 0.297493 0.022435 0.215496 0.959210 
-0.363792 0.595174 -0.034113 -0.666592 0.303650 -0.670121 
1.804574 0.182999 0.196268 0.101199 -0.193733 -0.974895 
1.633856 -0.100752 0.202727 0.118239 -0.133749 -0.980642 
0.901022 0.066030 0.226653 0.217461 -0.031723 -0.954898 
-3.336010 0.779550 -0.082842 -0.216961 0.403664 -0.864220 
0.316389 0.227876 -0.057779 0.752953 -0.009004 -0.650330 
0.058330 0.090319 -0.318745 0.525148 -0.009810 -0.835511 
-0.821573 -0.201608 0.184904 -0.315509 -0.004894 -0.921229 
3.162237 0.743145 0.511696 0.526715 0.141980 -0.809834 
-2.652421 0.908720 0.049601 -0.274999 0.210093 0.892848 
-1.264499 -0.651724 0.299078 -0.197369 -0.057833 -0.973976 
-0.195194 -0.700626 -0.016845 -0.190712 -0.313272 -0.924751 
2.953862 0.592488 0.478882 -0.399663 0.036796 0.864192 
0.737641 -0.434934 0.198160 0.040903 -0.054858 0.986718 
1.087531 -0.494867 0.225791 0.114161 0.016033 -0.991481 
-0.796212 -0.041651 0.192140 -0.359728 -0.007572 -0.886747 
-0.282793 -0.693265 0.156525 -0.348284 -0.062162 0.894937 
-0.119599 0.371615 -0.265728 -0.610016 0.153687 -0.738818 
-0.256252 -0.302491 -0.143385 -0.594348 -0.196181 -0.766141 
-0.951952 0.325058 0.239094 -0.230305 0.027535 -0.967537 
-0.704381 0.382044 0.178718 -0.462562 0.126318 -0.817615 
1.942449 -0.545813 0.357281 0.201329 -0.389248 -0.879219 
-1.440158 -0.186182 0.259549 -0.054979 -0.095061 -0.977592 
-1.318789 -0.151299 0.258330 -0.094625 -0.076819 -0.977798 
-0.101590 0.655875 0.458851 -0.072680 0.213669 0.970305 
-3.476610 -0.045171 0.085154 0.158738 0.177493 0.962890 
1.239852 -0.273859 0.246743 -0.069943 -0.023914 0.991735 
-2.141498 0.162292 0.159610 0.457557 -0.172363 -0.839265 
3.273798 0.155411 0.704601 -0.518825 0.309303 0.780204 
-2.570320 0.627477 0.053575 -0.314281 -0.135623 0.902906 
-1.495560 0.345816 0.299666 -0.164782 -0.163594 0.950523 
-0.505306 0.194561 0.096580 -0.604602 -0.021503 -0.744630 
1.619197 0.698897 0.217608 0.077087 -0.225531 -0.970648 
0.579282 -0.064658 0.218997 0.038021 -0.193530 0.956437 
2.618194 0.723767 0.391629 -0.206793 -0.024584 0.914974 
3.420190 -0.081955 0.929362 0.660791 -0.259329 -0.699406 
1.558742 -0.069464 0.208280 0.117738 -0.124722 -0.981202 
2.120260 0.762713 0.254344 0.014242 -0.344276 0.907340 
-0.128511 -0.272393 -0.214402 -0.490164 -0.220937 -0.818838 
-2.375473 0.366372 0.109545 -0.391118 -0.055032 0.893654 
-0.880691 -0.767824 0.193776 -0.230927 -0.000683 -0.965852 
-2.639925 0.369057 0.002216 0.331406 -0.122742 -0.920356 
0.450838 0.243401 0.078603 0.639926 -0.020143 -0.725685 
-2.055699 0.771814 0.275715 -0.551906 -0.129955 0.808551 
-1.566136 -0.144259 0.260906 -0.015999 -0.129840 -0.976478 
1.906751 -0.139016 0.185192 0.108226 -0.170276 -0.978208 
2.169262 -0.390823 0.347978 0.070986 -0.375832 -0.912288 
-0.408732 -0.048934 0.030194 -0.640253 -0.017694 -0.742636 
-0.333451 0.498210 -0.094261 -0.696792 0.147583 -0.692486 
-2.476847 -0.548563 0.275084 0.094208 -0.321675 -0.932903 
-1.520143 -0.208595 0.279047 -0.009088 0.058419 0.985044 
3.107017 0.207945 0.523961 0.322785 -0.427681 -0.840539 
-3.663334 0.470567 0.023016 -0.251122 -0.101609 -0.958253 
-0.231095 0.003583 -0.194012 -0.658260 -0.072670 -0.718590 
-2.079435 -0.701532 0.437839 0.108244 -0.374684 -0.900136 
-0.129351 -0.675950 -0.033844 -0.033362 -0.407039 -0.904531 
-2.203045 0.775970 0.198068 -0.411519 -0.328945 0.813657 
1.092415 -0.186911 0.261257 -0.052357 -0.072026 0.992931 
-0.818970 -0.059438 0.284658 0.107280 -0.149504 0.973986 
0.705026 0.260241 0.165276 0.402207 -0.021441 -0.861847 
1.980731 1.072882 0.257081 -0.566907 0.041653 0.784505 
-3.122348 0.341779 -0.078595 -0.127178 -0.032608 -0.978448 
2.359627 0.671482 0.277313 0.241123 -0.272912 -0.910079 
-0.985246 -0.410702 0.254855 0.128423 -0.081466 0.986180 
0.737759 -0.001225 0.164793 0.373711 0.006375 -0.864709 
-2.613639 0.205827 0.012735 0.264018 -0.115976 -0.947055 
3.431267 0.090301 0.875005 -0.629021 0.254622 0.719985 
-0.689362 -0.001361 0.153443 -0.450888 -0.005987 -0.834726 
-2.457238 -0.886916 0.425933 0.216073 -0.382070 -0.896997 
-0.376217 0.381207 0.043478 -0.745000 0.091152 -0.648059 
-1.736463 0.037623 0.287068 -0.133613 0.017775 0.967463 
-1.454192 0.666271 0.335509 0.022616 0.081078 0.991274 
0.228149 1.153217 0.448459 0.621047 0.326688 -0.677787 
0.070364 0.596406 -0.205624 0.427493 0.387730 -0.782706 
-0.757838 -0.812631 0.173689 -0.242874 -0.046437 -0.959936 
-2.022741 0.740162 0.218694 0.062757 -0.151597 -0.940668 
2.252446 -0.475054 0.407715 0.257570 -0.379121 -0.885330 
-0.233915 0.742707 0.417233 -0.375489 0.317586 0.850032 
0.282601 0.061572 0.247625 0.178605 -0.262912 0.921306 
-2.130601 -0.055013 0.184671 0.397730 -0.198786 -0.861160 
0.353078 0.515949 -0.056967 0.700609 0.180476 -0.679057 
-3.497935 0.707301 -0.050513 0.054633 0.325976 0.911679 
0.193012 -1.180101 0.176762 -0.304766 -0.314768 -0.882734 
-1.413066 0.576341 0.307089 -0.186898 -0.285824 0.936723 
-0.891506 -0.059393 0.289242 0.090610 -0.135151 0.979618 
1.876832 0.359067 0.226927 -0.009586 -0.123155 0.954539 
-0.149997 1.190910 0.066301 -0.748030 0.452238 -0.445698 
-2.455494 -0.263746 0.158795 0.003610 -0.269169 -0.960792 
-0.795525 0.505223 0.311570 0.031078 0.273558 0.944124 
-1.986932 0.131783 0.238633 0.173376 -0.209437 -0.940674 
0.739228 -0.181582 0.214611 0.042931 -0.133465 0.972490 
0.278657 0.097693 -0.171919 0.725053 -0.047032 -0.660020 
3.594740 0.353429 0.967579 0.720704 -0.143614 -0.672268 
1.015368 0.069215 0.281627 0.045827 -0.162885 0.977444 
-2.658821 0.649879 0.026520 -0.335748 -0.023022 0.921923 
-2.437137 0.793235 0.092372 0.067031 0.059182 -0.989965 
-0.437244 -0.163092 0.028498 -0.596342 -0.018867 -0.775034 
1.849676 -0.393210 0.264618 0.194935 -0.262522 -0.927821 
-0.168780 0.789406 0.418749 -0.262108 0.146410 0.928656 
-1.179015 -0.254046 0.265818 -0.151485 -0.042102 -0.978492 
1.303533 -0.596523 0.224550 0.123112 -0.069936 -0.988244 
0.055498 0.288330 0.355262 0.031492 -0.332300 0.938415 
-0.241587 0.224697 0.310710 -0.112501 -0.304598 0.944887 
-0.492108 -0.503474 0.115371 -0.167158 -0.067036 0.966133 
1.064720 0.318742 0.291754 0.136895 -0.227358 0.958938 
-0.898758 0.365416 0.275536 -0.002263 0.473912 -0.873312 
2.097617 -0.435600 0.356842 -0.504369 0.300558 0.794108 
-3.309960 -0.222092 0.110522 -0.044527 -0.290086 -0.943618 
0.010251 -0.719578 -0.012310 0.527159 -0.373335 -0.721973 
-0.955092 0.290163 0.323784 -0.094540 -0.182022 0.976793 
0.589911 -0.073502 0.097058 0.476821 -0.003059 -0.822550 
-1.632806 -0.196912 0.261537 0.006710 -0.133069 -0.976750 
-1.579744 -0.296040 0.276048 -0.032868 -0.127491 -0.976165 
-1.200515 -0.081428 0.257184 -0.134257 -0.066317 -0.977586 
0.419716 0.673564 0.152084 0.701173 0.641700 -0.231262 
0.275050 0.601214 0.417754 0.308433 -0.144812 0.901330 
0.011146 -0.864586 0.203800 0.488984 0.012322 0.858829 
0.565414 0.060300 0.258557 -0.024544 -0.236474 0.952505 
-1.625459 0.193336 0.261332 -0.007431 -0.203593 -0.972069 
-2.795969 -0.345216 0.117192 -0.208956 0.285851 0.906042 
3.310134 -0.202801 0.880890 0.594529 -0.312492 -0.731221 
2.237051 0.498756 0.264764 -0.029797 -0.163301 0.946279 
2.347934 0.569117 0.271034 0.243513 -0.169471 -0.928780 
-0.028244 1.173277 0.381829 0.029800 0.590122 0.779541 
-2.052890 0.347930 0.241374 -0.089731 -0.128624 0.958766 
-1.038101 0.522714 0.281305 0.111769 0.372409 -0.903848 
-3.476874 -0.136669 0.110295 -0.106812 -0.271833 -0.945776 
-0.624764 -0.174867 0.199098 -0.048964 -0.145730 0.961204 
-0.095781 0.693531 -0.142553 -0.362573 0.553302 -0.722848 
0.295449 -1.126472 0.109900 -0.000365 -0.207881 -0.970223 
-3.281331 0.261240 -0.031770 -0.217797 -0.023492 -0.970000 
3.720765 0.354247 1.123147 -0.749277 0.116750 0.646386 
3.035627 0.584790 0.436019 0.439257 0.006558 -0.884970 
-0.039481 -0.202036 0.263740 -0.132244 -0.045580 0.983267 
0.191528 -0.344754 -0.173804 0.515387 -0.235566 -0.810396 
1.672390 -0.434273 0.199421 0.119050 -0.137683 -0.982534 
0.245647 -0.165976 -0.166238 0.615656 -0.143909 -0.748618 
-2.782793 0.774099 -0.030706 0.143523 0.035034 -0.987116 
1.869777 -0.458601 0.307265 -0.283267 0.273323 0.891943 
-1.559389 0.109034 0.290812 -0.119025 -0.051226 0.964903 
-1.161381 0.256005 0.298143 -0.073109 -0.204838 0.960157 
-2.916925 0.207888 -0.029470 -0.008590 0.064853 0.973705 
-2.046366 -0.483406 0.354248 0.149964 -0.319301 -0.909751 
0.510808 -0.472423 0.114167 0.185356 -0.071907 0.965855 
-2.927384 0.288087 -0.049813 0.224516 -0.322128 -0.909416 
0.213567 1.097986 0.395958 0.639867 0.553581 -0.479978 
-0.086045 -1.179434 0.209148 -0.411383 -0.083296 0.821766 
-0.886597 -0.215938 0.210433 -0.266375 -0.002685 -0.947476 
2.853667 0.770900 0.383107 0.395082 0.045720 -0.916311 
0.299710 -0.685424 -0.024357 0.422886 -0.229618 -0.861396 
2.027384 0.659880 0.200178 0.012290 -0.215395 -0.970985 
-0.149866 0.288635 -0.278343 -0.663376 0.057621 -0.721738 
-3.761754 0.337815 0.076692 -0.281005 -0.128416 -0.947878 
-3.400151 0.446982 -0.046129 0.118093 0.095994 0.981907 
-0.066513 -0.798688 0.195786 -0.294312 -0.026948 0.944146 
-1.906998 0.117831 0.261723 0.080395 -0.217405 -0.970601 
-1.453957 -0.613553 0.326650 -0.151696 -0.125013 -0.973587 
-0.920513 -0.185120 0.267597 0.086895 -0.091059 0.985073 
3.087345 -0.263834 0.718443 -0.528221 0.278307 0.782322 
-3.417619 -0.086306 0.088311 0.131713 0.189528 0.961287 
-0.321227 0.736344 0.042939 -0.713873 0.477800 -0.461949 
1.197433 -0.817383 0.207306 0.093162 0.004116 -0.992207 
-1.477639 -0.265436 0.270203 -0.058180 -0.104270 -0.976957 
2.122117 -0.300645 0.302690 -0.487854 0.244314 0.810726 
-0.391350 0.308954 0.310008 -0.006500 -0.257414 0.958183 
-0.170541 0.989594 0.413176 -0.347980 0.084041 0.899833 
0.558764 -0.523096 0.099752 0.339583 -0.071791 -0.906553 
-1.603471 0.765402 0.257962 0.275735 0.495155 -0.728527 
-2.298434 -0.114914 0.194664 -0.215150 0.157714 0.920321 
-2.024859 0.832719 0.292416 -0.517880 -0.132560 0.823012 
-0.003253 -1.100975 0.211926 -0.641675 -0.091016 0.710526 
2.002089 -0.008787 0.191703 0.036732 -0.159964 -0.979804 
-0.274586 -1.178581 0.129116 0.423734 -0.272048 -0.849765 
3.120074 0.147255 0.570529 -0.639791 0.078331 0.751968 
3.572049 0.259355 0.967918 -0.720012 0.129046 0.668719 
0.610956 0.119552 0.288886 -0.073230 -0.249787 0.955029 
0.294928 0.934112 0.221044 0.919608 0.327023 0.002503 
3.032401 -0.101915 0.602620 -0.552792 0.189017 0.783882 
-2.482912 -0.205260 0.131415 0.035653 -0.251756 -0.961930 
2.115910 0.507860 0.194744 0.325781 -0.062864 -0.918978 
0.178737 0.551142 0.433998 0.157625 -0.242747 0.954569 
-1.264077 0.437301 0.258451 -0.128418 -0.184768 -0.971291 
-1.494859 0.514848 0.303885 -0.180266 -0.244999 0.939712 
-2.328224 -0.861346 0.445860 0.160076 -0.381362 -0.903671 
-0.073228 -0.633414 -0.055070 -0.115400 -0.437279 -0.883049 
-2.786675 -0.044460 0.032615 -0.133970 0.183724 0.960508 
0.035555 0.693438 0.450512 0.050382 0.145565 0.982595 
3.462286 -0.014911 0.943090 0.676537 -0.245215 -0.690139 
1.910489 0.880056 0.199325 0.048905 -0.211976 -0.965754 
1.014413 0.523127 0.292664 -0.023832 0.240197 0.956809 
-0.273213 -0.224686 -0.120352 -0.623468 -0.171443 -0.744258 
-2.329432 0.198418 0.128847 -0.462075 0.063000 0.873670 
-0.145458 -1.122259 0.175748 0.177580 -0.366507 -0.910909 
-1.564918 0.022347 0.261088 -0.021017 -0.163372 -0.974564 
3.211850 0.383201 0.559277 0.634652 -0.073805 -0.762347 
-1.616589 -0.793983 0.399256 0.132025 0.185174 0.963887 
3.268588 -0.060329 0.781871 0.517221 -0.346652 -0.760921 
-0.064618 0.079288 0.276845 -0.092175 -0.205780 0.973138 
-2.969510 -0.390037 0.109127 0.083927 -0.328389 -0.938749 
2.271141 -0.772473 0.575291 -0.193400 0.403833 0.875269 
0.750145 -0.834230 0.166308 0.165909 -0.060878 -0.971295 
0.642196 0.642333 0.310497 0.295069 0.457168 -0.726738 
-0.376277 0.666712 0.349172 -0.525748 0.174139 0.764694 
0.116730 1.095167 -0.012482 0.488234 0.199875 -0.841802 
-0.286930 0.133376 0.258500 -0.099732 -0.285777 0.952245 
-0.315558 -1.124964 0.105576 -0.155430 -0.161925 -0.933537 
1.810408 0.008853 0.192875 0.109633 -0.180620 -0.976924 
0.827525 -0.158462 0.181017 0.272166 0.011065 -0.924762 
3.371524 0.188120 0.782605 -0.579597 0.269887 0.747056 
-3.814381 0.297973 0.101784 -0.297360 -0.134856 -0.942745 
0.595050 -0.582561 0.131755 0.277006 -0.088014 -0.933162 
2.691711 -0.359666 0.481684 0.399679 -0.318558 -0.854112 
2.899149 -0.356680 0.596963 0.410735 -0.366984 -0.828745 
-2.191025 0.706817 0.197353 -0.416838 -0.298512 0.821256 
-0.680469 -0.082084 0.140072 -0.440464 -0.007931 -0.847148 
0.702571 0.181170 0.163684 0.402839 -0.036137 -0.855840 
-0.662849 0.302454 0.331015 0.027321 -0.212570 0.961892 
-1.276544 0.018104 0.258090 -0.112795 -0.102360 -0.976058 
0.846476 0.652879 0.300531 0.029623 0.043391 0.989142 
0.636401 -0.646965 0.167456 0.207447 -0.105575 -0.962731 
-0.308996 0.651822 -0.103236 -0.596414 0.392072 -0.693637 
0.131925 -0.387918 -0.190070 0.453473 -0.303208 -0.822355 
-2.233641 -0.217148 0.201557 0.402848 -0.310161 -0.843001 
-3.031991 0.851175 -0.073969 -0.194630 0.154389 0.957970 
-1.997294 -0.729237 0.469029 0.046780 -0.373316 -0.913560 
-0.070870 -1.117319 0.175309 -0.055779 -0.417718 -0.893479 
-1.950296 0.743098 0.255568 0.066432 -0.268287 -0.960094 
-1.907934 0.565106 0.257596 0.060657 -0.251865 -0.963674 
-2.257048 0.828594 0.204710 -0.369124 -0.124526 0.909299 
-0.240163 1.187602 0.472494 -0.254852 -0.487203 0.826532 
0.336427 -0.631349 0.110133 0.312849 -0.057744 0.927445 
-2.313903 -0.251513 0.190255 0.414319 -0.346732 -0.834328 
-2.085061 -0.224438 0.236450 0.245825 -0.257300 -0.911291 
-3.438914 0.110715 0.040795 0.075502 0.271617 0.947043 
-3.262490 -0.170699 0.089878 0.067777 0.210391 0.958301 
-0.548000 -0.455234 0.084096 -0.417260 -0.052272 -0.877229 
-2.417452 0.624115 0.108923 -0.356636 -0.183721 0.875021 
2.622504 0.906754 0.359309 -0.175797 0.329596 0.881221 
-0.267991 0.498913 -0.159687 -0.646837 0.152891 -0.725111 
-0.485998 0.448018 0.386521 0.137598 0.042639 0.974564 
-0.310925 0.297124 0.317278 -0.089646 -0.263469 0.956935 
-2.343045 -0.305992 0.232875 -0.156411 0.254827 0.915846 
-0.334547 -0.548108 0.103002 -0.339809 -0.088364 0.921988 
-1.610226 0.434020 0.299512 -0.171451 -0.190257 0.943551 
0.294564 -0.561781 0.141513 0.453587 -0.098632 0.875678 
0.529347 0.465666 0.389981 -0.108282 0.127802 0.979480 
-2.638710 -0.376941 0.168670 -0.377138 0.310604 0.813673 
1.738422 -0.603938 0.321721 -0.249766 0.283654 0.903628 
0.127999 0.054334 -0.269804 0.576397 -0.031612 -0.792726 
2.248160 0.077475 0.272078 -0.088494 0.086654 0.961361 
1.117409 -0.567658 0.231824 -0.064361 -0.062681 0.993173 
1.630962 -0.693304 0.305063 0.227468 -0.266066 -0.913680 
-3.125809 -0.185980 0.074522 0.029161 0.201983 0.958727 
-0.212218 -0.946050 0.078504 0.181733 -0.365456 -0.906166 
-3.035396 -0.094279 0.031630 0.118229 -0.365868 -0.920137 
1.580040 -0.653342 0.258609 -0.167669 0.162124 0.955146 
2.104192 0.543511 0.264361 0.045279 -0.090676 0.952976 
3.062304 0.572643 0.505118 -0.454367 0.059630 0.852917 
3.462013 0.154623 0.876273 0.706076 -0.170174 -0.680783 
-2.744222 -0.527701 0.198793 0.099522 -0.327354 -0.935680 
-0.558141 -0.719292 0.163501 -0.028091 0.005526 0.990455 
2.303533 -0.409793 0.406217 0.084192 0.333308 0.903556 
0.201652 1.167256 0.195561 0.811144 0.534358 -0.129215 
-0.773415 0.075284 0.298358 0.080832 -0.198452 0.966909 
-2.406796 -0.536698 0.298688 -0.459725 0.332670 0.783979 
-0.463063 -0.802161 0.111755 -0.310960 -0.138024 -0.927141 
-0.448996 -0.994076 0.131646 -0.031570 0.041951 0.993955 
0.933905 -0.732385 0.194249 0.122940 0.007354 -0.984706 
1.549492 -0.533227 0.207951 0.119691 -0.118019 -0.984639 
1.896491 -0.624718 0.385926 -0.417641 0.362523 0.821136 
-1.738388 0.807123 0.232742 0.040005 0.093744 -0.984894 
-2.845760 0.178261 -0.030707 0.194981 -0.274810 -0.932486 
2.103835 -0.686876 0.479259 0.207237 -0.416292 -0.873484 
-2.013089 0.203810 0.225067 0.217187 -0.208575 -0.923014 
1.011214 -0.743662 0.201727 0.102074 0.036865 -0.990191 
-2.971534 0.764568 -0.048348 -0.185163 0.048859 0.963827 
2.059625 1.022867 0.244445 0.396756 0.528798 -0.720735 
-1.562594 -0.063752 0.260964 -0.019365 -0.145427 -0.975568 
0.555068 -0.642577 0.125252 0.280488 -0.104715 -0.932030 
-2.990959 0.603073 -0.085162 0.074156 0.049055 -0.982946 
-0.176312 -0.615896 -0.048679 -0.201049 -0.366857 -0.898273 
0.855167 -0.875385 0.180223 -0.014836 -0.048356 0.993461 
-0.138638 -0.241609 0.255312 -0.207908 -0.052564 0.971076 
0.508015 0.246354 0.309299 -0.104288 -0.305387 0.943557 
0.278417 0.514576 0.397061 0.111514 -0.191165 0.972009 
2.655653 0.352820 0.328515 -0.216967 0.021341 0.974237 
-0.232828 -0.826212 0.140852 -0.096994 -0.059210 0.970272 
-1.560221 -0.633225 0.330752 -0.122348 -0.148284 -0.972884 
-1.386184 -0.581239 0.328609 0.137890 0.067229 0.980854 
-2.688213 0.776993 0.000271 0.136719 0.023205 -0.987962 
3.063437 -0.035342 0.600505 -0.578210 0.160625 0.773839 
-0.571356 0.173485 0.301829 0.116630 -0.268135 0.948690 
-0.178159 1.163711 0.444219 0.296537 0.182496 0.849898 
-0.153023 -0.904627 0.067261 0.111153 -0.403463 -0.902296 
-1.240687 0.259594 0.297894 -0.091931 -0.187276 0.958882 
-3.058286 -0.342020 0.108243 0.051380 -0.319121 -0.939705 
1.176360 0.411994 0.288684 0.178691 -0.251439 0.945192 
2.401210 0.866218 0.291173 0.427351 0.010729 -0.902183 
-1.049611 -0.365826 0.257614 -0.201278 0.000684 -0.977887 
-0.092097 -0.951157 0.180156 -0.235769 0.052673 0.963295 
0.361368 0.553661 0.375314 0.296053 -0.080358 0.895160 
-1.889902 0.688426 0.256478 0.049729 -0.260092 -0.961936 
-2.140876 0.613489 0.193071 0.050791 -0.208218 -0.951124 
2.037324 0.512892 0.238225 -0.178727 -0.207978 0.898350 
1.907092 -0.305223 0.251019 -0.219582 0.200858 0.930146 
0.232077 0.347321 -0.204390 0.725130 0.095518 -0.649370 
-1.792498 0.742859 0.256082 0.018076 -0.257490 -0.962006 
1.136541 0.336587 0.287456 0.149096 -0.231959 0.952610 
-0.527075 0.624285 0.310751 -0.502512 0.609826 -0.590857 
-0.904015 -0.848901 0.195600 0.132651 -0.074816 0.979507 
3.354793 0.545439 0.644288 0.638754 -0.099299 -0.759643 
1.381451 0.096586 0.223025 0.111050 -0.123951 -0.981177 
0.029380 0.480482 -0.280776 0.493534 0.296482 -0.800795 
-0.014721 -0.628758 0.222921 -0.441453 -0.102394 0.887820 
-0.603473 -0.304632 0.081563 -0.448679 -0.015547 -0.862492 
2.986169 0.647942 0.402807 0.378247 0.019757 -0.921906 
-1.214695 0.605746 0.304668 0.128812 0.272475 0.951477 
-0.237536 -0.643583 -0.021584 0.002606 -0.370060 -0.916682 
-1.177370 0.013199 0.257054 -0.144262 -0.080679 -0.976611 
2.201620 0.421026 0.233374 0.442462 -0.113386 -0.858951 
0.377262 0.729273 0.274999 0.852939 0.412775 0.198847 
-0.287429 0.583054 -0.131326 -0.618035 0.280995 -0.713408 
0.613088 -0.142846 0.097194 0.443306 -0.004096 -0.844778 
-2.746377 -0.218193 0.076861 0.120304 -0.252584 -0.954838 
-2.382578 -0.446970 0.283120 -0.299801 0.298334 0.890607 
0.311829 -0.494088 0.125748 0.457857 -0.109361 0.870287 
0.307125 0.428342 -0.118792 0.702969 0.071650 -0.705633 
-0.201866 -0.856503 0.037225 0.147021 -0.373078 -0.905664 
-2.761568 0.023294 0.017754 -0.140380 0.164378 0.962790 
-0.127312 0.117751 0.284999 -0.109037 -0.246555 0.960540 
1.973460 -0.712845 0.451647 0.256199 -0.419581 -0.860075 
0.181547 -0.493217 -0.106041 0.320012 -0.419190 -0.820866 
0.035634 -0.131008 0.266901 0.121468 -0.082785 0.981431 
1.427345 0.307758 0.262985 0.123982 -0.161316 0.947998 
-0.082602 -0.574440 -0.095089 -0.092138 -0.428624 -0.897162 
2.245039 0.805848 0.261422 0.273831 -0.349421 -0.885811 
-0.193404 0.921406 0.403701 -0.474671 0.129786 0.838850 
-0.130246 0.919755 0.437101 -0.245681 0.006109 0.966385 
-0.507710 0.585927 0.231054 -0.591276 0.461751 -0.605243 
0.273401 0.939593 0.120761 0.851301 0.292285 -0.347974 
-1.766135 0.447530 0.258835 0.023387 -0.232943 -0.966821 
2.252148 -0.366657 0.354002 0.178278 -0.365991 -0.902544 
0.391591 0.478933 0.355782 0.066146 -0.055323 0.963031 
0.300240 -0.426301 -0.078173 0.567636 -0.138586 -0.801119 
-1.711768 0.627971 0.257230 -0.000996 -0.243030 -0.964539 
0.268253 0.862044 0.344561 0.726288 0.283518 0.559750 
-1.691107 -0.248760 0.283609 -0.036784 0.105509 0.982633 
0.262282 0.640983 -0.125271 0.567375 0.382000 -0.716798 
1.245597 0.056514 0.263034 0.035332 -0.118993 0.970955 
-0.186617 -0.966077 0.142721 -0.080328 0.034181 0.985373 
2.258333 0.570697 0.268124 -0.055143 -0.210649 0.937271 
1.255835 0.351755 0.279181 0.155460 -0.221624 0.946339 
-2.078677 -0.766818 0.466611 -0.017562 0.348677 0.930258 
-2.400024 0.853612 0.106843 0.092531 0.008632 -0.992870 
0.082910 1.304647 0.119184 0.633449 0.729149 0.136345 
0.810270 -0.932897 0.168672 0.131579 -0.040335 -0.979584 
0.500620 0.174859 0.283262 -0.062897 -0.282890 0.944516 
-0.207954 -0.388290 0.226648 -0.386974 -0.081386 0.899663 
2.833000 0.453450 0.356655 0.110947 -0.285115 -0.947549 
-1.806870 -0.017953 0.263084 0.056439 -0.199986 -0.973639 
-0.003898 -0.322213 -0.257471 -0.368307 -0.335040 -0.846741 
-2.941306 0.698243 -0.015645 -0.147289 0.038568 0.951470 
1.841039 0.871451 0.186700 -0.116100 0.156081 -0.969506 
0.919011 0.249263 0.301851 0.096823 -0.199217 0.974007 
3.369193 0.097109 0.810548 0.687106 -0.161375 -0.696214 
-0.364099 -0.445071 0.064608 -0.301684 -0.105465 0.944484 
1.971049 -0.818774 0.505317 -0.306092 0.415932 0.854118 
-0.548712 -0.658476 0.126006 -0.315029 -0.103868 -0.925272 
0.449248 -0.786739 0.104677 0.297358 -0.144876 -0.925737 
0.773462 0.072490 0.181984 0.338179 -0.017158 -0.887599 
-0.146550 0.462657 -0.226758 -0.589054 0.204837 -0.751211 
0.135925 1.144637 0.267454 0.881669 0.041643 0.202829 
-0.539839 -0.382375 0.121795 -0.176729 -0.094144 0.960981 
-1.660406 0.523976 0.300722 -0.179072 -0.226628 0.937213 
3.209707 -0.084900 0.742318 0.491828 -0.354001 -0.774576 
-0.222239 1.124289 0.200735 -0.891751 0.436184 -0.079512 
1.354478 0.630817 0.212558 -0.120480 0.137314 -0.972013 
2.098630 -0.845375 0.559092 -0.281379 0.419002 0.860831 
-0.253953 0.921504 0.345433 -0.757494 0.188588 0.578675 
0.254405 -0.955475 0.083644 -0.171572 -0.329521 -0.912203 
0.508884 -0.933945 0.146343 0.049971 0.036879 0.994138 
0.316553 0.866896 0.228725 0.893683 0.348309 0.061127 
1.342363 0.429244 0.231538 0.091900 -0.189716 -0.976853 
2.353523 -0.200784 0.308409 0.468363 -0.274612 -0.834517 
-1.985431 1.199955 0.272536 0.505139 0.262503 -0.786472 
-0.825500 0.199711 0.218298 -0.305974 -0.059975 -0.918045 
-0.619419 -0.003141 0.123929 -0.500173 -0.008705 -0.809823 
-0.231532 -0.106531 0.230882 -0.367679 -0.192021 0.855257 
-1.390969 0.708856 0.278589 0.244005 0.441238 -0.818094 
1.592234 -0.455087 0.213080 -0.107754 0.086385 0.988179 
-0.112030 0.179585 -0.294044 -0.600816 0.021029 -0.776145 
0.468733 0.011364 0.059719 0.590412 -0.008619 -0.762085 
-3.884491 0.293515 0.129582 0.305863 0.124551 0.942475 
-1.502117 0.038469 0.288088 -0.083186 -0.038461 0.970034 
1.679778 0.801172 0.198333 -0.174476 0.252047 -0.919397 
1.060460 -0.689954 0.211230 0.092282 0.053894 -0.993770 
0.068510 0.837399 -0.084822 0.469494 0.332078 -0.801787 
-0.381916 0.383036 0.333324 -0.031684 -0.207238 0.971739 
0.185395 1.019229 0.399235 0.462860 0.047276 0.829493 
0.341543 0.005755 0.224736 0.231403 -0.260441 0.894261 
-0.622181 0.360498 0.355016 0.056690 -0.097911 0.970240 
2.565711 -0.648681 0.587270 -0.331041 0.378381 0.860434 
-1.630892 0.580520 0.257755 -0.023131 -0.233746 -0.966030 
2.695539 -0.452847 0.523589 -0.273231 0.339754 0.866005 
0.064560 0.512989 0.441096 0.079815 -0.301767 0.948771 
-0.002648 1.328026 -0.035025 0.258573 -0.037526 -0.916365 
3.167669 0.199620 0.570575 0.592457 -0.173986 -0.774566 
2.218975 0.009080 0.264994 -0.413112 0.050118 0.868110 
-0.376241 0.746498 0.261422 -0.887504 0.417877 0.153366 
-1.707887 -0.069721 0.283066 -0.097196 0.053566 0.974621 
-0.907732 0.185099 0.305534 -0.038371 -0.202382 0.974273 
-0.581051 0.058296 0.115196 -0.540150 -0.008956 -0.784076 
-1.812146 -0.089030 0.263525 0.060862 -0.192355 -0.974609 
-2.444484 -0.622685 0.315230 0.119657 -0.333436 -0.925204 
-0.136711 1.253998 0.159886 -0.647575 0.712363 -0.070333 
-1.735088 0.576387 0.300496 -0.182955 -0.241570 0.932995 
