-0.887161 1.204004 2.454165 -0.775873 0.518695 -0.350905 
-1.324141 0.371574 1.400173 -0.084969 0.005962 0.079850 
-0.539127 -0.282466 0.202877 0.090316 -0.255261 0.922650 
-1.575568 0.715358 2.832171 -0.588257 0.671718 -0.426556 
-1.213616 0.945840 2.671976 -0.658682 0.616689 -0.406490 
-0.235710 1.060484 0.174770 -0.827764 0.424313 -0.300608 
1.263760 0.007890 0.898460 -0.519861 -0.582947 0.547934 
0.059559 -0.342394 -0.157790 0.338597 -0.244222 -0.895890 
-1.218125 1.310114 3.080522 0.664332 -0.447168 0.576317 
0.872190 0.543329 0.909845 0.724179 0.583379 -0.318463 
-0.342467 -0.717684 0.011818 -0.563422 -0.009061 -0.791300 
-0.509390 -0.632747 0.146331 0.181039 -0.228795 0.927588 
0.770197 -0.779533 0.293501 -0.246138 -0.422941 0.806199 
0.844557 0.168518 0.517743 0.717564 0.298123 -0.575661 
0.675323 -0.046191 0.368800 0.743240 0.177910 -0.582207 
0.182761 0.546950 0.481349 0.289504 0.049964 0.952812 
-1.376794 0.526924 1.781133 0.388557 -0.644520 0.602581 
-0.163757 1.105499 0.440460 -0.852049 0.256613 -0.220808 
1.407837 1.527000 2.837933 -0.514100 -0.678671 0.519517 
0.396334 1.208914 1.485450 0.841059 0.483433 -0.222263 
0.529792 0.300010 0.090540 0.735925 0.105048 -0.663407 
0.928037 0.510008 0.951429 0.719808 0.562328 -0.347442 
0.489490 -0.989969 0.057903 0.319356 0.215612 -0.876855 
-0.995605 0.880160 2.254066 0.731164 -0.595609 0.308614 
0.751068 0.698884 1.031765 0.745807 0.603455 -0.217632 
0.038076 -0.482015 -0.085431 0.077319 -0.529038 -0.839615 
-0.987152 0.634445 1.245763 -0.706194 0.639521 -0.246704 
0.976187 0.620014 1.483024 -0.634656 -0.631993 0.420325 
-1.295648 0.700598 2.239540 0.497890 -0.859009 0.072394 
0.589787 1.007524 1.559344 -0.425696 -0.717022 0.491850 
0.421288 0.650088 0.261774 0.577169 0.764426 -0.143985 
0.598105 0.726783 0.982094 -0.471233 -0.729698 0.469410 
-0.324258 0.519652 -0.081244 -0.542715 0.057402 -0.830841 
-1.381603 0.388019 1.513973 -0.031292 -0.137952 0.021635 
-0.042324 -0.311544 0.318895 -0.005836 -0.318389 0.943289 
-0.894676 0.782747 1.561975 0.624092 -0.735511 0.074148 
-1.402318 0.230216 1.035738 -0.721243 0.484111 -0.464958 
-0.397440 0.635617 0.076425 -0.613481 0.504769 -0.483686 
0.034852 0.047206 -0.199903 0.429479 -0.041870 -0.885053 
-1.299270 1.135210 2.987227 -0.648643 0.532583 -0.536652 
0.935706 -0.568273 0.513532 0.433648 0.348409 -0.693139 
0.511435 0.502594 0.177312 0.729640 0.429215 -0.418833 
0.050884 -0.424875 -0.130946 0.213718 -0.353367 -0.904776 
0.353344 -0.116558 -0.027687 0.606766 -0.065744 -0.771509 
-0.372571 0.324991 0.373793 -0.271232 -0.071807 0.946092 
0.339101 0.510806 -0.063317 0.550685 0.061798 -0.804097 
1.332709 0.260470 1.419181 -0.622362 -0.696835 -0.016403 
0.919350 0.771790 1.613349 -0.605730 -0.679679 0.365437 
-0.682825 0.858662 0.877856 -0.461850 0.707896 -0.492908 
0.140942 -0.906701 -0.049768 0.120618 0.069853 -0.970986 
0.757278 0.530005 0.636036 0.694091 0.564503 -0.374376 
-1.320539 1.013630 2.884039 -0.645282 0.562769 -0.510039 
-0.959894 0.702827 1.550636 0.638041 -0.732386 0.077779 
-0.575714 0.536518 0.583125 0.688443 -0.497071 0.487087 
-1.214637 0.698853 1.947527 -0.540493 0.834712 -0.088396 
1.228493 1.082634 2.187513 0.568814 0.371117 -0.715461 
-0.975264 0.340277 0.592399 -0.719544 0.362272 -0.560453 
1.216078 0.460807 1.672799 -0.778039 -0.568531 0.158056 
1.371396 -0.017674 1.521317 0.890300 0.421807 0.108779 
-0.308865 0.376043 -0.062688 -0.458589 -0.029750 -0.885508 
-0.152721 -0.313606 0.319202 -0.161790 -0.301084 0.937010 
-0.926695 0.544500 0.851099 0.507727 -0.635132 0.557759 
1.651360 1.363582 2.901380 0.570069 0.596768 -0.563668 
1.151774 1.630418 2.705591 -0.625984 -0.399603 0.649988 
1.269357 -0.228924 0.828240 0.490746 0.532549 -0.552339 
-0.389628 0.533852 0.044218 -0.566166 0.313683 -0.601132 
0.856736 1.027411 1.769950 0.644805 0.647481 -0.339237 
-0.667774 0.736689 0.814646 0.820767 -0.439699 0.332744 
1.332749 0.660980 1.972660 -0.501981 -0.250337 0.808902 
-1.429329 0.525353 1.832466 -0.516863 0.829335 -0.152461 
-0.673041 0.101280 0.306631 -0.737615 0.182246 -0.605372 
1.022924 0.533755 1.288509 0.714810 0.574149 -0.375452 
1.167187 0.378990 1.530993 0.772754 0.531402 -0.215344 
-0.393393 0.653673 0.500704 -0.175972 0.909205 -0.249129 
0.188111 0.117522 -0.125048 0.482922 -0.042168 -0.869123 
-0.847460 -0.354178 0.481135 0.448579 -0.336325 0.755283 
-1.010985 0.858735 2.076422 0.594235 -0.787257 0.146566 
0.053079 0.445222 0.524181 0.143225 0.025380 0.977076 
0.340441 -0.430709 0.037232 0.745080 -0.045039 -0.644380 
0.994818 0.747511 1.650674 -0.645961 -0.688291 0.309852 
-1.623189 0.374166 1.733742 -0.500217 0.782326 -0.367921 
-0.375979 -0.417370 0.170443 -0.274692 -0.259665 0.884938 
-1.133819 -0.238732 0.735020 -0.614237 0.292483 -0.673856 
1.435809 -0.258339 0.890221 0.401738 0.717158 -0.508471 
-0.921650 0.283296 0.545974 -0.724579 0.328016 -0.565696 
-0.353990 -0.218233 0.015820 -0.714000 -0.033148 -0.679820 
0.349946 0.663305 -0.023227 0.623054 0.344174 -0.631718 
0.730877 0.947837 1.617112 -0.501388 -0.724861 0.400753 
-0.007643 1.241535 0.102855 -0.597425 0.267268 -0.722862 
1.590890 1.036304 2.494634 -0.542358 -0.481212 0.680326 
0.835756 0.832009 1.600008 -0.560050 -0.689397 0.397121 
0.929769 0.573707 1.149958 0.724242 0.579685 -0.326906 
1.182088 1.349423 2.428629 -0.547277 -0.573321 0.603913 
-0.360571 -0.646694 0.132315 -0.151839 -0.246550 0.916780 
-0.644364 1.019341 1.187995 -0.834723 0.511988 -0.091037 
-0.476745 1.076959 1.004590 -0.337822 0.650000 -0.593324 
0.250978 -0.193349 0.331681 0.407261 -0.283119 0.854252 
-0.946032 -0.593826 0.514376 0.402209 -0.310829 0.803847 
-1.700944 0.386950 1.913340 -0.478060 0.824468 -0.270243 
-1.303818 0.663903 2.005975 -0.521535 0.846351 -0.088852 
-0.277598 0.898930 0.128003 -0.819360 0.379573 -0.345389 
-1.378280 0.653028 2.422352 -0.596247 0.723160 -0.306059 
0.768961 0.709004 1.112485 0.745268 0.607213 -0.221037 
-1.267493 -0.403031 0.759861 -0.498744 0.457909 -0.678113 
-1.110328 0.860361 2.441813 -0.665558 0.684397 -0.278517 
-0.716076 1.247920 2.102973 0.673777 -0.555133 0.471767 
-0.601908 -1.033155 0.110821 -0.095946 -0.325975 0.761556 
0.904989 0.366813 0.768408 -0.520729 -0.606801 0.569845 
-0.860430 1.362933 2.674201 0.733039 -0.517495 0.420696 
-0.024137 -0.106176 0.405940 -0.058256 -0.304931 0.947593 
-0.727071 0.441364 0.551399 0.353273 -0.572399 0.714754 
-0.403776 1.421079 1.643364 0.690485 -0.604929 0.355746 
-1.140952 0.770752 2.238718 0.528095 -0.840954 0.056956 
0.293278 0.301916 0.429134 0.308455 -0.082961 0.935807 
0.513116 0.121680 0.120329 0.747158 0.084168 -0.641677 
0.925611 -0.049401 0.631756 0.634669 0.361105 -0.609063 
-0.240630 0.532461 0.447542 -0.303268 0.048952 0.934270 
0.673547 0.825040 1.322130 -0.456859 -0.710132 0.496218 
-0.802025 -0.297873 0.448843 0.429454 -0.343770 0.754539 
0.661391 -0.234580 0.362314 0.676641 0.179294 -0.631160 
0.702475 1.367953 1.975583 0.623535 0.617101 -0.457281 
-0.755095 0.234957 0.475342 0.356457 -0.449648 0.759004 
-1.292774 0.861483 2.668514 0.651575 -0.517520 0.546251 
-0.714931 -0.866812 0.214126 -0.322652 0.385147 -0.810039 
0.437710 -0.131007 0.098386 0.767294 0.021578 -0.622240 
-1.296174 1.190788 3.039905 0.602089 -0.609675 0.507631 
1.328149 1.460361 2.685380 -0.515449 -0.669813 0.528796 
0.487585 1.037065 1.267447 0.806614 0.552933 -0.170259 
-1.091251 0.520657 1.280417 0.642738 -0.666982 0.333709 
1.211270 -0.016662 0.844790 0.576684 0.515642 -0.542542 
1.379982 0.519304 1.920431 0.748671 0.484902 -0.416928 
1.174599 0.290499 0.978300 0.683937 0.529214 -0.466215 
0.275681 -0.732526 0.119420 0.126111 -0.288298 0.881535 
0.959382 0.075941 0.681277 -0.476245 -0.451210 0.666274 
0.855473 0.876658 1.652606 -0.568851 -0.721111 0.336869 
0.581787 -0.287820 0.281332 0.690832 0.124209 -0.636611 
0.277599 -1.283599 0.020515 -0.036774 -0.079501 0.949281 
0.674349 0.267668 0.461192 -0.399666 -0.458419 0.766645 
1.720316 0.787416 2.413043 0.573739 0.407746 -0.700765 
-0.215498 -0.633110 -0.024043 0.053801 -0.167431 -0.973826 
-0.949975 0.920012 2.194159 0.650972 -0.741745 0.061335 
-0.076499 0.574872 -0.149239 -0.358715 0.112981 -0.918123 
1.653924 0.950551 2.463496 -0.538908 -0.469089 0.695382 
-0.368305 0.492012 -0.022203 -0.556797 0.136796 -0.744382 
-0.632302 1.333187 1.983414 -0.845715 0.478401 -0.164805 
0.065359 1.545221 1.562547 0.354356 0.651133 -0.537252 
-0.716653 0.553785 0.724517 0.451161 -0.649343 0.595037 
-0.611504 0.633550 0.572095 -0.185315 0.855258 -0.393303 
0.687956 0.896525 1.411235 0.778694 0.552531 -0.258757 
0.943125 1.434276 2.298296 -0.493904 -0.596250 0.619039 
-0.686140 1.437742 2.332812 -0.671940 0.685565 -0.222906 
0.018657 -0.048180 -0.197450 0.383345 -0.103783 -0.895451 
-1.015040 0.558575 1.107866 0.614923 -0.630468 0.431898 
0.431659 1.121157 1.283677 0.617000 0.717173 -0.261372 
0.826495 0.421758 0.626806 0.716624 0.463465 -0.450427 
-0.446264 -0.627341 0.090794 0.093187 -0.208759 0.965430 
-1.212726 -0.450555 0.704553 0.452440 -0.468936 0.702140 
-0.687518 1.334723 2.173728 0.664993 -0.590315 0.439947 
-0.880948 0.782384 1.361301 -0.730772 0.628657 -0.171256 
-1.212673 0.438799 1.347155 0.656149 -0.692528 0.273595 
-1.166002 1.283931 2.999781 0.607629 -0.627660 0.477581 
-0.408814 1.484920 1.579781 -0.900123 0.353120 -0.152003 
-0.479419 0.620023 0.331583 -0.437093 0.813675 -0.255264 
0.581040 0.793301 0.929375 0.240446 0.784841 -0.560612 
0.763552 1.546896 2.251503 -0.560989 -0.555954 0.609620 
-0.844377 0.884958 1.588060 -0.723241 0.546152 -0.342385 
-0.167325 -0.053182 -0.135255 -0.496518 -0.065515 -0.857613 
0.725870 0.672397 0.849972 0.684103 0.658134 -0.278052 
1.493963 -0.096488 1.014735 0.495128 0.651433 -0.469699 
0.269524 0.221717 0.445341 0.363034 -0.143079 0.912972 
0.414551 -0.265341 0.107695 0.776619 -0.000906 -0.608194 
1.285443 1.328672 2.504973 -0.549342 -0.573925 0.600833 
0.357201 -1.063946 0.035684 0.076515 -0.098766 0.879819 
-0.484011 0.748098 0.654510 0.619183 -0.548732 0.538934 
-1.040249 -0.064785 0.682479 0.552295 -0.402896 0.662014 
0.959972 1.493742 2.344608 0.556407 0.605270 -0.568952 
1.006455 1.039071 1.927337 0.570387 0.621312 -0.520956 
-0.518502 1.245027 1.602574 0.531997 -0.620371 0.559999 
-1.291092 -0.347615 0.815292 0.511287 -0.414755 0.695215 
-0.042150 0.714232 0.453346 -0.052229 0.063901 0.993838 
0.791513 0.123034 0.536130 -0.407958 -0.434741 0.736424 
0.437060 1.053280 1.198787 0.050606 0.655485 -0.613681 
-0.611170 1.058419 1.337759 0.495554 -0.750931 0.413967 
1.504405 1.126536 2.508003 -0.545435 -0.486534 0.670650 
-0.467642 0.616634 0.228486 -0.599063 0.758230 -0.240137 
-1.451413 0.232438 1.219649 -0.721284 0.634112 -0.238124 
-0.840830 1.332719 2.574181 0.708781 -0.615945 0.333045 
0.115200 -0.782701 -0.045673 0.066798 -0.012066 -0.976650 
-1.241307 1.142346 2.940856 0.608696 -0.624916 0.483043 
1.106877 0.279207 0.818500 0.690467 0.477323 -0.528158 
0.208234 1.079709 0.546777 0.007048 -0.378825 0.797862 
-0.214680 0.677564 0.454645 -0.385405 0.251077 0.849276 
0.981071 0.297861 0.668275 0.700308 0.406941 -0.549509 
-0.396185 -0.285717 0.094055 -0.775249 -0.009405 -0.615111 
-1.775610 0.285214 1.752755 -0.484103 0.796704 -0.356179 
-0.838966 0.119856 0.527050 0.386000 -0.409319 0.731557 
0.297677 0.887547 0.161836 0.874153 0.362413 -0.243607 
0.838840 1.490595 2.258428 -0.488112 -0.603844 0.617149 
-0.947495 1.320608 2.778485 0.644071 -0.648597 0.398636 
0.161089 -0.571901 0.222024 0.198269 -0.359429 0.907519 
1.179838 -0.073251 0.808691 0.562629 0.496869 -0.558919 
-0.550247 1.058948 1.183214 0.465801 -0.733720 0.486945 
-0.908748 0.810136 1.644675 -0.680724 0.565702 -0.450415 
1.528069 1.066544 2.461798 0.545923 0.662792 -0.493266 
-0.729278 0.436060 0.387478 -0.691033 0.340722 -0.588609 
-0.608822 0.464590 0.265564 -0.669580 0.344835 -0.586109 
-1.408450 0.809172 2.742586 -0.615518 0.656186 -0.406256 
-0.501470 0.554973 0.206965 -0.634457 0.598197 -0.364935 
-0.123972 -0.277916 -0.140173 -0.431367 -0.171364 -0.868084 
0.885309 0.389728 0.664002 0.711048 0.463359 -0.469372 
1.285426 0.824207 2.025708 0.668044 0.513880 -0.510795 
0.041874 -0.204343 0.364811 0.048288 -0.312143 0.944598 
-0.883350 1.017209 2.190607 -0.788957 0.553967 -0.264927 
-0.237062 -0.379277 -0.091291 -0.526391 -0.164044 -0.831111 
0.897342 0.306675 0.689008 -0.521282 -0.524113 0.644776 
-1.609162 0.431691 1.890140 0.440726 -0.784074 0.358300 
0.233110 -0.864345 0.079346 -0.124283 -0.314857 0.885816 
-0.922047 1.312800 2.693957 -0.739922 0.502246 -0.434114 
0.309366 -0.507159 -0.012601 0.619495 -0.076747 -0.749384 
-1.271386 1.077937 2.901589 -0.656561 0.539970 -0.519326 
0.260461 0.836501 0.386200 0.733788 0.113786 0.612611 
1.254165 0.381320 1.650396 0.734467 0.379965 -0.361228 
-1.171470 0.867409 2.524856 -0.656174 0.669396 -0.318762 
-0.249611 -0.285565 -0.087258 -0.525770 -0.141556 -0.835930 
0.001511 -1.235601 -0.144136 0.536277 -0.793251 -0.003337 
1.322925 0.290215 1.680307 0.753859 0.358602 -0.329854 
1.718971 1.368978 2.978233 -0.554932 -0.616678 0.557370 
-0.230978 -0.279053 0.306303 -0.347791 -0.293480 0.869348 
0.917800 1.598464 2.444069 -0.602071 -0.492966 0.621466 
0.188963 0.087521 0.449970 0.284612 -0.262197 0.919440 
-0.037326 1.175931 0.085173 -0.427876 0.374897 -0.807844 
-0.372939 0.558184 0.315883 -0.502976 0.189292 0.638996 
1.313510 0.051639 0.931789 0.581510 0.570208 -0.503911 
0.564888 1.279893 1.792907 -0.277040 -0.737544 0.577004 
1.032728 0.302879 0.747925 0.696798 0.453794 -0.525009 
-0.923177 -0.748017 0.370121 0.295070 -0.532027 0.759006 
-0.055358 0.281193 -0.200528 -0.454205 0.041452 -0.888824 
-1.410992 -0.257484 0.923918 -0.576100 0.428045 -0.646971 
0.736217 -0.207388 0.436679 0.649457 0.233836 -0.636840 
-0.985804 -0.549682 0.563275 0.426205 -0.296729 0.797276 
-1.296605 0.286155 0.957058 0.682691 -0.501700 0.520001 
-0.953721 0.867686 1.915197 -0.629877 0.760699 -0.065924 
0.526248 1.036887 1.506697 -0.387895 -0.729180 0.516395 
1.019556 0.692090 1.593251 0.644587 0.508150 -0.510735 
0.280720 0.918821 0.356330 0.872061 0.139266 0.433025 
0.444836 0.651611 0.176725 0.710417 0.670895 -0.177109 
-1.207098 0.364110 0.958238 0.676159 -0.539727 0.482390 
1.449135 1.180522 2.506044 0.551896 0.667468 -0.489785 
-1.425335 -0.104286 0.997158 -0.667350 0.342255 -0.627292 
-0.116140 -0.977896 -0.078111 -0.195216 0.155836 -0.957684 
0.220488 -0.890978 -0.004981 0.031602 -0.007676 -0.995952 
1.669092 0.883867 2.419411 -0.556279 -0.560019 0.595579 
-0.535813 0.903437 0.879486 0.764871 -0.522079 0.297098 
-0.225925 -1.250901 -0.037482 0.667334 -0.405475 0.173753 
-0.270774 0.992283 0.338554 -0.909379 0.279189 0.237926 
-0.263003 0.569991 -0.096124 -0.501807 0.107582 -0.839971 
0.805867 1.274088 2.007752 -0.474590 -0.495907 0.712952 
-0.736342 1.428801 2.492097 0.853066 -0.336882 0.390740 
-0.426373 1.214988 1.288100 0.764601 -0.573001 0.278494 
0.624628 1.399878 1.931837 0.643169 0.605584 -0.443851 
0.107545 -1.044888 -0.064905 -0.159282 -0.445275 0.865358 
1.351485 0.156363 1.627595 -0.843713 -0.471569 0.016180 
1.111238 1.356029 2.371663 -0.527161 -0.573723 0.616143 
1.470021 1.492328 2.862552 -0.522173 -0.666300 0.527138 
-0.926697 0.689357 1.214892 -0.725768 0.628959 -0.216450 
-1.153221 0.415799 1.001001 0.665024 -0.558373 0.469953 
0.076677 0.734210 -0.122983 0.323369 0.282644 -0.886398 
0.182079 -0.665153 0.179074 0.192572 -0.370625 0.890591 
0.195031 0.449763 0.488981 0.294832 0.016855 0.951818 
-0.784965 1.032034 1.892215 -0.768305 0.579001 -0.214357 
-0.136482 1.198290 0.468640 0.322140 0.714905 0.552390 
0.243118 0.837880 -0.009389 0.588906 0.493497 -0.635091 
1.345604 1.511894 2.748512 0.587235 0.557711 -0.585422 
0.224103 1.016095 0.120310 0.717684 0.385853 -0.508781 
0.505458 0.027370 0.137522 0.753005 0.073865 -0.629930 
0.456117 -0.293165 0.159532 0.760920 0.027728 -0.608006 
-0.931971 0.741839 1.607364 0.649827 -0.728119 -0.038603 
-1.400709 0.751936 2.663550 -0.614885 0.686971 -0.356256 
-0.037231 -0.261519 -0.172392 -0.340493 -0.210641 -0.899305 
0.733342 -0.288123 0.414130 -0.334375 -0.340155 0.798104 
-0.041895 0.375748 -0.189355 -0.418876 0.065821 -0.902788 
0.015184 -0.199621 -0.185700 0.333977 -0.189713 -0.904216 
-0.394009 1.546668 1.688998 -0.548130 0.772819 -0.084641 
1.478001 0.703483 2.183105 0.655425 0.420449 -0.609138 
1.415220 0.703649 2.112631 -0.572863 -0.347012 0.719758 
0.327814 0.755938 0.346024 0.836309 0.231849 0.452963 
1.437956 0.488965 1.990846 -0.573272 -0.288781 0.734816 
0.672546 -0.164758 0.378450 0.712435 0.179469 -0.600912 
1.006817 1.182987 2.098583 -0.501265 -0.684332 0.522735 
0.463000 -0.493131 0.150822 0.635750 0.057235 -0.704254 
-0.997200 -0.248809 0.617037 -0.598154 0.284760 -0.680798 
-0.646160 0.495960 0.603706 0.410168 -0.626087 0.648950 
0.178115 0.030545 -0.130011 0.489940 -0.054588 -0.863340 
0.638671 0.000474 0.310185 0.743642 0.157230 -0.596888 
-0.617795 1.433707 2.212302 0.789184 -0.500593 0.350233 
-1.323384 0.457061 1.562703 -0.083487 0.197612 -0.376775 
-0.620025 -0.379033 0.282992 -0.617232 0.150569 -0.695629 
0.049320 0.140683 0.491153 0.141910 -0.230143 0.954538 
0.304989 0.757112 0.007774 0.696336 0.502128 -0.452976 
-0.572169 -0.370449 0.226168 0.160463 -0.260217 0.899116 
0.151128 0.020565 0.443696 0.239101 -0.274724 0.930309 
0.378837 -1.191465 0.028696 0.569004 0.013664 0.690198 
-1.270212 1.008239 2.817450 0.647545 -0.584948 0.482135 
0.131885 1.215091 0.157955 0.670112 0.529612 -0.467227 
-1.412174 1.090323 3.059305 0.598002 -0.595174 0.532036 
-1.297043 0.327210 1.018331 -0.720570 0.546899 -0.386847 
0.187235 1.172180 0.230343 0.827659 0.522661 -0.161972 
-1.379081 1.151524 3.084245 0.597583 -0.596469 0.529497 
-1.106445 1.151576 2.790618 -0.692659 0.527674 -0.484627 
1.311599 0.264404 1.343827 0.644001 0.656649 -0.039124 
-0.876288 0.687692 0.909908 -0.768441 0.531910 -0.288553 
0.544147 -0.432384 0.233870 0.625208 0.112604 -0.695636 
0.263023 1.246078 1.508971 -0.654824 -0.665900 0.324321 
1.714688 0.043577 1.223714 0.505156 0.774755 -0.332009 
-0.583634 1.481461 2.157890 0.863160 -0.167003 0.414432 
-0.934660 0.271893 0.634556 0.485888 -0.467148 0.667869 
-0.828887 0.797671 1.235270 -0.752189 0.618613 -0.156741 
1.032340 0.293799 0.819843 -0.581382 -0.554037 0.575506 
0.224814 0.344634 -0.098087 0.453531 -0.013667 -0.887122 
-0.515841 -0.895442 0.140668 -0.433644 0.089980 -0.874777 
0.513354 1.289603 1.728852 0.762551 0.388370 -0.462877 
0.114231 1.267839 0.215380 0.726147 0.594925 -0.096605 
0.497755 0.752008 0.752057 0.499484 0.737921 -0.442975 
0.715064 0.535473 0.564566 0.699815 0.561116 -0.366958 
1.671443 1.015744 2.547497 0.548220 0.607419 -0.555053 
1.543231 -0.152148 1.006244 -0.412532 -0.747611 0.472695 
-0.747256 0.481709 0.614852 0.356447 -0.616716 0.679510 
-0.887318 0.341614 0.606182 0.470321 -0.491654 0.682820 
1.661290 1.409469 2.962611 0.570136 0.600258 -0.559941 
-1.051914 -0.290851 0.660389 0.502289 -0.345647 0.725116 
0.671447 -0.882421 0.181241 0.293807 0.372637 -0.812468 
-0.317068 -0.439385 0.009246 -0.692868 -0.065805 -0.693367 
1.785211 0.950535 2.588695 0.548532 0.559384 -0.607928 
0.881403 1.510494 2.316122 -0.506356 -0.611388 0.599815 
-0.387031 -0.254585 0.223807 -0.309679 -0.248812 0.880443 
-0.941443 0.392603 0.685977 0.506058 -0.529995 0.637554 
-1.256185 0.250900 0.906808 0.666510 -0.475333 0.559932 
0.187760 -1.061631 -0.034873 -0.351459 -0.316586 0.875375 
0.249416 0.531448 0.438767 0.306055 0.036382 0.927138 
-0.723246 -0.606000 0.342211 0.366652 -0.276989 0.833825 
-1.043370 1.253002 2.845070 0.626268 -0.644827 0.434872 
-1.103850 1.208138 2.863254 0.622406 -0.638422 0.448308 
0.868136 -0.736624 0.350570 0.306163 0.482846 -0.736382 
-1.130373 0.702635 1.864636 0.429836 -0.638929 0.546731 
-0.838800 0.813848 1.304790 -0.748866 0.612431 -0.157880 
-0.538593 -0.586042 0.193796 -0.545424 0.116262 -0.768107 
-0.255431 0.424551 -0.087771 -0.452908 0.004492 -0.886443 
-0.069979 0.883997 -0.068939 -0.486326 0.388833 -0.764897 
1.805501 1.047418 2.713027 -0.548910 -0.564962 0.610221 
-0.660442 -0.132488 0.331846 0.206960 -0.312902 0.846796 
-0.283734 0.219468 0.439644 -0.368078 -0.149227 0.909440 
1.219291 0.396506 1.463808 0.670898 0.638410 -0.147977 
-0.013830 -0.037644 0.434779 -0.069628 -0.301135 0.949046 
0.669399 -0.951595 0.129481 0.232479 0.453359 -0.820804 
-0.535323 1.244784 1.385301 -0.887232 0.408927 -0.044173 
-0.460189 1.390521 1.592335 -0.926078 0.247507 -0.120784 
0.028186 0.583937 -0.163470 0.333343 0.129709 -0.928768 
0.855621 0.461076 0.723430 0.716171 0.541557 -0.391329 
-1.160941 1.036903 2.719503 0.674808 -0.571646 0.460619 
0.439035 1.304994 1.674288 0.789883 0.377059 -0.432874 
0.363894 -0.256365 0.042389 0.780249 -0.032679 -0.620581 
-0.990277 0.567669 0.872607 -0.740145 0.522056 -0.379209 
-0.260715 0.266887 -0.086686 -0.457552 -0.039871 -0.885944 
1.067274 0.028009 0.777612 -0.553976 -0.498087 0.607413 
0.787207 1.036525 1.759501 -0.415489 -0.538346 0.694951 
1.250172 0.153873 0.935552 -0.583290 -0.581784 0.530260 
-0.510975 1.035470 1.122345 0.717528 -0.603647 0.313829 
0.551377 0.376760 0.158399 0.728736 0.197119 -0.604346 
0.069965 -0.143243 -0.171179 0.409786 -0.127975 -0.882331 
0.123950 0.135947 0.482552 0.225595 -0.230243 0.940378 
-0.462574 -0.853947 0.103325 -0.441077 0.087787 -0.866992 
-0.818473 1.331601 2.494036 -0.770900 0.541827 -0.329265 
-0.713194 0.368984 0.276723 -0.705545 0.244544 -0.642833 
-1.218069 0.147777 0.842742 -0.687442 0.409345 -0.562669 
-0.417276 1.537388 1.765262 -0.457586 0.843378 -0.048746 
1.016572 -0.196208 0.674318 -0.465887 -0.468725 0.657328 
-1.490719 0.178915 1.154555 -0.723163 0.548489 -0.357036 
0.348893 -0.973517 0.003707 0.411280 0.027151 -0.903109 
-0.088458 0.747109 -0.112392 -0.346711 0.333025 -0.843528 
0.350838 0.723692 0.271007 0.951703 0.190698 0.205871 
0.575829 1.156678 1.609515 0.676659 0.459915 -0.421229 
0.829534 0.607540 1.116965 -0.514296 -0.666861 0.508831 
0.975973 -0.007662 0.695267 -0.518289 -0.456610 0.651074 
-1.376255 0.441624 1.607707 0.215370 -0.453127 0.060832 
-0.928521 1.143501 2.458228 0.696452 -0.562005 0.439089 
-1.719123 0.292446 1.700790 0.386045 -0.695987 0.309729 
0.549635 0.229401 0.336078 -0.323131 -0.423131 0.831043 
-0.972767 1.258917 2.743227 0.659242 -0.627342 0.407345 
1.595170 1.523638 3.024025 -0.541275 -0.640804 0.540660 
0.252597 0.950033 0.121906 0.768118 0.383554 -0.427367 
0.386688 0.566134 0.415084 -0.714113 -0.239180 0.489811 
-0.230572 -0.594919 0.191413 -0.313211 -0.327042 0.888234 
-0.787324 -0.715869 0.368037 0.345662 -0.277586 0.850490 
-0.431529 0.624642 0.146166 -0.612099 0.622524 -0.367067 
0.028723 0.894005 -0.081474 0.431909 0.404116 -0.792515 
0.752484 0.370402 0.607648 -0.453547 -0.558417 0.660879 
1.833700 0.793231 2.485041 -0.546718 -0.501499 0.663438 
1.397327 1.590149 2.886850 0.555225 0.624476 -0.540282 
-0.886026 -0.301943 0.520616 0.468020 -0.348219 0.738221 
0.826946 0.702113 1.359096 -0.543999 -0.673745 0.460593 
-1.448412 0.052612 1.031355 -0.695893 0.389306 -0.582492 
-1.071384 0.827690 2.101226 -0.578788 0.790215 -0.165662 
-0.617741 0.842324 0.843855 -0.263830 0.715211 -0.629038 
-1.465801 1.043253 3.067688 0.596143 -0.588524 0.543234 
-0.883946 0.939456 1.937953 -0.695023 0.683798 -0.181795 
1.009696 0.499646 1.147866 0.713304 0.564157 -0.381793 
0.933316 0.539441 1.055665 0.721541 0.570602 -0.339648 
-0.872132 0.600918 0.779293 -0.672469 0.602800 -0.418991 
0.167908 0.377204 0.522585 0.331608 -0.004868 0.942656 
-0.729625 0.807812 0.908230 -0.768341 0.571134 -0.222247 
0.953154 0.583945 1.246367 0.723324 0.583786 -0.332350 
-0.690008 0.638741 0.609474 -0.218408 0.812468 -0.470752 
0.412018 -1.000458 0.026582 0.357590 0.114253 -0.901435 
1.617841 1.073861 2.557576 0.549736 0.634556 -0.525906 
-0.426133 -0.442656 0.112373 -0.685897 0.022693 -0.678335 
0.790972 1.421988 2.106601 0.605830 0.595406 -0.511299 
-1.019550 0.587816 1.296602 0.616711 -0.691453 0.334179 
1.664593 0.738961 2.362715 -0.592099 -0.454342 0.651008 
0.893106 1.047612 1.829188 0.599020 0.642735 -0.429511 
-1.175079 1.199124 2.929237 0.611058 -0.633246 0.469031 
-1.297317 0.339334 1.096966 -0.713807 0.579425 -0.345875 
-1.383218 0.665882 2.184729 0.490224 -0.859382 0.120918 
-0.164666 -0.515127 0.244140 -0.184332 -0.334175 0.918766 
1.226043 -0.171823 0.817559 -0.448875 -0.560685 0.587012 
0.045448 -0.089292 0.414179 0.095265 -0.300601 0.947657 
-0.115323 0.310035 -0.163825 -0.446539 0.024247 -0.892001 
0.496728 1.515265 1.954437 0.216186 0.877901 -0.350061 
1.288060 1.529925 2.709646 0.589121 0.552570 -0.588723 
0.841467 0.553728 0.998812 -0.502990 -0.656856 0.536084 
1.407056 0.105288 1.664771 0.816046 0.391155 -0.172138 
1.342653 0.223746 1.659446 0.779987 0.371337 -0.252963 
-0.681238 0.502267 0.404194 -0.663584 0.408501 -0.557977 
-0.122818 1.015321 0.031885 -0.526365 0.446217 -0.706595 
1.085778 1.200275 2.170876 0.546288 0.623965 -0.553368 
0.390211 -0.636571 0.069496 0.591316 0.018328 -0.754039 
1.686257 1.199771 2.759582 0.560862 0.614663 -0.552107 
-0.569043 1.481733 2.061153 -0.676933 0.678375 -0.193002 
-0.727645 -0.123570 0.392301 0.265700 -0.323750 0.810308 
0.636882 -0.751310 0.263808 0.425615 0.189389 -0.803946 
1.478290 0.633528 2.134402 -0.569024 -0.307857 0.745383 
0.717802 1.033790 1.625192 0.645600 0.406382 -0.547282 
0.166385 -0.732310 0.154024 0.075088 -0.371656 0.889242 
-0.741029 1.100239 1.925987 0.618795 -0.731489 0.185728 
1.090958 0.383587 1.021792 0.699268 0.537325 -0.451158 
1.575725 0.641162 2.262079 0.649562 0.373128 -0.658097 
0.348409 0.386284 -0.049744 0.515845 -0.028743 -0.850798 
-0.554606 -0.755586 0.191222 -0.467150 0.119982 -0.836573 
-0.971566 0.803835 1.700327 -0.641534 0.674328 -0.304435 
0.866883 0.931169 1.751926 -0.551967 -0.604625 0.534249 
0.809527 0.657610 1.069445 0.738729 0.595591 -0.253487 
-0.139546 -0.359829 -0.127600 -0.424525 -0.207643 -0.866164 
-0.510033 1.247626 1.227642 -0.622993 0.670835 -0.376852 
0.839821 1.599734 2.364335 -0.626619 -0.452576 0.626454 
1.368845 1.381421 2.641609 -0.537153 -0.631244 0.555497 
-0.967619 0.775164 1.774714 0.540395 -0.598177 0.550292 
-1.056565 0.786552 1.901681 -0.582936 0.804273 -0.067841 
-0.620154 0.666519 0.691961 0.752048 -0.452295 0.450281 
-1.493576 0.493268 1.874873 0.417400 -0.729493 0.446291 
-0.584768 -0.932914 0.123950 -0.335525 0.284204 -0.846477 
0.288419 0.953582 0.283884 0.924743 0.326793 0.084382 
-0.049669 0.019902 0.455580 -0.130090 -0.291114 0.945457 
-0.473166 -0.035578 0.111431 -0.746906 0.066559 -0.639043 
-0.670306 0.309526 0.415912 0.316830 -0.475104 0.791527 
0.411034 0.165436 0.003749 0.620169 -0.003528 -0.761544 
-0.466915 0.135901 0.327806 -0.120570 -0.309778 0.876659 
-0.368845 -0.794887 0.111034 -0.056831 -0.234381 0.919940 
1.389214 1.210340 2.478583 0.552999 0.661516 -0.496097 
-0.214572 0.622814 -0.107878 -0.476745 0.163947 -0.839358 
0.726840 0.236156 0.502618 -0.415105 -0.458286 0.747525 
1.526295 0.316130 1.983701 0.738299 0.417100 -0.507843 
0.694493 0.426246 0.447803 0.726319 0.368253 -0.491550 
0.692435 1.224523 1.850900 -0.357691 -0.697180 0.578734 
-0.080435 -0.181657 -0.163911 -0.411569 -0.142775 -0.879647 
-1.231481 -0.129939 0.832639 0.573790 -0.380323 0.668903 
-0.744778 1.150666 2.011175 -0.819803 0.516127 -0.199029 
-0.216671 1.012122 0.101381 -0.686543 0.388915 -0.566877 
1.729349 1.515078 3.150464 0.568022 0.615027 -0.546840 
0.503208 0.447773 0.125118 0.727786 0.312079 -0.508927 
0.408814 0.054651 0.322205 0.236994 -0.240675 0.898330 
-0.498530 1.189865 1.328634 0.463589 -0.757174 0.449270 
-0.540723 0.479663 0.540657 0.493801 -0.629041 0.592573 
-0.381175 -0.093296 0.290295 -0.382159 -0.241352 0.870974 
0.578012 0.850337 0.971557 0.395434 0.757792 -0.507775 
1.629776 0.073160 1.206572 0.534746 0.742615 -0.275648 
-0.485049 -0.526957 0.154135 -0.607179 0.072700 -0.729427 
0.787616 0.203168 0.551407 -0.434214 -0.459233 0.724800 
0.001419 0.515846 0.518621 0.047226 0.063931 0.993702 
-0.560378 0.534259 0.267141 -0.644123 0.525053 -0.437895 
0.709346 1.575951 2.211856 0.339365 0.806944 -0.437787 
-0.968937 -0.030857 0.627351 0.541663 -0.412046 0.659289 
0.161543 0.182985 -0.140378 0.475779 -0.019077 -0.874594 
-0.103694 0.253583 0.511546 -0.216126 -0.123615 0.956363 
1.381613 0.048805 1.585704 0.853410 0.406126 -0.025681 
-0.145354 0.357185 0.529605 -0.295478 -0.017928 0.951435 
0.501754 -0.150811 0.183341 0.763173 0.061262 -0.605376 
-1.036002 0.750954 1.735094 -0.612868 0.781217 -0.019983 
-1.147013 0.482547 1.225332 -0.685080 0.628657 -0.321985 
-0.310416 1.491504 1.534315 0.814504 -0.499017 0.116839 
-1.288164 0.496124 1.613813 0.250154 -0.491329 0.010471 
-0.703379 0.866428 0.961677 -0.807828 0.549430 -0.155915 
-0.168791 0.289277 0.510000 -0.311217 -0.078813 0.939836 
-1.601426 0.648161 2.782028 0.577424 -0.701571 0.393276 
-0.903581 0.470612 0.635540 -0.690364 0.465189 -0.513916 
-1.504714 1.063438 3.124393 -0.599877 0.572253 -0.557541 
-0.957959 0.684727 1.431573 0.599441 -0.740756 0.281611 
0.497437 1.119257 1.508734 0.823194 0.495341 -0.250874 
1.010247 0.051254 0.735899 -0.538513 -0.473441 0.631347 
-0.090114 -0.373673 0.299154 -0.064778 -0.248177 0.959953 
-0.377674 -1.185209 0.023514 -0.514125 0.040836 0.725249 
1.094125 -0.449128 0.645012 -0.348953 -0.494248 0.670764 
1.176049 1.068596 2.118919 0.586910 0.460822 -0.649454 
-0.366167 1.352956 1.411872 0.793227 -0.504593 0.203353 
-0.820432 0.823507 1.374406 0.556579 -0.742044 0.341290 
0.148543 1.031960 0.514941 0.089585 -0.177537 0.945305 
-0.011145 -0.947954 -0.081665 -0.484377 0.158210 -0.831916 
1.229658 1.222811 2.337539 0.548345 0.670714 -0.491108 
1.282288 0.419997 1.717959 0.703604 0.333947 -0.475914 
1.122205 0.490473 1.550790 0.734614 0.545357 -0.327515 
-0.028456 -0.791444 0.123922 -0.354057 -0.414775 0.833221 
0.873680 1.251123 2.017499 0.590255 0.594836 -0.528115 
0.304605 1.342474 1.657225 -0.409295 -0.620410 0.652640 
-1.727782 0.348981 1.851597 -0.480600 0.813907 -0.302311 
-1.441193 0.402928 1.605953 0.196922 -0.434169 0.099199 
0.556719 0.710973 0.754858 0.418287 0.767440 -0.451651 
0.536911 -0.079796 0.206811 0.756376 0.087753 -0.607776 
1.826899 0.978634 2.659991 -0.545344 -0.544480 0.631220 
0.095289 -0.075006 -0.168081 0.457541 -0.076043 -0.870109 
-0.141012 -0.021290 0.429427 -0.215242 -0.280508 0.933488 
-0.302266 0.483089 0.410587 -0.261345 0.030714 0.949244 
-0.951072 0.585095 0.932942 0.591552 -0.589905 0.529806 
0.337841 -0.203571 -0.020957 0.637172 -0.075685 -0.744116 
0.854397 0.717271 1.452878 -0.565419 -0.660939 0.448660 
0.428483 1.111161 1.473588 -0.331720 -0.753059 0.539708 
-0.981958 0.626055 1.132760 -0.727281 0.594522 -0.275359 
0.157170 1.168934 0.373588 0.914137 -0.167075 0.197672 
-0.750395 -0.307748 0.399330 0.366541 -0.325231 0.787306 
0.843317 0.304448 0.627922 -0.497710 -0.502318 0.681106 
0.339144 0.143532 -0.039703 0.519784 -0.069596 -0.841232 
-0.314702 0.142294 0.406363 -0.369614 -0.224228 0.896949 
0.218648 0.611121 0.463412 0.506861 0.057800 0.821281 
0.599324 0.955463 1.339147 0.790394 0.554795 -0.216848 
-1.562609 0.385282 1.695024 -0.400154 0.638700 -0.419860 
-0.096298 0.495115 0.517155 -0.210752 0.051509 0.964798 
1.039991 0.110074 0.771525 -0.553769 -0.488198 0.614643 
-1.485602 0.795198 2.820594 0.605524 -0.609123 0.490968 
0.225228 1.114003 0.209438 0.860837 0.455789 -0.201111 
-0.326488 -0.621508 -0.000255 -0.587251 -0.039405 -0.775250 
-0.568967 -0.858361 0.186458 -0.441114 0.111561 -0.861160 
0.203595 1.085700 0.132949 0.721657 0.426016 -0.484133 
-1.494124 -0.007626 1.064984 -0.690689 0.373140 -0.598050 
0.414650 1.399838 1.787325 -0.346117 -0.555353 0.744494 
0.925028 0.644238 1.351195 0.729621 0.598526 -0.301647 
-0.469003 0.158004 0.049506 -0.720454 0.094823 -0.678012 
-0.993052 1.196832 2.689854 -0.719013 0.528114 -0.445247 
-1.325727 1.223223 3.095858 -0.639454 0.527601 -0.552381 
-0.746752 0.947160 1.688569 0.631687 -0.670765 0.316787 
1.503524 0.792234 2.282393 0.610896 0.317286 -0.718712 
-0.399527 -0.202809 0.073714 -0.764981 0.005354 -0.629616 
1.171321 0.739794 1.849811 -0.469455 -0.266764 0.821365 
-1.092888 0.526990 1.203682 -0.688854 0.619606 -0.326829 
-0.120205 -0.106277 -0.156265 -0.477543 -0.079280 -0.861463 
-0.282872 0.790629 0.377384 -0.697512 0.207536 0.612033 
-0.342380 0.279695 -0.041722 -0.471298 -0.052345 -0.875056 
0.463006 1.332413 1.761652 -0.368528 -0.523376 0.757208 
-1.197242 0.421586 1.099001 -0.701890 0.577700 -0.373359 
0.390648 -0.029379 -0.001977 0.648197 -0.026846 -0.737972 
-0.194973 0.026952 0.428314 -0.305183 -0.270011 0.906072 
-0.120478 0.048708 0.457732 -0.210834 -0.278329 0.934465 
-1.214617 0.727958 2.351741 0.508836 -0.855066 0.018454 
1.474996 0.080287 1.746727 -0.809461 -0.426209 0.213833 
1.025153 0.618733 1.565670 -0.666123 -0.622980 0.394244 
-0.357236 0.708725 0.159023 -0.942061 0.289322 -0.074230 
1.145557 1.413012 2.460742 -0.537755 -0.603365 0.585531 
-1.262129 0.947823 2.734933 0.655066 -0.552894 0.505625 
1.098169 0.459682 1.332231 -0.670725 -0.586206 0.443940 
0.483843 1.210555 1.581060 0.738721 0.456452 -0.355398 
-0.678195 1.213630 1.909637 -0.833665 0.492824 -0.189690 
0.190476 0.426912 -0.106180 0.430007 0.018708 -0.896018 
-1.297936 0.525280 1.678479 0.417453 -0.706055 0.045631 
0.710219 0.851092 1.461024 -0.486385 -0.692041 0.479409 
-0.292087 -0.405849 0.242417 -0.459047 -0.296896 0.825141 
1.271896 1.129292 2.277880 0.542328 0.697948 -0.458589 
-1.000491 0.668976 1.494227 -0.670256 0.673449 -0.270723 
-0.863948 0.194958 0.503918 -0.733386 0.286850 -0.566290 
1.403103 0.160968 1.312892 0.617336 0.690978 0.111767 
-0.707898 -0.352196 0.360123 -0.584998 0.208738 -0.704350 
-1.456730 0.701566 2.672534 0.612599 -0.620399 0.450836 
-0.456162 0.710479 0.597386 -0.284607 0.791546 -0.423386 
-0.300157 -0.602450 0.167207 -0.348269 -0.275845 0.884215 
0.582820 0.702188 0.830064 -0.777525 -0.544660 0.244963 
-0.634402 1.205483 1.816134 0.566098 -0.753077 0.244489 
-0.019809 0.099412 -0.209606 -0.427115 -0.022288 -0.888886 
1.222667 1.612718 2.730280 0.560458 0.606414 -0.551987 
1.251965 0.332364 1.487811 -0.673841 -0.641321 0.091467 
-0.331657 0.824005 0.202356 -0.932258 0.295155 -0.073721 
0.058006 -0.265398 -0.164937 0.360133 -0.202379 -0.892589 
1.543338 0.102083 1.100263 0.555947 0.687080 -0.430106 
1.669488 1.283232 2.833160 -0.545309 -0.627192 0.553340 
1.496679 0.876350 2.312505 -0.591010 -0.546743 0.564321 
1.095802 1.466312 2.456335 0.558768 0.601367 -0.570623 
1.355438 -0.255931 0.874870 -0.396481 -0.614263 0.558518 
-1.373049 1.261534 3.181374 0.592691 -0.588071 0.542472 
0.022301 -0.276464 0.333059 -0.005187 -0.322935 0.942481 
0.758164 0.090112 0.432881 0.728943 0.238548 -0.583445 
0.072524 1.178588 0.452746 -0.209280 0.651170 0.721231 
-1.217396 -0.043203 0.824607 -0.655589 0.353027 -0.616376 
1.373266 0.685956 2.027069 0.704730 0.478441 -0.481324 
1.225327 0.740735 1.903121 -0.487954 -0.276152 0.798636 
-1.198619 0.905214 2.604088 -0.656238 0.642768 -0.364904 
-1.589180 0.556891 2.411474 0.498218 -0.835654 0.191929 
-0.614793 0.199958 0.349889 0.253893 -0.433725 0.830914 
-0.714776 0.855022 1.171259 0.510385 -0.721123 0.444486 
0.766121 0.815543 1.398571 0.762532 0.569275 -0.270892 
1.257713 0.612290 1.808225 0.706175 0.400030 -0.569831 
-0.574702 1.214391 1.435725 -0.870287 0.424509 -0.056755 
0.749640 -0.368078 0.437303 0.544268 0.263647 -0.716138 
-0.804475 0.216977 0.427466 -0.728281 0.262408 -0.588035 
-0.877317 0.666283 1.018225 0.564833 -0.637692 0.494954 
0.635550 0.676303 0.943244 -0.444094 -0.730993 0.505180 
0.125402 -0.184997 -0.148018 0.456726 -0.120302 -0.865113 
-0.038496 1.344223 0.264636 -0.486906 0.647185 0.528248 
1.507859 1.437814 2.834766 0.578183 0.578640 -0.573602 
-0.682947 1.031083 1.336418 -0.819764 0.509648 -0.099831 
-0.729532 1.037027 1.592630 -0.775070 0.473674 -0.300994 
-0.804797 0.379390 0.396427 -0.706947 0.299679 -0.609322 
-0.350036 0.691624 0.268890 -0.963788 0.144132 0.171734 
0.437658 -0.716688 0.109173 0.515092 0.064689 -0.803672 
0.560131 0.194099 0.158094 0.739318 0.118298 -0.641676 
0.413531 1.211553 1.621908 -0.352414 -0.555261 0.701940 
-0.143628 1.117565 0.328848 -0.765744 -0.038692 0.573149 
-0.507840 -0.708220 0.155830 -0.493742 0.108041 -0.814940 
1.077351 0.189813 0.796700 0.691063 0.449447 -0.533555 
-0.536062 1.219491 1.526846 0.505179 -0.769107 0.283555 
1.037281 0.456917 1.094936 0.708301 0.554146 -0.406448 
-1.116478 0.751234 1.921953 -0.560010 0.821775 -0.095712 
-0.656995 0.385148 0.425867 0.321333 -0.508689 0.784909 
0.300543 0.609335 0.416770 0.632681 0.042491 0.731196 
-1.345710 -0.318625 0.853796 -0.547298 0.431779 -0.661769 
-0.327069 0.625780 -0.070228 -0.599619 0.214694 -0.748342 
0.668471 -0.470935 0.351000 0.529310 0.213355 -0.744661 
-0.092752 1.209785 0.123779 -0.561654 0.381408 -0.726851 
-0.887661 0.719549 1.325782 0.571153 -0.730878 0.339694 
0.557514 1.478110 1.951809 0.643351 0.613007 -0.432877 
1.001222 1.110211 2.013758 -0.536642 -0.618111 0.569894 
0.408111 1.281249 1.586417 0.778653 0.580846 -0.159340 
1.413904 0.108008 1.014405 0.582470 0.623188 -0.467330 
1.412665 0.442497 1.929246 -0.568325 -0.276245 0.737879 
1.295442 0.938513 2.131444 0.610557 0.462389 -0.624960 
1.533826 0.455821 2.089739 -0.628078 -0.339026 0.677311 
0.285861 0.104399 0.407553 0.350727 -0.241281 0.900687 
-0.232965 -0.951526 -0.006126 -0.018462 0.026035 -0.996049 
0.615266 -0.424763 0.303153 0.588329 0.166649 -0.709651 
0.623804 1.431232 2.006711 -0.411185 -0.575947 0.687342 
-0.722511 0.965793 1.425871 0.533740 -0.755644 0.350586 
1.288752 0.184671 1.497879 0.792237 0.523820 -0.004063 
-0.768929 0.872804 1.227312 -0.779130 0.582650 -0.135127 
-1.432617 0.851734 2.825254 0.618385 -0.569657 0.530349 
0.591828 -0.686960 0.250290 0.456849 0.170645 -0.809027 
-0.813194 0.976179 1.836148 -0.734653 0.635561 -0.128318 
0.354946 -0.875856 0.017055 0.466918 0.020016 -0.858435 
1.026000 -0.120564 0.692360 0.574955 0.417878 -0.610034 
-1.237374 0.377683 1.141669 0.670439 -0.611814 0.378287 
1.154488 -0.514889 0.605485 0.334026 0.629487 -0.624241 
-0.565010 0.386750 0.130665 -0.695451 0.201220 -0.671409 
-0.051376 0.821645 -0.100728 -0.436946 0.348373 -0.815697 
-0.308304 -1.084829 0.033265 0.173509 -0.182026 0.962956 
0.280735 -0.312934 -0.069310 0.549632 -0.138534 -0.816420 
1.024567 0.968980 1.902760 -0.543841 -0.497453 0.667401 
1.572919 -0.078320 1.071458 -0.443141 -0.714694 0.462566 
-1.287671 0.385169 1.338560 -0.691797 0.679089 -0.222984 
-0.768336 1.009935 1.734977 -0.743576 0.602219 -0.030366 
-1.227299 0.734083 2.271681 -0.601269 0.722280 -0.279096 
-0.065931 -1.179783 -0.118894 -0.251209 -0.612711 0.472407 
1.193028 0.157056 0.878122 0.641486 0.516343 -0.525929 
0.308207 1.202331 1.352316 -0.196335 0.588406 -0.670486 
0.265633 1.015476 0.310448 0.915432 0.349689 0.128654 
1.418790 0.566271 2.002467 0.724974 0.461621 -0.469879 
-0.885851 1.147509 2.371823 -0.783665 0.522758 -0.326882 
-0.033986 -0.866364 -0.055865 -0.261438 0.102597 -0.940845 
1.540838 0.612147 2.199077 -0.604738 -0.340634 0.707919 
0.214009 -0.354874 -0.102160 0.500670 -0.165245 -0.842741 
0.536140 0.941641 1.099693 0.621039 0.695693 -0.274510 
-1.008822 0.583479 0.993470 -0.745489 0.538080 -0.332139 
1.735583 1.408826 3.039183 -0.558475 -0.613084 0.558524 
0.124087 0.460873 0.519741 0.270874 0.032582 0.952938 
-0.209678 1.216506 0.526725 0.497896 0.668441 0.452028 
-0.449005 1.528492 1.860840 0.870698 -0.007368 0.441446 
-0.805565 0.122720 0.456347 -0.740147 0.247926 -0.570095 
0.167907 0.254148 -0.137331 0.469938 -0.008184 -0.879385 
0.114763 -0.650095 -0.025938 -0.022287 -0.123062 -0.991253 
0.946180 -0.634213 0.457241 0.357501 0.461657 -0.699747 
0.672056 0.520420 0.476959 0.706417 0.517444 -0.389910 
-0.137500 -0.617507 0.209002 -0.203608 -0.386216 0.897268 
-0.126962 -0.452464 0.276353 -0.090369 -0.320143 0.941553 
-0.774316 0.297796 0.368304 -0.716955 0.261094 -0.612080 
1.218897 0.542595 1.719373 0.666583 0.348715 -0.572160 
0.836239 -0.280523 0.522165 0.554274 0.314739 -0.685932 
0.885836 1.420269 2.232981 -0.474079 -0.589267 0.636976 
0.906457 0.029531 0.621065 -0.433139 -0.426741 0.698661 
-1.055612 0.658369 1.579786 -0.606578 0.658431 -0.398666 
-0.370973 0.483939 0.346329 -0.321616 0.082102 0.820018 
0.832304 -0.370990 0.500114 -0.416091 -0.382841 0.742288 
-0.911503 1.207990 2.533422 0.709150 -0.583508 0.387167 
-0.876627 0.448184 0.573684 -0.694332 0.423294 -0.538123 
-0.539235 1.362086 1.842149 0.638092 -0.567419 0.506009 
0.690647 1.417235 2.053612 -0.423081 -0.576565 0.679223 
0.604458 0.485512 0.331196 0.717215 0.426868 -0.442624 
-0.842521 1.198962 2.331311 0.679134 -0.567940 0.455726 
-0.457394 -0.270451 0.155636 -0.765234 0.025884 -0.609494 
0.287572 1.449161 1.678584 0.232295 0.863558 -0.336142 
0.784376 1.365872 2.049958 0.604488 0.617084 -0.484927 
-0.301073 0.727959 -0.052231 -0.615529 0.452785 -0.633339 
-0.574390 1.067828 1.055513 -0.360383 0.652624 -0.548351 
0.086248 0.356473 0.532882 0.213463 -0.030764 0.966416 
0.767343 1.181330 1.873182 -0.411265 -0.663734 0.586527 
-1.355765 1.093531 3.007121 0.602213 -0.606213 0.513963 
-0.481761 0.549750 0.513171 0.711778 -0.477299 0.475994 
1.240447 0.334694 1.598087 0.764291 0.430271 -0.261201 
-0.476611 0.624773 0.514852 -0.120554 0.932153 -0.258835 
1.268831 1.625842 2.807336 -0.653346 -0.306298 0.667709 
0.442751 0.117866 0.334185 0.104446 -0.288949 0.877942 
1.200017 0.374690 1.374299 -0.649926 -0.634914 0.241985 
1.091914 1.081636 2.053236 0.583525 0.529642 -0.609980 
-0.518645 1.438892 1.838595 -0.866517 0.460673 -0.099363 
0.255301 -1.084995 0.022452 -0.264778 -0.227016 0.923177 
-1.623378 0.401988 1.819959 -0.495565 0.815699 -0.257199 
0.340434 0.781500 0.219823 0.940179 0.270086 0.008771 
0.328011 -1.118703 0.001454 0.384479 -0.013686 -0.920222 
-0.806862 0.793533 1.114350 -0.771488 0.592301 -0.167625 
-0.086453 -0.507989 0.256843 -0.102420 -0.304636 0.938894 
-1.031145 0.108844 0.697033 0.567898 -0.438918 0.625615 
-0.377804 -0.820069 0.034673 -0.501172 0.029723 -0.833940 
0.363668 -0.580834 0.137821 0.167615 -0.250722 0.917703 
0.325901 1.333047 1.570320 0.815704 0.494666 -0.211315 
-0.322760 0.030717 0.368038 -0.402993 -0.246095 0.874872 
0.387349 -0.165077 0.045625 0.773283 -0.012481 -0.628433 
-1.129842 0.485346 1.153634 -0.689262 0.598565 -0.364169 
-0.774945 1.077342 2.033039 0.745613 -0.617289 0.226842 
1.492645 1.041595 2.405767 -0.539985 -0.447155 0.708263 
-0.245068 0.695905 -0.090416 -0.532881 0.283662 -0.770924 
0.922128 1.081705 1.897104 0.548671 0.627732 -0.541882 
-0.371736 -0.414169 0.069013 -0.731028 -0.018169 -0.652988 
0.420865 0.978804 1.207458 -0.713510 -0.559443 0.138773 
-0.269050 -1.314697 -0.018141 0.789595 -0.482250 0.070390 
-0.049151 0.180152 -0.203170 -0.466919 0.024440 -0.879648 
-0.808298 0.036498 0.486668 0.345899 -0.378094 0.755924 
-1.231482 0.741544 2.431928 -0.656837 0.665355 -0.328254 
0.356356 0.084038 0.366560 0.408410 -0.229949 0.880855 
0.694136 -0.726622 0.308963 0.423528 0.219184 -0.784027 
-0.230224 1.695935 1.533522 -0.701393 0.525947 0.186197 
1.336939 0.108379 0.977410 -0.552762 -0.618066 0.509511 
-0.878235 1.067604 2.245280 0.753162 -0.493887 0.420823 
0.578548 0.861779 1.206836 -0.396717 -0.739338 0.524173 
1.578125 0.070811 1.324055 -0.545378 -0.769134 -0.055119 
1.243426 0.265472 1.184558 -0.631292 -0.623493 0.254840 
-0.197844 0.528061 -0.116487 -0.442253 0.063399 -0.884563 
0.759503 -0.029382 0.470379 -0.338087 -0.380810 0.776860 
0.695254 0.889627 1.519681 -0.482045 -0.691095 0.478914 
0.382937 0.093336 -0.012408 0.597073 -0.031560 -0.779716 
-0.482815 1.447312 1.754385 -0.874765 0.456274 -0.068267 
-0.877440 0.984207 2.128227 0.697778 -0.697931 0.100335 
-1.132689 0.415569 0.895290 0.657483 -0.529021 0.526895 
1.022194 1.580013 2.499351 0.567260 0.586255 -0.576309 
-0.885449 0.611537 0.898647 0.526568 -0.632183 0.546089 
0.914613 -0.434963 0.533279 -0.378340 -0.416582 0.725741 
-0.640365 0.952986 1.017270 -0.833697 0.539853 -0.095669 
-0.052778 0.999374 0.519708 -0.157227 -0.070292 0.977256 
0.362093 -0.497918 0.052984 0.691728 -0.020175 -0.681519 
1.288660 0.208392 1.148240 -0.619466 -0.636603 0.191345 
0.852486 -0.159286 0.551760 -0.427336 -0.397166 0.725425 
0.760699 1.284338 1.949100 0.611215 0.619812 -0.468734 
-1.102373 -0.338145 0.695775 0.501005 -0.332118 0.735430 
0.606965 0.351295 0.218667 0.729486 0.194760 -0.615529 
-1.634508 0.328958 1.677255 0.342449 -0.634164 0.248049 
-0.182795 1.090161 0.103958 -0.626334 0.425289 -0.622420 
1.583177 0.974536 2.421096 -0.538417 -0.452886 0.707421 
-0.149574 0.947327 0.015158 -0.567378 0.461928 -0.657424 
1.586408 0.534835 2.206491 -0.641394 -0.365319 0.667086 
0.500167 0.401639 0.421335 -0.518775 -0.448016 0.701240 
-0.019441 -0.408655 -0.146156 -0.212266 -0.357406 -0.898358 
-1.135164 0.630550 1.742944 0.459510 -0.702955 0.511567 
-1.116468 0.621044 1.602907 -0.557749 0.672418 -0.442584 
0.099725 -0.638753 0.209083 0.196135 -0.398845 0.891822 
-0.955303 0.832714 1.822054 -0.629224 0.769554 0.005664 
0.758584 -0.892406 0.190414 -0.191284 -0.541397 0.799375 
0.007802 -0.371325 0.296114 -0.098130 -0.259336 0.955708 
0.292805 -1.194033 0.020393 0.165277 -0.039504 0.876615 
-0.568110 0.624355 0.365850 -0.609790 0.728438 -0.293394 
-1.637122 0.047114 1.231802 0.693196 -0.470510 0.508456 
0.089400 -0.320576 0.317310 0.071725 -0.313309 0.942101 
-1.094594 0.087569 0.731411 -0.664403 0.387302 -0.583308 
0.712059 -0.431507 0.396131 0.527766 0.242274 -0.736817 
0.084596 -0.861140 -0.062026 0.157392 0.071662 -0.957149 
1.359457 1.173604 2.416160 -0.543578 -0.479299 0.678476 
-0.183542 -0.234119 -0.122779 -0.509920 -0.114179 -0.844073 
0.450518 0.915014 1.153740 -0.674585 -0.662312 0.257912 
-0.773107 0.848911 1.307345 0.537882 -0.735966 0.378894 
-0.538337 0.950828 0.934545 0.821980 -0.505173 0.225233 
-1.383022 0.905336 2.829948 0.628800 -0.562475 0.530316 
0.259740 -0.432098 -0.079198 0.523305 -0.153854 -0.835713 
-0.595989 -0.303659 0.269941 -0.672225 0.125758 -0.656659 
0.363723 0.704772 0.178830 0.675257 0.672508 0.090150 
-0.938280 -0.088242 0.593910 0.524290 -0.399210 0.676405 
0.543983 0.911712 1.035726 0.346875 0.727113 -0.520646 
-0.983924 1.366151 2.898157 0.763126 -0.221119 0.602031 
0.458991 0.185214 0.355950 0.047587 -0.319073 0.860703 
0.632363 -0.133584 0.327452 -0.237100 -0.324320 0.853441 
0.369355 -0.134690 0.283778 0.386405 -0.246283 0.865271 
-1.512941 0.183197 1.228635 -0.727517 0.637914 -0.218309 
0.379983 -0.384176 0.079000 0.750202 -0.020106 -0.632175 
0.498660 0.238731 0.069303 0.741854 0.081682 -0.661511 
-0.481477 1.518598 1.933777 -0.445809 0.863788 -0.058068 
1.356684 0.799337 2.118263 -0.595438 -0.419640 0.665391 
1.038662 1.472208 2.403395 0.557277 0.603897 -0.569581 
1.226217 0.991230 2.084124 0.608927 0.506063 -0.597545 
-0.479050 1.126572 1.083976 -0.183504 0.637781 -0.648849 
-0.569950 0.034777 0.204755 -0.741895 0.123227 -0.623502 
1.341654 0.337554 1.753923 -0.792961 -0.517279 0.180729 
-1.151537 -0.310046 0.740690 0.516894 -0.337597 0.724543 
1.201564 0.601681 1.758913 -0.759591 -0.608518 0.205313 
0.206389 -0.980917 -0.020218 0.075302 0.069754 -0.985922 
-0.122871 0.382052 -0.146064 -0.420496 0.035962 -0.902336 
