0.069440 1.153854 0.183186 0.433420 0.380682 -0.802901 
0.631458 0.432820 0.244992 0.769259 -0.316327 0.547578 
-0.747947 0.469532 -0.237662 0.598892 0.201451 -0.596832 
0.161338 1.511204 1.099823 0.313883 -0.600689 0.570901 
-0.348571 0.729025 0.238016 -0.867201 0.369694 -0.290243 
-0.173349 2.617514 0.203181 0.780279 -0.390407 -0.476592 
0.972904 -0.109567 -0.305904 -0.519759 -0.017384 -0.840611 
-0.078310 1.226899 0.230563 -0.572489 0.354102 -0.731460 
-0.899631 1.063653 -0.117227 -0.882094 -0.059870 0.408377 
-1.197711 1.760178 -0.315128 0.797078 -0.132827 -0.557813 
0.830577 0.542907 0.031503 0.779940 -0.265115 0.560255 
-0.370044 -0.154569 0.079166 -0.104472 0.085546 -0.918891 
-0.207478 1.215829 0.631241 0.508334 0.647766 0.476678 
0.554396 1.610773 0.866645 -0.162225 0.754207 -0.603001 
-0.524623 1.546395 0.856344 0.907314 0.025101 -0.105812 
1.017989 1.886443 0.892617 -0.349699 0.768071 -0.524407 
-0.172744 2.799062 0.078753 -0.664288 0.445566 0.580109 
1.996443 2.035223 0.649937 0.173505 -0.897543 0.393790 
0.363975 -1.332725 0.038947 -0.356955 -0.534432 0.504744 
-0.505367 2.127187 0.264990 0.691701 -0.583349 -0.423085 
1.476903 1.563979 0.093949 -0.309495 0.689023 -0.632779 
-1.173039 1.808374 -0.269219 0.790999 -0.199140 -0.569383 
0.548454 0.062461 0.013078 -0.036295 0.117714 -0.854707 
-0.112676 -0.732630 0.260095 -0.179808 -0.339937 0.919181 
-0.969000 1.740893 0.063825 0.784960 -0.146449 -0.587855 
-0.443469 2.785417 -0.267513 -0.779274 0.367413 0.494149 
-0.809773 1.617487 0.395288 -0.902126 0.172144 0.336004 
0.640641 0.864807 0.393333 0.591175 -0.286711 0.728337 
-0.182736 -0.198730 0.430057 -0.309471 -0.246947 0.884385 
-0.871720 1.803118 0.182561 -0.868209 0.219347 0.415174 
-0.535242 0.312821 -0.056151 0.194654 0.174009 -0.789174 
-0.839148 0.754786 -0.151546 -0.906200 -0.176840 0.360488 
0.983971 0.440053 -0.235961 -0.655654 0.169349 -0.705377 
0.700620 0.512177 -0.013632 -0.317711 0.250135 -0.786833 
-1.011247 1.912269 -0.149101 -0.825966 0.216013 0.519102 
0.194519 0.381847 0.585780 0.277920 -0.115285 0.951158 
0.647476 1.253242 0.426899 -0.481343 0.530118 -0.682341 
0.732122 0.268037 0.019118 0.770642 -0.241202 0.584260 
0.410928 1.453327 0.749087 -0.386223 0.575591 -0.714792 
-0.380026 -0.158095 0.266221 -0.764969 -0.205930 0.598044 
0.332501 -0.429679 0.272151 0.692660 -0.249244 0.674713 
-0.670346 0.298312 -0.075736 -0.863615 -0.235524 0.435083 
-0.607650 1.714680 0.772042 -0.655336 0.633677 0.387286 
-0.675693 1.628627 0.707507 -0.942591 0.187785 0.229855 
0.498847 0.424052 0.436387 0.516879 -0.219783 0.800851 
-1.105183 0.679784 -0.740540 -0.806728 -0.275356 0.374173 
-0.620295 0.222187 -0.016096 -0.859463 -0.239141 0.439064 
-0.421722 2.295987 0.186439 -0.699226 0.553023 0.448826 
-0.632887 0.471520 -0.138057 0.376506 0.203460 -0.705811 
-1.360967 1.990244 -0.646039 -0.751369 0.325616 0.560079 
1.087239 1.111789 -0.099203 0.630730 -0.456199 0.574521 
-0.752759 0.052525 -0.277018 -0.805269 -0.161416 0.517872 
1.866486 1.765650 0.195831 -0.222669 0.825108 -0.515573 
0.000239 2.943573 0.205642 0.753840 -0.348727 -0.555317 
-0.068571 2.970490 0.108051 -0.784264 0.346975 0.503420 
-0.156802 -0.280956 0.414284 -0.201390 -0.238529 0.937614 
1.522398 1.788235 0.403367 0.369506 -0.673350 0.579566 
1.877943 1.943360 0.482147 -0.201313 0.825227 -0.513606 
-0.524351 -0.274489 -0.031930 -0.816771 -0.126128 0.541646 
-0.720423 2.428666 -0.329989 -0.525603 0.621864 0.504374 
-0.963987 2.372087 -0.574878 0.679939 -0.475096 -0.547586 
0.053118 0.653162 0.579218 0.042315 0.169092 0.972468 
-0.771952 -0.424267 -0.309906 0.588727 -0.063373 -0.746758 
-0.122299 -0.534089 0.032054 -0.158751 -0.301603 -0.927922 
-0.087617 -0.850125 0.211473 -0.204867 -0.270100 0.930761 
-0.101318 -0.944723 0.078857 0.019824 -0.148603 -0.982716 
-0.541957 0.403528 0.369031 -0.704954 -0.349094 0.576154 
0.573750 0.795830 0.380563 -0.852661 0.055082 -0.486310 
-0.318039 0.861339 0.358678 -0.897264 0.347017 0.086055 
-0.706286 0.398587 -0.087082 -0.863934 -0.256303 0.423092 
-0.453524 -0.677590 -0.004378 0.399081 0.045592 -0.857529 
-0.307504 -0.867451 0.051172 0.223849 -0.040425 -0.963609 
0.610349 0.028716 -0.021802 -0.147501 0.116836 -0.823586 
-0.811758 0.682243 -0.126019 -0.908135 -0.229517 0.342324 
1.179926 2.116659 1.184019 -0.322769 0.852185 -0.408060 
0.771413 0.359049 0.016269 0.770579 -0.254881 0.578231 
-0.833290 0.151963 -0.415384 -0.805907 -0.202216 0.476356 
-0.591333 0.454814 0.254022 -0.832435 -0.323461 0.392333 
0.925405 0.190537 -0.219263 0.707501 -0.127495 0.678802 
-0.771064 0.883247 -0.018848 0.784897 0.294236 -0.521276 
0.101308 3.196895 0.238985 0.865945 -0.239677 -0.411860 
-0.696546 2.344303 -0.217873 -0.503845 0.651669 0.492232 
1.142249 1.492095 0.093749 -0.423610 0.663325 -0.593841 
-0.651424 2.611008 -0.431595 -0.691135 0.478648 0.539861 
1.140909 0.498840 -0.417955 -0.584586 0.053950 -0.781668 
0.260649 0.282960 0.531603 0.401828 -0.169493 0.873668 
-0.424650 0.332938 0.431906 -0.585289 -0.228165 0.753171 
1.887498 2.119947 0.859067 -0.150179 0.926541 -0.331195 
0.744428 1.202360 0.358452 0.739425 -0.267014 0.497008 
-0.719640 1.026143 0.161272 0.754094 0.311558 -0.542471 
-0.735174 -0.543501 -0.262911 0.566054 -0.099481 -0.784092 
-1.328645 1.952116 -0.567360 -0.779985 0.279094 0.553882 
-0.434619 1.891502 0.765494 -0.589584 0.710144 0.353611 
-0.869826 2.396692 -0.478949 -0.550565 0.608768 0.511612 
0.586345 0.419515 0.336617 0.680876 -0.293507 0.627279 
2.129331 2.291514 1.168711 -0.112139 0.916981 -0.381330 
-0.255363 0.150668 0.009581 -0.648678 -0.023920 -0.756317 
-0.946947 0.163782 -0.537619 0.698616 0.122394 -0.562195 
0.822178 0.565441 -0.090813 -0.469185 0.242943 -0.734594 
-0.301933 -0.435858 0.100252 -0.217133 0.013825 -0.932898 
1.568389 1.582628 0.065348 -0.263970 0.783436 -0.559813 
0.764549 0.513796 -0.076229 -0.367684 0.215402 -0.769587 
0.118370 0.206045 -0.084361 0.550495 0.021299 -0.829947 
2.196463 2.081483 0.682794 0.143719 -0.895923 0.419292 
0.592592 0.982491 0.494152 0.731752 -0.196243 0.626026 
-0.686369 1.892249 0.382706 -0.753249 0.489257 0.404252 
-0.733714 2.468379 -0.394897 0.717741 -0.418280 -0.549728 
1.408940 1.561676 0.121822 -0.304106 0.682415 -0.632748 
-0.384114 2.789552 -0.189276 -0.806535 0.339030 0.473046 
-0.837686 2.103241 -0.096003 -0.607817 0.607874 0.474838 
-0.831971 0.940923 -0.033760 -0.909116 -0.093389 0.353546 
-0.133897 0.147017 -0.070456 -0.581668 0.008940 -0.805920 
0.765848 1.132961 0.313147 0.746789 -0.210604 0.513036 
0.068957 1.326548 0.331212 0.644803 0.650956 0.117582 
-0.497508 1.623498 0.917305 0.740720 -0.439859 -0.486583 
-0.329794 2.787437 -0.131593 0.768926 -0.356179 -0.516281 
-1.326743 1.492580 -0.570970 0.826011 0.196305 -0.500176 
-0.238063 -1.021368 0.074178 0.237090 -0.077809 -0.959229 
0.149521 -0.529307 0.339217 0.168412 -0.324453 0.921869 
0.194334 0.214952 -0.036275 0.579614 0.001956 -0.810655 
-0.365366 2.467366 0.069772 0.535456 -0.580422 -0.599171 
1.385261 2.048267 0.931725 0.292350 -0.765544 0.558544 
-0.950494 1.118373 -0.247489 0.824221 0.065225 -0.518621 
-0.920666 1.289409 -0.040393 -0.873601 0.031657 0.424263 
-0.801116 0.797627 -0.042787 -0.920871 -0.150196 0.328635 
-0.254669 -0.047297 0.440061 -0.501913 -0.254513 0.785112 
1.629654 2.046584 0.790875 -0.228521 0.684307 -0.677937 
-0.985000 1.530215 -0.092833 0.798211 -0.066125 -0.553744 
0.404729 -0.177273 0.083159 0.170100 0.074629 -0.911134 
0.563329 0.136591 0.007025 -0.058873 0.130759 -0.853112 
-0.661139 -0.154701 -0.198554 0.624950 0.133954 -0.686316 
-0.409650 0.261950 0.428141 -0.621764 -0.230873 0.731724 
0.346798 -1.244771 0.009108 -0.190665 0.172679 -0.959535 
0.392696 1.270210 0.673962 -0.822187 0.125678 -0.543342 
-0.689928 1.937139 0.313685 -0.648714 0.600717 0.429918 
-1.213980 1.056623 -0.875815 0.869732 0.392363 -0.285367 
-0.572725 -0.104701 -0.096495 0.410420 0.117014 -0.748537 
1.316393 0.931776 -0.481948 0.736800 -0.098220 0.659257 
1.195375 2.035796 1.105115 0.344939 -0.803337 0.437013 
0.907166 1.113021 0.094615 -0.566663 0.476651 -0.638484 
-0.486211 2.699843 -0.269833 -0.768015 0.389193 0.492537 
-0.076914 -0.689745 0.072578 -0.072765 -0.164301 -0.970541 
-0.259878 0.558796 0.551165 -0.375417 -0.057181 0.905757 
-0.949719 0.650859 -0.455249 -0.868075 -0.255603 0.392825 
-1.402867 1.697244 -0.637693 -0.809939 0.014124 0.519788 
-0.532768 2.685208 -0.327332 0.635001 -0.479927 -0.587336 
0.762468 0.739668 0.223527 0.847551 -0.177010 0.472495 
-0.664806 0.364664 -0.017527 -0.858790 -0.274250 0.420551 
1.793934 1.921094 0.461598 -0.217824 0.803315 -0.540326 
-0.317384 -0.010706 0.108050 -0.238194 0.097914 -0.952505 
-1.235777 1.726953 -0.378779 0.800403 -0.082616 -0.549118 
0.257577 -0.379579 0.349748 0.491670 -0.250243 0.780663 
-0.180509 2.537960 0.270037 0.768735 -0.436241 -0.458565 
1.235283 1.865689 0.709711 0.371376 -0.799858 0.468932 
0.927583 0.524634 -0.108742 0.780354 -0.232526 0.577305 
0.370837 -0.380167 0.212010 0.722237 -0.221904 0.651541 
-0.826489 1.066134 -0.029705 0.786933 0.197329 -0.531172 
0.264245 0.066330 0.012338 0.600237 -0.045294 -0.795696 
1.063338 0.723430 -0.201723 0.765950 -0.247311 0.577270 
0.219734 -0.176598 0.423601 0.412675 -0.257430 0.832589 
-0.848822 0.511465 -0.296697 -0.866070 -0.209818 0.439618 
1.728585 1.580810 0.000533 -0.217667 0.825964 -0.503692 
-0.502986 0.255704 -0.029171 0.134783 0.163368 -0.816444 
-0.572782 1.066828 0.434059 0.902151 0.178185 -0.353881 
0.311333 -0.685408 0.031656 0.066271 -0.068112 -0.890502 
1.178934 1.050055 -0.289377 0.657236 -0.400412 0.602064 
0.962695 0.353356 -0.237938 -0.625598 0.147047 -0.729750 
-0.686421 -0.700197 -0.202445 0.543644 -0.141593 -0.826317 
0.751270 -0.221587 -0.160568 -0.471408 0.063566 -0.845575 
-0.589080 0.146598 0.001697 -0.858514 -0.226989 0.447175 
0.237081 1.060444 0.437142 0.870912 0.440475 0.161418 
0.575974 0.709134 0.362306 0.547730 -0.252145 0.707068 
0.788482 0.818928 0.170983 0.838321 -0.080055 0.524692 
-0.126805 -0.074462 -0.070262 -0.556384 -0.026393 -0.824624 
-0.050396 1.292901 0.417876 -0.311844 0.760496 0.541453 
0.947175 1.051633 0.065060 0.697246 -0.327293 0.548388 
0.373541 -0.373086 0.090761 0.141280 0.053500 -0.925915 
-0.366138 2.634692 -0.063486 -0.830615 0.332970 0.434885 
-1.243763 1.157354 -0.759207 -0.871754 -0.333676 0.334223 
0.109365 1.061368 0.598626 -0.031251 0.038282 0.940280 
0.980896 0.120017 -0.325318 0.652048 -0.048551 0.751410 
-1.169236 1.064940 -0.628640 -0.870636 -0.294571 0.374689 
1.487740 1.945295 0.681182 0.267334 -0.873539 0.377184 
0.432434 -0.545710 0.078253 0.698695 -0.147382 0.688309 
-0.892221 2.033316 -0.155392 0.507332 -0.621617 -0.541180 
1.139576 1.387578 -0.106260 -0.514031 0.599246 -0.602681 
0.728850 0.980593 0.237108 -0.575403 0.418212 -0.686800 
-0.168770 -0.344361 -0.022617 -0.520463 -0.141753 -0.827408 
0.814334 1.880095 1.077091 -0.286928 0.863816 -0.405903 
-0.644302 -0.357582 -0.233337 0.560695 0.124399 -0.719204 
-0.742093 1.238047 0.232339 0.742736 0.238023 -0.560421 
0.113278 0.611020 0.595415 0.067123 0.273411 0.953168 
-0.214409 -0.895365 0.067963 0.199527 -0.094849 -0.963220 
0.735966 -0.659908 -0.150852 0.475180 0.034724 0.875087 
0.195739 -1.158046 0.098568 -0.224322 -0.109006 -0.952751 
0.004400 0.937554 0.618889 0.141432 -0.067745 0.978478 
-0.357815 -0.268715 0.272037 -0.757373 -0.219134 0.605473 
1.378174 1.931366 0.694690 -0.303451 0.751669 -0.566616 
-0.254925 0.021487 0.012134 -0.635960 -0.045547 -0.765724 
-0.340291 -0.465796 0.185319 -0.764499 -0.206185 0.597282 
0.105515 0.762613 0.004047 0.475846 0.389873 -0.747658 
0.332494 0.210459 0.072340 0.377433 0.071139 -0.891590 
-1.082650 0.975833 -0.502967 0.840320 0.262718 -0.468170 
-0.385450 2.520311 -0.007943 0.537472 -0.565531 -0.608858 
1.786508 1.761312 0.224581 -0.208203 0.842215 -0.489169 
1.882454 1.634314 0.007903 0.263153 -0.794609 0.541907 
1.168197 1.707513 0.526636 0.440128 -0.675260 0.572514 
-0.318293 -0.675999 0.197170 -0.667995 -0.213657 0.704114 
0.564614 -0.350529 0.001826 0.708954 -0.143295 0.676871 
-0.562814 1.723804 0.713424 0.707282 -0.171567 -0.639773 
0.878258 1.970436 1.211593 0.201571 -0.662751 0.681895 
0.989893 0.513586 -0.185734 0.775754 -0.201981 0.592712 
0.515826 1.151035 0.611820 0.812145 -0.081622 0.538627 
1.072002 0.554860 -0.280866 0.746613 -0.154046 0.633856 
1.683799 1.865577 0.431156 0.279806 -0.805218 0.503353 
-0.580232 0.801537 0.403758 0.926306 0.197709 -0.314542 
-1.107324 2.196856 -0.567605 0.596066 -0.553648 -0.550560 
0.144733 1.158067 0.214144 0.567291 0.471457 -0.649553 
0.983495 1.661600 0.556466 -0.233448 0.914822 -0.268995 
0.324154 1.518069 0.997770 0.478792 -0.711253 0.489962 
-0.738868 1.318210 0.384859 -0.938164 0.079676 0.277193 
1.025374 1.465712 0.105125 -0.479941 0.650836 -0.586692 
1.309745 1.879464 0.669368 0.347570 -0.809661 0.470024 
-0.582019 0.867675 0.438662 -0.793429 -0.314176 0.504678 
0.658977 1.724805 0.918993 -0.355669 0.798835 -0.479598 
0.772300 1.898971 1.181854 0.160238 -0.607355 0.741126 
-0.888534 1.254150 0.011861 -0.886423 0.025693 0.398080 
0.336537 -0.331024 0.321746 0.687450 -0.255071 0.678729 
-1.315898 1.420701 -0.587997 0.828750 0.224927 -0.494729 
0.776798 0.288680 -0.032136 0.774804 -0.224353 0.587133 
-0.666707 0.972330 0.237386 0.740970 0.376044 -0.544764 
0.677780 0.436791 0.188396 0.764116 -0.317085 0.555576 
0.265157 0.713452 0.535202 0.459671 0.285694 0.824642 
-0.249861 0.855895 0.131617 -0.659288 0.458800 -0.566622 
-0.600380 0.490207 0.314861 -0.744406 -0.303624 0.515559 
-0.097182 1.067375 0.159801 -0.431698 0.442420 -0.763207 
-0.332795 3.107057 -0.323891 -0.748745 0.350320 0.556832 
-0.347921 3.031978 -0.300060 0.775855 -0.326856 -0.535331 
0.334915 0.813759 0.331184 0.902267 0.344423 -0.017619 
-0.967287 1.247328 -0.211458 0.818321 0.016966 -0.528771 
-0.384688 -0.457228 0.112797 -0.799746 -0.150846 0.565251 
-0.577787 0.502405 0.403341 -0.566943 -0.301710 0.757969 
0.555025 0.980427 0.412845 -0.664634 0.282830 -0.651271 
-0.860525 2.003038 -0.089533 0.498797 -0.634917 -0.530587 
-0.265570 2.104957 0.660995 0.741833 -0.437142 -0.496255 
0.092532 -0.798823 0.234378 0.199941 -0.295187 0.924920 
0.643998 1.608710 0.817007 0.655541 -0.614400 0.349411 
0.512253 -0.741880 -0.014149 0.626063 -0.085829 0.768902 
-1.078895 0.761092 -0.699419 -0.860601 -0.321826 0.329494 
0.179343 0.727574 0.007584 0.501631 0.364300 -0.732151 
1.265535 0.973378 -0.438515 -0.678728 0.229495 -0.671296 
0.129854 -1.122946 0.100430 -0.087683 -0.143428 -0.983735 
-0.814110 1.989844 0.014707 -0.867230 0.242814 0.428853 
-0.668933 2.301130 -0.142535 -0.507836 0.656864 0.487197 
-0.647260 1.095592 0.345935 0.726106 0.353691 -0.562601 
0.166570 -0.697844 0.263757 0.232619 -0.356383 0.901253 
-0.488458 0.194669 0.257189 -0.825749 -0.322442 0.441738 
2.074750 2.056221 0.666953 -0.156063 0.856231 -0.471156 
0.217498 -0.425034 0.016756 0.448697 -0.182756 -0.836602 
-0.008858 0.434304 -0.119089 -0.484677 0.130328 -0.861439 
-0.695905 2.543934 -0.421696 0.707043 -0.434701 -0.553618 
0.308001 -0.014798 0.426392 0.539210 -0.257591 0.774223 
0.412836 0.367437 0.466010 0.477802 -0.163072 0.855105 
-0.110026 -0.517471 0.348631 -0.111787 -0.306920 0.940107 
-0.658099 1.900067 0.251638 0.723524 -0.419459 -0.487902 
1.568767 1.936653 0.603372 -0.262064 0.767608 -0.564728 
1.508460 2.180521 1.107042 0.234784 -0.877725 0.417173 
-1.113526 0.768060 -0.763205 0.807541 0.329236 -0.371634 
-0.249666 -0.826542 0.064480 0.132920 -0.049344 -0.969081 
0.111687 1.090017 0.170786 0.454154 0.446913 -0.753950 
-0.744931 0.640560 -0.152850 0.677590 0.296718 -0.560581 
-0.754435 0.460454 -0.152299 -0.868593 -0.246998 0.421539 
-0.620071 2.679929 -0.439350 -0.707608 0.453374 0.537976 
-0.399594 1.961285 0.633166 0.703584 -0.480469 -0.512844 
-0.995239 0.626523 -0.591428 0.789709 0.290618 -0.437883 
1.618342 2.303572 1.334412 -0.160678 0.899067 -0.405380 
2.052440 2.017388 0.588553 -0.164360 0.863510 -0.464224 
-0.010781 -0.645301 0.067506 -0.516809 -0.169786 -0.797795 
-1.019146 1.990040 -0.239148 -0.827668 0.227988 0.510168 
-0.929356 0.567792 -0.482135 0.789839 0.260692 -0.474999 
1.589227 1.298235 -0.315331 0.037278 0.895552 -0.389966 
-0.614211 1.395447 0.754972 -0.740888 -0.297601 0.551713 
0.978782 1.078117 0.002107 -0.590255 0.453443 -0.625567 
-1.250404 1.959561 -0.481954 -0.799098 0.255832 0.541120 
1.522013 2.037248 0.845142 0.240442 -0.811486 0.530556 
-0.932935 1.596554 0.102339 -0.865470 0.154245 0.433416 
-0.803441 2.167571 -0.166086 -0.304084 0.816625 0.454770 
-0.413939 0.490737 0.473451 -0.506114 -0.107978 0.842685 
1.450254 2.042696 0.849175 -0.246148 0.851895 -0.444233 
1.401685 0.941929 -0.590272 -0.657973 0.037479 -0.743207 
-1.165272 0.952996 -0.815110 0.849225 0.369627 -0.320308 
-0.202725 -0.259857 -0.016108 -0.580140 -0.078527 -0.807030 
1.050251 1.655021 0.427232 -0.311672 0.851992 -0.414397 
0.169839 1.010336 0.156767 0.596414 0.413610 -0.676341 
-1.268649 2.015893 -0.566713 0.685501 -0.397710 -0.568331 
-0.544023 -0.374955 -0.063739 -0.785751 -0.101508 0.584218 
-0.627582 0.167033 -0.070494 -0.863935 -0.204666 0.451747 
1.329259 1.318967 -0.198599 -0.098300 0.829123 -0.424843 
-0.011145 3.323126 0.018371 0.790140 -0.269127 -0.548004 
0.252861 0.197135 0.510434 0.402696 -0.213568 0.862501 
-0.944453 2.044264 -0.206760 -0.838404 0.225202 0.494545 
-0.707799 -0.633932 -0.227747 -0.536364 0.136863 0.817822 
0.713970 -0.587765 -0.144576 -0.431785 -0.017341 -0.892552 
0.869998 -0.012591 -0.242560 -0.500588 0.055562 -0.830743 
-0.853075 0.477322 -0.363094 0.782299 0.225815 -0.520772 
0.628773 1.657086 0.877632 -0.175216 0.737101 -0.623202 
-0.327870 -0.538695 0.099615 -0.054911 0.028898 -0.944536 
0.617420 0.747781 0.310521 -0.862562 0.147720 -0.427562 
0.091057 -0.467470 0.367296 0.073727 -0.266311 0.957185 
-1.128390 2.043928 -0.434937 0.601485 -0.508089 -0.557364 
0.392487 0.636168 0.302692 0.674834 0.348093 -0.307844 
0.882090 0.473573 -0.153140 -0.511823 0.192419 -0.711209 
-1.000789 1.183193 -0.256000 -0.851905 -0.052244 0.468789 
-0.488691 0.185491 -0.017948 0.110176 0.149931 -0.825976 
0.022941 0.967843 0.070909 0.367293 0.499236 -0.775246 
1.078852 1.874255 0.843562 -0.325028 0.696102 -0.624254 
-0.591407 2.649187 -0.382280 0.656588 -0.473874 -0.575478 
-1.018296 2.221203 -0.480635 -0.744535 0.388473 0.506083 
-0.023781 -0.419323 0.383536 -0.013943 -0.178396 0.983200 
0.988147 1.295198 0.106589 0.594816 -0.498538 0.549665 
-0.182869 1.154440 0.275695 -0.751859 0.496077 -0.353644 
1.419068 1.304662 -0.238458 -0.002185 0.863960 -0.403508 
0.487130 -1.068794 -0.014506 0.687490 0.178799 0.667495 
-0.411117 -0.531117 0.035743 0.191239 0.051146 -0.888265 
0.759384 0.331204 -0.091793 -0.337149 0.166481 -0.764745 
-0.987271 0.336299 -0.597429 0.727530 0.190155 -0.507298 
1.560637 1.715325 0.259202 -0.171141 0.885083 -0.420999 
-0.565965 1.898875 0.523686 -0.674086 0.647041 0.257561 
-0.195966 2.426438 0.345367 0.758733 -0.480433 -0.432392 
0.499445 0.180970 0.298371 0.723995 -0.308475 0.605844 
-0.865667 0.313379 -0.416241 -0.827107 -0.216705 0.451626 
-0.007202 2.710048 0.357097 0.741941 -0.415212 -0.520818 
1.163872 1.765423 0.573397 -0.297765 0.869823 -0.354836 
-1.268303 1.513170 -0.479062 -0.837984 -0.122191 0.486238 
-0.416934 1.753969 0.916634 0.826315 -0.462142 -0.080718 
1.494004 1.910354 0.614781 0.285193 -0.847107 0.427531 
1.057359 2.032705 1.181254 0.382510 -0.787373 0.456693 
0.737588 1.684132 0.854629 0.605196 -0.662209 0.346083 
1.672559 2.081615 0.857467 0.208162 -0.762296 0.598676 
0.707243 0.559686 0.237820 0.789061 -0.208095 0.519880 
0.722845 1.636753 0.757129 -0.206208 0.807152 -0.486676 
2.053194 2.116801 0.801171 -0.138653 0.911977 -0.377874 
-0.102254 -0.954922 0.158740 -0.155357 -0.232745 0.954048 
0.460778 -0.087905 0.055730 0.089713 0.090714 -0.888775 
0.558994 1.225049 0.510055 -0.475459 0.509686 -0.702962 
-0.770908 0.639910 -0.063808 -0.900295 -0.248977 0.345293 
-0.830521 -0.027619 -0.427738 -0.736694 -0.134237 0.546543 
0.666205 -0.327468 -0.068117 0.676866 -0.124986 0.709318 
0.527313 0.269339 0.309961 0.732541 -0.339163 0.582806 
-0.246039 -0.838352 0.173786 -0.261971 -0.296672 0.913275 
-0.170191 -0.475578 0.025301 -0.271690 -0.285169 -0.878063 
-0.955497 2.460177 -0.647982 0.657412 -0.509438 -0.552671 
-1.003330 1.319890 -0.202170 -0.843378 0.016978 0.486099 
-0.114717 2.845193 0.120545 -0.725299 0.407507 0.544154 
-0.765935 0.382621 -0.255064 0.685539 0.193776 -0.582002 
0.901360 0.852792 -0.003238 -0.645686 0.339141 -0.658903 
1.718340 1.782058 0.282835 -0.193125 0.860744 -0.462027 
-0.211785 2.113738 0.770698 0.856958 -0.450371 -0.041550 
-0.645274 1.012887 0.302122 0.729889 0.387676 -0.551751 
0.867594 1.632334 0.547994 -0.293609 0.878575 -0.370405 
-0.546868 0.700348 0.405772 0.744404 0.464461 -0.293044 
0.305644 0.561168 0.020376 0.677237 0.108411 -0.717638 
-0.757841 0.215391 -0.230510 -0.834866 -0.171176 0.493144 
-0.132073 0.081584 0.526520 -0.245944 -0.260516 0.931338 
-0.731711 1.995674 0.042362 0.641139 -0.560095 -0.486330 
1.372158 0.867037 -0.570541 0.677140 -0.025315 0.726797 
1.496465 2.072020 0.905955 0.244789 -0.754612 0.597296 
-0.911448 2.271525 -0.402339 -0.437873 0.706513 0.487095 
-1.065109 0.921599 -0.561236 0.849087 0.291038 -0.423775 
-0.784680 0.538879 -0.268316 0.666889 0.214404 -0.566020 
1.104399 2.046543 1.093028 -0.334764 0.835249 -0.434669 
0.906139 -0.072349 -0.274952 -0.492460 0.016590 -0.846960 
-0.290213 2.080244 0.730052 -0.633731 0.651621 0.380536 
0.613894 0.650464 0.312591 0.110103 -0.254007 0.901067 
-0.402965 0.417650 0.476596 -0.472419 -0.189767 0.856869 
-0.830287 -0.110752 -0.409106 0.636763 0.077762 -0.645975 
1.566832 1.759510 0.318887 -0.177574 0.884089 -0.422220 
-0.641518 0.623554 0.249329 -0.555488 -0.235920 0.781242 
1.308046 2.048055 0.981632 0.323719 -0.791782 0.503728 
0.402081 0.558288 0.299346 0.372624 0.580911 -0.606815 
-1.053306 0.693538 -0.682664 0.794814 0.317149 -0.403271 
-1.242915 1.399016 -0.503294 0.826077 0.172504 -0.503288 
-0.229909 1.177204 0.693711 0.573745 -0.021730 0.802381 
-0.730956 0.699621 -0.057095 0.743724 0.372958 -0.526306 
-0.800698 0.929473 0.029624 -0.921583 -0.089307 0.327922 
0.118548 0.692763 -0.027690 0.435821 0.257118 -0.827787 
-0.166689 1.230714 0.534010 0.215659 0.916646 0.283117 
0.250934 -0.071600 0.438797 0.465610 -0.260623 0.810041 
-1.102482 1.367994 -0.315928 -0.842882 -0.047772 0.483042 
-1.043723 0.888268 -0.469272 -0.873862 -0.254694 0.405937 
1.121538 0.538234 -0.361338 0.714342 -0.102328 0.679504 
1.680420 1.988303 0.645732 -0.227481 0.728530 -0.627570 
0.990364 1.739583 0.717077 0.463645 -0.735898 0.464029 
0.353054 0.532443 0.191335 0.566716 0.387157 -0.679768 
0.562317 1.677782 0.936370 -0.301100 0.843740 -0.433776 
0.981743 1.475271 0.162958 -0.471699 0.646163 -0.596767 
-0.909739 2.098391 -0.240539 0.471032 -0.682257 -0.539895 
-0.618884 0.892765 0.243846 0.784951 0.344946 -0.459308 
-0.603008 -0.191656 -0.107571 -0.803994 -0.124825 0.552364 
0.069387 0.211298 0.567536 0.147062 -0.205988 0.960692 
0.634714 1.254561 0.497887 0.782646 -0.267765 0.456165 
1.220561 0.477779 -0.468825 -0.600163 0.010077 -0.785229 
-0.136719 0.221170 -0.070226 -0.590379 0.020646 -0.799476 
1.034275 0.379732 -0.321094 -0.592963 0.094203 -0.764739 
-0.745785 1.787190 0.323312 0.611310 -0.352685 -0.576857 
-1.068411 1.648895 -0.170624 0.805903 -0.112859 -0.553280 
-1.188988 1.465731 -0.391816 -0.838944 -0.075083 0.487533 
2.143491 2.049457 0.629827 0.157544 -0.889253 0.426405 
-0.580800 1.926495 0.415130 0.729024 -0.353167 -0.522485 
-0.165986 0.288481 -0.052402 -0.612941 0.023912 -0.782778 
-0.479702 0.612688 0.339847 0.213942 0.616041 -0.344076 
-0.885310 0.289103 -0.488990 0.707995 0.238255 -0.529637 
0.903280 0.579594 -0.160137 -0.546193 0.213068 -0.708027 
-0.314335 0.798482 0.220775 -0.819904 0.391297 -0.344411 
1.914737 2.277851 1.199338 0.164847 -0.928519 0.312049 
2.016864 2.153070 0.888594 -0.136638 0.916393 -0.367426 
0.315801 1.458216 0.831734 -0.714808 0.252251 -0.582692 
0.023627 -0.503028 0.361760 0.141391 -0.242367 0.943035 
-0.172756 0.367798 0.596425 -0.279293 -0.121445 0.951166 
1.805259 2.053004 0.757990 0.182442 -0.925607 0.317839 
0.121288 0.683207 0.569803 0.096209 0.127141 0.976770 
-0.013855 2.464148 0.604562 -0.584781 0.542107 0.597317 
1.278384 1.239340 -0.408605 -0.568548 0.499250 -0.639798 
0.731258 -0.491117 -0.159639 -0.435798 -0.003650 -0.886244 
-0.323749 0.535023 0.112824 -0.624789 0.218138 -0.695807 
-0.293594 3.079491 -0.251894 -0.730679 0.362272 0.565967 
-1.396773 1.781032 -0.613307 -0.797536 0.120325 0.538985 
-0.610578 -0.827379 -0.140730 -0.591418 0.173568 0.769840 
0.902759 0.086044 -0.230331 0.685765 -0.102453 0.706736 
-0.913063 0.942288 -0.269445 0.827995 0.141060 -0.506833 
0.480918 0.368654 0.395819 0.591968 -0.250619 0.725182 
1.573681 2.201746 1.133388 0.223918 -0.891532 0.382704 
-1.082127 1.902297 -0.222866 -0.817188 0.224459 0.528669 
-0.337374 2.147413 0.563394 -0.619259 0.637550 0.418939 
1.053063 0.154096 -0.363589 0.603158 -0.011781 0.782824 
-0.415162 1.869488 0.832527 -0.599252 0.710352 0.336763 
-1.010312 0.801717 -0.525061 -0.881669 -0.285103 0.356554 
1.944868 2.256290 1.133132 0.159251 -0.920670 0.339366 
1.256021 1.960182 0.863893 0.352722 -0.842937 0.391666 
0.743321 0.663812 0.061695 -0.513074 0.415565 -0.714651 
-0.173150 1.208760 0.458771 -0.897453 -0.254217 0.329909 
-0.477244 -1.073878 -0.030822 0.614198 -0.032347 -0.782865 
1.032977 1.595874 0.496769 0.329836 -0.876568 0.340532 
1.645435 2.126893 0.949238 -0.175339 0.929573 -0.308215 
1.070864 0.970806 -0.122402 0.679414 -0.382188 0.573334 
1.061200 1.937217 1.059627 0.400225 -0.759785 0.441623 
0.318539 -0.519622 0.242097 0.673165 -0.253124 0.692466 
1.379879 1.264395 -0.539822 0.608634 -0.401496 0.655455 
-0.095953 2.422338 0.554723 -0.689706 0.553941 0.451891 
-0.547070 0.245546 0.164142 -0.845521 -0.313487 0.417911 
1.407963 1.824092 0.494424 -0.270104 0.844542 -0.450634 
0.417762 -0.252968 0.169830 0.738219 -0.195229 0.641268 
-0.260064 1.027825 0.372382 -0.901586 0.374339 0.007752 
0.104406 3.094285 0.303095 -0.603925 0.363719 0.665698 
-0.801921 1.748930 0.304006 0.689709 -0.226824 -0.597563 
-0.543094 2.251866 0.029274 0.723741 -0.475115 -0.483309 
0.971534 0.184537 -0.290153 0.680537 -0.083452 0.717182 
-0.238218 0.997512 0.526179 -0.781159 -0.084902 0.595110 
-1.152766 1.740673 -0.250231 0.801799 -0.117715 -0.555007 
-0.267248 2.327700 0.426120 -0.642207 0.584571 0.463197 
1.555897 2.014833 0.752835 -0.246552 0.682292 -0.677683 
1.037972 1.049915 -0.045139 0.659462 -0.410281 0.564262 
0.692408 -0.002195 -0.042377 0.752261 -0.176563 0.626168 
0.621275 0.482209 0.333170 0.668033 -0.244007 0.643331 
-0.419899 -0.085351 0.037154 -0.011119 0.098289 -0.875658 
1.558255 2.295491 1.378301 0.132651 -0.791186 0.561373 
-1.312530 1.296443 -0.724838 -0.859712 -0.303288 0.391294 
-0.191349 -0.547903 0.057790 0.037111 -0.250449 -0.941252 
1.145332 1.280007 -0.160845 -0.547245 0.541163 -0.612574 
0.227162 0.385848 -0.006108 0.588909 0.035888 -0.798378 
1.449631 2.196662 1.185958 0.252845 -0.889071 0.360908 
-0.183858 -0.129106 -0.031429 -0.582415 -0.051315 -0.805352 
-0.128782 2.354148 0.534914 0.731503 -0.495146 -0.462852 
1.118469 1.649652 0.379750 -0.301928 0.834392 -0.449567 
-0.845017 0.403101 -0.328789 -0.846814 -0.204425 0.454644 
-0.871198 2.333249 -0.416079 -0.483377 0.665366 0.496958 
-0.951779 0.260495 -0.560814 -0.753523 -0.179197 0.486637 
-0.845405 1.630703 0.321621 -0.890597 0.173328 0.364355 
1.240925 1.204138 -0.358193 -0.576789 0.486241 -0.635976 
-0.402691 2.354681 0.145880 -0.717127 0.522727 0.452133 
-0.090025 0.991294 0.613503 -0.179578 -0.123387 0.969957 
-0.217955 -0.406948 0.363879 -0.363690 -0.256426 0.858658 
-0.854726 0.707137 -0.210822 -0.898779 -0.209580 0.372677 
0.739571 1.019862 0.303694 0.796109 -0.117998 0.512954 
-0.353713 2.349260 0.202931 0.551540 -0.603633 -0.567741 
1.371606 2.186942 1.206065 -0.245843 0.873016 -0.414280 
0.296454 0.482094 0.026945 0.658777 0.050826 -0.738562 
0.503660 1.122966 0.529843 -0.524306 0.440556 -0.710446 
0.404144 -1.079752 0.035453 0.672976 0.068846 0.695206 
1.588865 2.141369 1.004213 0.220227 -0.822592 0.504078 
-1.084219 0.617008 -0.714842 -0.796268 -0.258290 0.393207 
-0.217671 0.308008 0.557272 -0.371528 -0.151126 0.889392 
0.380616 0.161890 0.104145 0.195366 0.133445 -0.953251 
-0.177629 2.212164 0.714507 -0.568354 0.553296 0.567216 
-0.396614 2.701938 -0.157208 0.553984 -0.522257 -0.624687 
-0.253925 -0.171569 0.015747 -0.616457 -0.077659 -0.780072 
-0.566967 1.226519 0.657618 -0.462659 -0.488667 0.674176 
-0.242107 3.092238 -0.188268 -0.728377 0.358409 0.568890 
0.133071 1.098635 0.439179 0.768293 0.121384 0.473431 
1.853998 2.347760 1.398079 -0.181198 0.946201 -0.183867 
-0.696536 0.443541 -0.193596 0.500679 0.197127 -0.643996 
0.155869 0.889839 0.577774 0.322888 -0.148773 0.912783 
0.707236 0.058341 -0.076138 -0.356301 0.135429 -0.788283 
-0.417235 2.935094 -0.329626 -0.776338 0.352467 0.514910 
1.835780 2.018935 0.662638 -0.198872 0.777237 -0.567692 
-0.577246 0.547547 0.025851 0.398218 0.308427 -0.692357 
-0.711000 0.630049 0.119651 -0.936005 -0.231642 0.238275 
-0.605737 1.773523 0.666318 -0.632378 0.683262 0.286688 
0.241316 -0.451449 0.347008 0.409726 -0.266331 0.854028 
-0.870591 1.714190 0.312198 -0.878890 0.198641 0.385046 
0.574967 -0.830820 -0.059431 -0.388859 -0.013316 -0.917377 
0.557699 0.239461 0.249367 0.751733 -0.327327 0.566934 
1.783534 1.435091 -0.219475 -0.150030 0.819904 -0.507433 
-0.246663 0.916517 0.181600 -0.733796 0.408871 -0.500659 
1.183433 1.880570 0.759823 -0.357024 0.735533 -0.560196 
-1.241433 1.554285 -0.425549 -0.834715 -0.076309 0.494017 
0.272100 0.868980 0.191280 0.760913 0.401076 -0.450439 
-0.689632 0.910575 0.157645 0.753179 0.368521 -0.535891 
-0.514682 -0.686337 -0.068628 -0.726658 -0.047813 0.670057 
1.247847 1.917874 0.760897 -0.332472 0.727307 -0.587526 
0.507162 1.485453 0.659175 -0.392201 0.598345 -0.692243 
0.172332 -0.633910 0.294539 0.277780 -0.381054 0.879822 
-0.416493 1.898002 0.682082 0.682054 -0.515756 -0.515346 
-0.066710 1.158034 0.184768 -0.444806 0.389014 -0.793148 
0.734484 1.800586 1.009929 -0.270189 0.873581 -0.394197 
0.167641 0.987574 0.583736 0.358548 -0.152029 0.874119 
0.486575 -0.062638 0.174914 0.758865 -0.248845 0.593975 
1.690297 2.307354 1.325721 -0.153326 0.902434 -0.399964 
1.338388 0.791677 -0.548645 0.669358 -0.023911 0.732694 
0.330017 -0.824578 0.147278 0.511043 -0.209059 0.815553 
0.502787 -0.837963 -0.022272 -0.356016 0.012275 -0.928779 
0.628342 -0.047444 -0.036911 -0.241206 0.115854 -0.821007 
-0.824530 1.814864 0.234846 -0.879960 0.224456 0.387798 
1.481778 1.876934 0.537924 -0.294498 0.824635 -0.479281 
0.233895 -0.006238 0.463521 0.415991 -0.260730 0.839532 
-0.513863 2.912308 -0.446492 -0.733584 0.398934 0.545998 
1.393670 1.282634 -0.324877 -0.106892 0.805257 -0.435346 
0.364990 0.704047 0.275474 0.915881 0.335085 -0.166872 
-0.352802 -1.279703 0.034718 0.575956 -0.487553 0.376218 
-0.188740 2.216231 0.635545 0.745903 -0.456060 -0.474584 
0.561275 0.216105 0.010044 -0.057971 0.144581 -0.861056 
-0.610605 1.971720 0.354938 -0.609187 0.672989 0.355914 
0.010309 0.279637 -0.154093 0.511207 0.066011 -0.856275 
-0.977707 0.644226 -0.521917 -0.861193 -0.270433 0.381123 
0.950928 1.347334 0.140469 -0.502426 0.597930 -0.611766 
-0.501787 -1.004475 -0.052247 -0.678771 0.188082 0.685519 
-0.562478 0.394213 -0.078389 0.243785 0.189435 -0.768034 
-0.749288 -0.156149 -0.348664 0.607912 0.144682 -0.655620 
-0.893802 0.642697 -0.387571 0.826386 0.245625 -0.481750 
0.526176 1.384978 0.659885 0.804378 -0.343366 0.405045 
1.503746 1.520275 0.034020 0.079715 -0.915308 0.330617 
-0.682051 0.598374 0.191003 -0.863266 -0.246176 0.340632 
0.821870 1.792277 0.987780 0.497312 -0.680205 0.487002 
0.043093 -0.592419 0.054505 0.201574 -0.266178 -0.930600 
1.654498 2.274638 1.271657 0.212442 -0.943411 0.232516 
-0.130929 0.166070 0.550022 -0.239911 -0.221274 0.940225 
-0.343113 2.876506 -0.192556 -0.649407 0.442198 0.598510 
1.382550 1.064573 -0.545687 -0.688605 0.129786 -0.696692 
0.371574 0.065404 0.416893 0.615519 -0.254049 0.738184 
-0.415342 0.322714 0.047772 -0.037423 0.177620 -0.903183 
0.630335 0.975400 0.417566 0.859435 -0.000538 0.492792 
0.591206 0.338969 0.259629 0.750561 -0.347555 0.559222 
0.547699 1.207721 0.581528 0.840476 -0.184509 0.435776 
-0.279938 0.236547 0.023902 -0.670459 -0.016235 -0.740198 
0.149999 -0.187129 0.444631 0.191983 -0.244100 0.948498 
-0.455970 2.165370 0.307984 -0.690191 0.588058 0.400911 
0.325233 0.280261 0.495199 0.463252 -0.182983 0.843472 
-1.323377 1.869358 -0.487041 0.775836 -0.244290 -0.577820 
0.356181 -0.457075 0.193112 0.703896 -0.227456 0.667909 
0.830220 0.302399 -0.099778 0.780341 -0.199918 0.591856 
-0.912574 1.720424 0.172410 0.776032 -0.120375 -0.602110 
2.062814 2.274117 1.139600 -0.120245 0.911727 -0.391485 
0.215660 0.911937 0.541399 0.630742 -0.038380 0.749496 
-0.150018 3.133682 -0.089597 -0.749309 0.336910 0.559327 
-0.792422 0.667843 -0.202323 0.757971 0.294461 -0.522623 
-0.858351 1.930519 0.023262 -0.859234 0.238623 0.444249 
-0.659225 2.523755 -0.361176 0.704109 -0.447548 -0.546963 
-0.612720 2.119874 0.090363 0.803702 -0.370645 -0.436503 
0.660289 -0.400782 -0.079018 0.658758 -0.108817 0.730676 
-0.043947 3.357433 -0.044742 0.791854 -0.264206 -0.548824 
-0.586199 2.057974 0.263540 -0.609196 0.655071 0.419266 
-0.008535 1.007039 0.626180 -0.108121 0.051783 0.978954 
0.088208 2.832364 0.387745 0.749911 -0.368481 -0.546737 
-0.966931 1.295334 -0.140200 -0.855162 0.020856 0.462239 
-0.645359 1.347914 0.510918 0.729609 0.186335 -0.614074 
-0.724128 0.786593 0.196673 -0.917442 -0.227188 0.283566 
-0.012615 2.538844 0.539714 -0.691951 0.520423 0.494484 
-0.460361 0.419067 0.432636 -0.558522 -0.242942 0.760100 
1.210766 1.142547 -0.331387 -0.593570 0.458085 -0.635636 
-0.865962 0.693420 -0.311055 0.834908 0.245114 -0.489343 
0.782781 0.447888 -0.101312 -0.372664 0.187014 -0.762243 
-0.396439 -0.056990 0.274553 -0.764620 -0.201302 0.598464 
-0.403956 -0.211156 0.048714 -0.015634 0.078180 -0.886680 
-1.144554 1.364600 -0.391377 0.822713 0.104607 -0.514316 
0.818751 -0.426178 -0.207742 -0.468303 -0.024113 -0.872934 
1.127814 1.317705 -0.095651 0.560497 -0.560358 0.580984 
0.590673 -0.126502 0.013788 0.757874 -0.177053 0.622684 
0.530923 1.349943 0.584965 -0.435019 0.551839 -0.698486 
0.732730 1.482256 0.421048 -0.429023 0.622747 -0.646094 
-0.222185 2.265980 0.595496 -0.664164 0.588308 0.420608 
1.188403 1.283620 -0.234094 -0.549021 0.536517 -0.620005 
-0.496540 0.513729 0.096579 0.209568 0.363462 -0.726611 
0.825400 1.017932 0.199410 0.760501 -0.196277 0.527966 
-0.419796 2.630688 -0.142687 0.536198 -0.543956 -0.628366 
0.200112 0.096809 -0.029315 0.577150 -0.021828 -0.811305 
-0.974393 0.726803 -0.477129 -0.876114 -0.267387 0.377095 
-0.284577 0.071583 0.451961 -0.521395 -0.251275 0.777323 
1.170684 1.213169 -0.213019 0.599483 -0.492472 0.595718 
0.047998 0.563057 -0.072248 0.434771 0.166312 -0.871959 
-0.823740 1.414314 0.246562 -0.907602 0.103828 0.345290 
-1.318473 2.057012 -0.665670 -0.731900 0.366790 0.554085 
2.212194 2.386881 1.401890 -0.095095 0.934880 -0.341388 
-1.073118 0.834347 -0.674421 0.836916 0.327398 -0.376770 
-1.157099 2.146046 -0.572480 0.623903 -0.506514 -0.555869 
0.435778 0.235608 0.076803 0.116603 0.146796 -0.930020 
0.072454 3.119593 0.227465 0.774176 -0.305459 -0.550049 
0.460440 1.555855 0.798910 -0.274467 0.863080 -0.389022 
-1.237745 1.224285 -0.576091 0.834311 0.261707 -0.483980 
-0.795927 1.565190 0.324881 0.755878 0.008607 -0.608819 
-0.581400 0.645705 0.092212 0.416143 0.475367 -0.588813 
-0.549826 0.033888 0.011887 -0.858352 -0.202658 0.460911 
0.882831 0.642502 -0.087231 -0.601553 0.298555 -0.688965 
0.353151 -0.889172 0.113912 0.512343 -0.180817 0.831631 
-0.342694 -0.938181 0.093378 -0.483518 -0.166946 0.840267 
0.903295 0.780048 0.016576 0.810695 -0.138017 0.547279 
-0.530077 2.049583 0.354512 -0.667382 0.619986 0.372896 
0.218019 0.593748 -0.008641 0.574475 0.138732 -0.776367 
0.254668 -0.935040 0.125801 0.198996 -0.254033 0.944543 
-0.252065 2.868560 -0.060775 -0.631992 0.447549 0.609331 
1.346641 1.528115 0.118925 0.020597 -0.960258 0.248436 
0.523079 1.285563 0.633011 0.832525 -0.247517 0.417616 
0.652490 1.554065 0.643745 -0.414742 0.597580 -0.681520 
1.578165 1.352496 -0.234643 -0.002584 -0.900133 0.372823 
-0.092486 0.848155 0.028127 -0.477858 0.416133 -0.758461 
-0.186792 -0.339342 0.386626 -0.289705 -0.239640 0.884610 
-0.832643 1.343857 0.185729 -0.908259 0.079775 0.351727 
0.728409 0.576326 0.012058 -0.410800 0.309437 -0.754751 
-0.603971 0.795320 0.329153 0.938674 0.171637 -0.206904 
-0.459926 -0.227617 -0.000529 0.155778 0.086483 -0.842055 
-0.029518 3.179084 0.057060 -0.815468 0.288024 0.492594 
1.020854 1.960509 1.113641 0.406227 -0.762775 0.449393 
-0.079124 1.004090 0.115533 -0.444042 0.462286 -0.745455 
0.023202 2.680276 0.430839 0.746608 -0.426165 -0.502248 
0.274238 0.975110 0.290319 0.879231 0.382946 -0.222284 
-0.711422 1.541074 0.491669 0.742605 0.043308 -0.631485 
-0.405440 0.222000 0.054694 -0.052237 0.158196 -0.906823 
-0.114338 2.697699 0.210482 0.754660 -0.392569 -0.519368 
0.896014 1.046472 0.124864 0.720676 -0.277177 0.539592 
0.117946 -0.272118 0.422687 0.137766 -0.241017 0.960031 
-0.833642 0.311068 -0.344422 -0.833274 -0.199892 0.465671 
-0.832007 1.295514 0.084093 0.767603 0.138642 -0.552679 
-0.208163 2.354628 0.511884 -0.678711 0.553026 0.440389 
-0.188501 2.498831 0.334235 -0.679357 0.520461 0.491918 
0.549203 0.643542 0.342409 -0.470857 0.618974 -0.326922 
1.261346 2.010753 0.936093 -0.314765 0.894084 -0.307699 
-1.004889 1.609026 -0.052881 -0.839884 0.145513 0.491484 
-0.257139 2.405250 0.303827 -0.626778 0.584540 0.504111 
-0.032990 -0.544054 0.349323 -0.195074 -0.270582 0.924289 
1.364293 1.760542 0.420218 -0.228540 0.870726 -0.418158 
2.125578 2.254298 1.070247 -0.116011 0.911102 -0.395322 
-0.061808 2.717538 0.269663 -0.744366 0.427075 0.508844 
-0.243148 2.267621 0.473620 0.753621 -0.466648 -0.451477 
-0.811975 2.442389 -0.454934 -0.569935 0.588338 0.515746 
-0.252836 3.174028 -0.255071 0.767607 -0.314757 -0.557359 
-0.070133 0.117432 0.542289 -0.165766 -0.248572 0.948034 
-0.570165 1.403498 0.694926 0.748249 0.207132 -0.590505 
-0.830317 0.215653 -0.379894 -0.817501 -0.199648 0.473429 
-1.192657 2.169553 -0.637272 0.646685 -0.484497 -0.557588 
1.922278 2.030643 0.660254 -0.183594 0.806571 -0.531943 
-0.544839 0.376373 0.270827 -0.837662 -0.365870 0.389199 
-0.141030 1.108479 0.427210 -0.743056 0.035584 0.588078 
-0.111365 2.778136 0.163643 -0.715359 0.425957 0.543553 
-0.004598 -0.978334 0.174958 -0.593222 -0.154610 0.776352 
1.770883 2.202400 1.069877 -0.168163 0.896796 -0.403384 
-0.361163 -0.273979 0.084781 -0.102817 0.065166 -0.922530 
1.582276 1.975374 0.682054 0.234411 -0.898984 0.342187 
-1.101302 1.044920 -0.473524 0.835146 0.236267 -0.489362 
-0.416607 -0.160014 0.171338 -0.825822 -0.192109 0.514147 
0.334474 0.619541 0.534726 0.574995 0.039487 0.802367 
0.710046 0.254388 -0.067602 -0.266433 0.152645 -0.784587 
-0.416197 2.113420 0.426824 0.577507 -0.519664 -0.588408 
-0.662515 0.735280 0.099173 0.864957 0.353937 -0.132975 
-0.027294 2.638043 0.393678 0.741693 -0.442438 -0.497312 
-0.137909 1.190639 0.596534 0.390382 0.606589 0.657993 
1.117621 2.074107 1.197250 0.358374 -0.805777 0.455118 
-0.250996 2.775920 -0.011160 0.834155 -0.291818 -0.463187 
2.189777 2.353749 1.319216 -0.100397 0.928908 -0.354909 
-0.784468 -0.355057 -0.331955 -0.603329 0.039114 0.715216 
-1.158053 1.299722 -0.436758 0.826354 0.150838 -0.505991 
-0.754026 2.025809 0.105753 -0.722259 0.504052 0.435234 
-0.088663 0.507550 -0.064179 -0.527217 0.114477 -0.827218 
-0.640930 1.620993 0.782402 -0.953586 0.188367 0.202242 
0.947741 0.445825 -0.164691 0.773820 -0.199318 0.595927 
-0.270930 0.792494 0.087269 -0.638294 0.519922 -0.551630 
-0.739983 0.805079 -0.002613 0.773145 0.346973 -0.520497 
-0.622369 1.827587 0.415158 0.774045 -0.271056 -0.511918 
-0.402080 2.204600 0.342017 -0.717046 0.568532 0.375786 
0.235897 0.952453 0.191794 0.717756 0.397136 -0.523989 
-0.903543 0.120347 -0.502577 -0.731956 -0.143007 0.527560 
1.560903 1.878626 0.501224 -0.277203 0.829422 -0.481111 
-0.261768 0.370122 0.013246 -0.664513 0.005395 -0.741712 
-0.058830 -0.642267 0.315020 -0.293438 -0.339186 0.888041 
-0.153904 0.464859 -0.035438 -0.579578 0.072627 -0.794395 
-1.209646 1.296450 -0.490626 -0.850111 -0.182394 0.463880 
1.302285 1.846569 0.586829 -0.314207 0.833066 -0.443937 
1.325766 2.198573 1.260752 -0.256312 0.872319 -0.407173 
-1.126921 1.450871 -0.314218 -0.838296 -0.026571 0.491405 
-0.757977 1.399146 0.387831 -0.928438 0.104688 0.293045 
-0.311836 -0.169744 0.124448 -0.222847 0.079268 -0.966899 
0.790344 1.805294 1.056333 0.497944 -0.693279 0.455972 
-0.067309 -0.250312 -0.073731 -0.431963 -0.172332 -0.862603 
-1.107023 0.861888 -0.731563 0.835931 0.342771 -0.358003 
0.658177 0.677863 0.263474 0.275914 -0.207950 0.872837 
0.401996 -1.191838 0.031728 -0.495107 0.016779 -0.868055 
-0.430896 -0.012412 0.028831 0.006999 0.112303 -0.869402 
1.570685 1.521153 0.002877 0.114118 -0.892165 0.370096 
-1.031124 1.806114 -0.058912 -0.823423 0.211887 0.522296 
-0.251318 0.161879 0.494189 -0.443740 -0.227879 0.830154 
-0.098937 0.279827 -0.096436 -0.575311 0.040933 -0.810633 
-1.001105 1.460095 -0.126048 -0.841464 0.082218 0.489297 
0.027839 0.766587 -0.020429 0.403366 0.318393 -0.848273 
-0.157094 2.938075 0.013347 0.783930 -0.324805 -0.521805 
-0.579267 1.490443 0.744267 0.721654 0.106162 -0.664329 
-1.053941 2.246356 -0.549616 -0.721228 0.424987 0.512606 
-0.592655 -0.384395 -0.116958 -0.763925 -0.088543 0.610811 
0.396393 0.157821 0.428538 0.621368 -0.248097 0.741036 
-0.045959 0.770526 -0.012851 -0.421536 0.328815 -0.831874 
-0.067798 1.299811 0.272415 -0.649791 0.508522 -0.502075 
0.118478 1.139012 0.601369 -0.351501 0.331242 0.852146 
0.465287 -0.012684 0.234421 0.732092 -0.254393 0.620969 
1.316863 1.947563 0.772983 -0.311412 0.709387 -0.618171 
-0.500372 0.075278 0.151293 -0.847441 -0.265997 0.441496 
1.019729 0.844579 -0.136323 -0.669458 0.327000 -0.633908 
0.998390 0.299278 -0.302163 -0.575429 0.088291 -0.776844 
0.529269 -0.430927 0.016238 0.701154 -0.136905 0.686325 
-0.554169 1.200616 0.556741 0.929471 0.094859 -0.250965 
-0.485962 1.726709 0.926886 -0.592017 0.710160 0.362356 
1.384123 1.978162 0.788242 -0.290468 0.689649 -0.651115 
-0.408864 0.388934 0.111717 -0.025304 0.267014 -0.855513 
0.213886 0.017300 -0.018341 0.579236 -0.040569 -0.809253 
-0.449610 0.124438 0.287152 -0.789059 -0.279438 0.519279 
-0.068111 3.131510 0.013151 0.768025 -0.312054 -0.558370 
-0.845847 2.300128 -0.351489 -0.434997 0.704236 0.486364 
-0.463966 -0.582788 -0.011512 0.374116 0.055793 -0.846957 
-0.047520 -0.579953 0.048128 -0.181457 -0.282145 -0.929462 
0.714665 -0.418772 -0.156412 0.619243 -0.054813 0.778727 
1.023027 0.502292 -0.265137 -0.661970 0.163577 -0.703370 
-0.243639 0.884878 0.506737 -0.727671 0.053312 0.645732 
-0.907538 2.405281 -0.539802 0.686492 -0.465301 -0.548679 
-0.436800 0.483117 0.156913 -0.051421 0.387991 -0.751045 
1.066138 1.315765 -0.008586 -0.531039 0.572255 -0.595417 
0.888203 0.735736 -0.036648 -0.666581 0.300967 -0.670083 
0.005425 -0.902912 0.069264 0.566704 -0.101750 -0.796066 
-0.549522 -0.456412 -0.083604 0.547967 0.081880 -0.775266 
-0.641920 1.883217 0.320763 0.800120 -0.286536 -0.476682 
-0.756114 0.594654 -0.227834 0.626483 0.237236 -0.587090 
0.708948 0.502582 0.170532 0.782904 -0.280634 0.546231 
1.210980 0.949134 -0.369618 0.701839 -0.304903 0.614382 
-0.629669 0.570484 0.297714 -0.629179 -0.253464 0.697322 
0.265297 -0.293284 0.372890 0.532732 -0.257601 0.763354 
-0.315191 0.156320 0.457437 -0.558249 -0.235099 0.760043 
-0.244863 0.440861 0.002919 -0.654983 0.011399 -0.746302 
0.584365 1.303326 0.511662 -0.456916 0.541052 -0.691270 
-0.547443 2.222693 0.099008 -0.638195 0.592915 0.481675 
-0.636238 -0.218273 -0.171058 0.610841 0.122223 -0.705498 
1.010743 0.233281 -0.327421 0.675145 -0.069402 0.726363 
0.943181 0.591814 -0.093504 0.781276 -0.243971 0.570538 
0.272575 0.636678 0.004913 0.641284 0.172040 -0.728338 
0.471723 1.335156 0.642080 -0.429907 0.539649 -0.711947 
-1.013302 0.711863 -0.572391 -0.865560 -0.288093 0.361206 
-0.001363 2.854231 0.255264 0.746037 -0.370159 -0.552105 
1.146581 0.895500 -0.322417 -0.664676 0.336493 -0.644464 
0.345730 0.094233 0.101194 0.267119 0.100904 -0.944381 
0.905670 0.361295 -0.146006 0.767461 -0.193680 0.603979 
0.086288 1.023943 0.133587 0.438414 0.444950 -0.755384 
-0.444354 -0.446613 0.035650 -0.809588 -0.109835 0.559674 
-1.008080 0.880890 -0.392480 -0.871092 -0.217037 0.429305 
0.378921 0.372372 0.173091 0.310546 0.303017 -0.849729 
0.554366 0.555009 0.421709 0.232106 -0.260298 0.877710 
-0.844651 1.114543 0.033119 -0.903978 -0.021989 0.362889 
0.156556 0.247476 0.571036 0.251643 -0.178687 0.948161 
1.703078 2.326049 1.393906 -0.235512 0.946630 -0.046750 
1.194164 2.009130 0.969241 -0.337880 0.874301 -0.339122 
-0.217627 1.085457 0.440978 -0.281075 0.514611 0.613785 
1.098203 1.250407 -0.067042 0.582593 -0.530183 0.574231 
-0.794425 1.504259 0.365162 -0.912251 0.136136 0.322849 
-1.044840 0.854194 -0.573249 -0.882493 -0.299075 0.343128 
-0.506517 2.420809 -0.062738 -0.705072 0.494544 0.494915 
1.265289 2.108924 1.154524 0.312092 -0.831852 0.439582 
0.454443 -0.397131 0.042392 -0.065886 0.066376 -0.898813 
0.562823 1.036492 0.548972 0.708290 -0.222292 0.651597 
-0.909741 1.618494 0.167860 -0.871510 0.163557 0.415229 
-0.476394 -0.510009 -0.005495 -0.782080 -0.089830 0.596015 
0.129015 0.003127 -0.071947 0.546537 -0.019750 -0.830883 
0.492186 -0.120130 0.133651 0.762459 -0.223228 0.601391 
0.239831 -0.837838 0.177906 0.240748 -0.296798 0.918636 
0.638557 -0.818153 -0.096347 0.543193 0.075719 0.809740 
0.309511 0.878884 0.360391 0.908505 0.299992 0.085599 
1.156854 0.960450 -0.282869 0.687566 -0.356133 0.597996 
-0.617517 2.348905 -0.151804 0.712421 -0.458027 -0.522331 
-0.797901 1.478278 0.265209 0.754873 0.065961 -0.590659 
0.794303 0.713233 0.156959 0.876256 -0.133126 0.454191 
-0.633050 2.404503 -0.203911 -0.598502 0.577785 0.507068 
1.364118 1.696748 0.324215 -0.176011 0.899791 -0.386542 
0.891280 1.281325 0.217267 0.641850 -0.407441 0.531430 
-0.291858 0.102260 0.050129 -0.484009 0.024247 -0.832051 
-0.632267 1.565316 0.677757 0.730877 0.044671 -0.662155 
0.548635 -0.067093 0.008079 -0.066254 0.100814 -0.849820 
1.284261 1.600367 0.283955 0.249319 -0.827681 0.395525 
0.259895 -0.515680 0.304951 0.496224 -0.266342 0.803731 
-0.790249 1.183359 0.191999 -0.925623 0.023474 0.317765 
1.323164 2.010901 0.893357 -0.284143 0.914701 -0.272142 
0.626197 0.245913 -0.023521 -0.149264 0.150381 -0.828813 
0.604929 -0.525540 -0.051178 0.647965 -0.103560 0.742528 
-1.177090 1.217418 -0.479764 -0.854248 -0.194222 0.456767 
-0.843888 1.223947 0.094758 -0.904229 0.025530 0.361585 
0.562564 0.915226 0.469526 0.486540 -0.465273 0.723563 
0.054146 -0.080594 0.486218 0.109051 -0.260908 0.958172 
0.031359 1.297763 0.416781 0.284484 0.753913 0.560566 
