-0.456710 0.421838 -0.020064 -0.847465 0.097346 -0.483298 
-0.061531 0.598848 -0.295635 -0.394056 0.372346 -0.820791 
0.646830 0.472276 0.395814 0.738662 0.458585 -0.450254 
0.171585 0.832760 -0.132422 0.532840 0.418172 -0.721841 
0.041280 0.095342 -0.396444 0.473310 -0.046979 -0.860601 
-0.002530 0.167165 -0.428321 -0.465714 -0.014557 -0.868385 
0.175706 0.647878 0.367612 0.210098 0.243653 0.924188 
-0.057462 -0.407542 -0.272749 -0.351867 -0.398026 -0.837978 
-2.625596 -0.001279 2.668540 -0.918815 -0.289686 -0.258900 
1.616807 -0.353962 1.639429 -0.543132 0.406403 0.709143 
0.001832 1.331017 0.093046 0.213027 0.777849 0.572564 
1.898674 -0.139093 2.498955 -0.933019 0.283695 -0.078702 
-0.952570 0.468866 0.822448 0.706783 -0.029231 0.681500 
0.381505 -0.253481 -0.081306 0.787079 -0.132202 -0.598413 
-1.120551 -0.790157 1.462702 0.682780 0.483038 0.530597 
-0.274214 -0.482342 -0.156699 -0.500104 -0.303378 -0.806459 
-1.955087 -0.573486 1.919741 0.501986 0.433163 0.693433 
-0.359232 -1.149011 0.163034 -0.378259 0.021575 -0.862854 
-0.481245 0.306018 0.040725 -0.861487 -0.018636 -0.492446 
0.098860 0.126596 0.224545 0.136782 -0.208357 0.963074 
-1.731281 -0.767311 1.909554 -0.590323 -0.497979 -0.625312 
-1.173794 0.577925 1.047087 0.659640 -0.136131 0.714684 
0.415841 -0.545901 0.073024 0.680996 -0.165104 -0.689281 
0.236194 0.788471 -0.127311 0.550277 0.483207 -0.674505 
0.933149 -0.268819 0.740445 -0.761533 0.054996 0.633999 
1.611102 -0.424134 1.673563 0.874844 -0.466240 -0.121023 
-0.217929 -0.326083 -0.227808 -0.497480 -0.261247 -0.814772 
-1.798398 0.426478 1.548356 0.446987 -0.172639 0.832815 
-1.890278 -0.319769 1.691167 -0.665982 -0.367869 -0.637718 
0.487352 0.482523 0.348114 -0.654817 0.278012 0.692905 
1.501314 -0.492646 1.626598 -0.836527 0.450516 0.188073 
-1.554793 -0.792424 1.816036 0.364140 0.475454 0.760430 
0.152946 0.178855 -0.344789 0.575200 -0.016629 -0.797639 
1.219051 -0.667852 1.270252 0.776056 -0.481799 -0.344427 
-0.431922 0.029061 -0.008085 -0.833709 -0.096375 -0.539724 
0.803952 -0.358972 0.611579 -0.751058 0.000502 0.656119 
1.256410 -0.675442 1.355288 0.740979 -0.531259 -0.356853 
-0.212315 1.265607 0.338073 -0.817785 -0.463626 -0.289081 
0.818987 -0.767570 0.591469 0.740990 0.002882 -0.665817 
-2.532564 -0.227792 2.652437 0.878739 0.351991 0.314040 
1.985410 0.501984 2.206851 -0.896731 0.123959 0.293080 
1.906135 0.216450 1.912869 0.814320 -0.224077 -0.498968 
1.865476 -0.075348 2.902268 0.909569 -0.344175 0.200911 
1.793650 -0.207472 2.932363 -0.890610 0.417366 -0.162040 
-2.594848 0.494061 2.183941 -0.879199 0.104713 -0.401121 
-1.676145 0.829376 1.460430 -0.605543 0.305808 -0.655898 
1.166999 -0.693450 1.081305 0.796549 -0.327671 -0.463051 
-2.365628 0.588003 1.922633 0.610458 0.126106 0.770831 
1.207151 -0.800522 1.500371 -0.789334 0.558643 0.209314 
-0.092449 1.227849 0.253684 0.163503 0.817376 0.511412 
-2.568181 0.409477 2.154458 -0.841182 -0.135061 -0.494656 
-0.859828 -0.620588 0.798894 0.830858 0.117305 0.523229 
-1.966651 0.536053 1.618311 -0.640781 -0.105926 -0.757081 
-2.085406 -0.276506 1.829422 -0.625129 -0.358203 -0.684382 
-2.070467 0.397311 1.699571 -0.488719 -0.352810 -0.781094 
0.503371 0.553838 0.318722 -0.620872 0.354584 0.689313 
0.648188 -0.428365 0.459074 -0.584858 0.016481 0.750614 
-2.255371 -0.454773 2.270878 0.754474 0.392327 0.485648 
-0.174558 0.842384 -0.126345 -0.551888 0.404242 -0.714071 
-0.228450 1.106238 0.159019 -0.882372 0.451229 0.012384 
-0.904497 0.496924 0.729120 0.744818 0.336314 0.565703 
-0.662728 -0.160947 0.452940 0.658040 -0.034285 0.690314 
1.442365 -0.384403 1.310586 -0.823129 0.304566 0.409456 
0.652782 -0.518963 0.440196 0.678545 -0.102413 -0.700749 
0.779468 -0.815257 0.551798 -0.699273 -0.061039 0.699405 
-2.095290 0.075332 1.732132 0.574631 0.144789 0.796884 
-0.989957 -0.855120 1.177390 -0.792086 -0.361158 -0.462257 
-0.754278 -0.618223 0.539240 -0.789868 -0.033162 -0.595716 
-1.426134 0.783531 1.267208 -0.280406 0.680265 -0.621342 
-2.296906 0.074241 1.921116 0.746722 0.152067 0.596855 
-0.379504 0.514964 -0.146736 -0.693397 0.194387 -0.656428 
-0.072555 0.006116 -0.362973 -0.475852 -0.095252 -0.850929 
0.061708 0.427220 -0.359239 0.490755 0.211481 -0.823056 
0.730423 -0.363500 0.510577 0.727039 -0.076656 -0.666471 
-0.189282 0.614076 -0.245235 -0.476342 0.363943 -0.780722 
-0.270145 -0.659160 0.112793 -0.353815 -0.083935 0.888213 
1.771661 0.287368 1.683875 0.859333 -0.150661 -0.447072 
1.951385 0.592062 2.095111 -0.867276 0.100405 0.403585 
2.041001 0.112793 2.334497 0.917189 -0.320625 -0.109429 
-2.079049 -0.096844 1.742083 0.604865 0.257981 0.749189 
-2.460632 0.579171 2.017282 0.692793 0.152376 0.686795 
0.418544 0.086964 -0.033235 0.833818 -0.090945 -0.539450 
-0.993533 0.309775 0.774908 -0.796974 -0.235271 -0.549971 
-1.052408 -0.839889 1.344322 -0.725692 -0.448483 -0.491956 
-0.746946 -0.134470 0.503975 -0.817634 -0.089941 -0.567537 
0.795092 0.041075 0.608653 -0.703555 -0.104141 0.694352 
-0.480452 -0.307213 0.086533 -0.794105 -0.121401 -0.593776 
0.886013 0.223863 0.703616 -0.653723 -0.171213 0.725267 
-1.058230 -0.294917 0.950771 0.742035 0.149773 0.635734 
-1.054464 0.543185 0.937694 0.730995 0.046679 0.660058 
0.748399 0.503496 0.520126 0.698462 0.266283 -0.624375 
-0.324829 0.341023 -0.240221 -0.702599 0.030814 -0.703598 
0.502961 0.372935 0.363443 -0.634683 -0.016439 0.745819 
-2.452307 -0.337539 2.563389 -0.824185 -0.411981 -0.371291 
1.963381 0.036469 2.681439 0.946980 -0.226143 0.184897 
0.231006 -0.448251 0.158528 0.393343 -0.113267 0.909265 
-0.741626 0.228241 0.579244 0.695730 -0.145751 0.701912 
-2.585593 0.158765 2.361525 -0.877023 -0.250822 -0.390762 
1.117213 0.003890 0.883194 0.777792 -0.209432 -0.583628 
-2.464940 -0.192936 2.411511 -0.834453 -0.364926 -0.402567 
0.279888 0.506845 0.284713 0.109280 -0.194672 0.969080 
-0.965488 0.537149 0.752106 -0.590702 0.348606 -0.718566 
0.411490 -0.774006 0.200459 0.561789 -0.201881 -0.777213 
-0.586819 0.292326 0.200018 -0.853581 -0.022882 -0.510957 
1.235186 0.682113 1.020119 0.406701 0.512717 -0.672926 
-0.611532 0.554792 0.400387 0.641836 0.355736 0.661825 
-0.802151 -0.470739 0.605626 -0.817262 -0.057096 -0.566744 
-0.324861 0.658960 -0.171883 -0.557292 0.432623 -0.691594 
-0.014128 0.982486 -0.128632 -0.295592 0.316292 -0.892689 
1.606722 0.215296 1.485826 -0.821328 0.003487 0.469698 
-1.327888 -0.375294 1.272374 -0.689518 -0.301675 -0.651826 
-0.395081 -0.846810 0.198538 -0.556598 -0.205457 -0.782832 
-1.170039 0.402244 1.043978 0.631200 -0.174608 0.728021 
-2.678435 0.362048 2.515825 0.768224 0.417830 0.395632 
1.874984 -0.173327 2.564878 0.840062 -0.510264 -0.057979 
-1.073364 0.163801 0.888189 -0.769899 -0.249195 -0.577146 
0.754256 0.615799 0.540589 -0.717399 0.083414 0.682190 
-0.335927 -0.135022 -0.124671 -0.678232 -0.199142 -0.662043 
-1.023964 -0.323098 0.893686 -0.763785 -0.185643 -0.600115 
-1.604022 -0.427503 1.556818 -0.338528 -0.456043 -0.810137 
1.774666 -0.416793 2.328273 0.827505 -0.532687 -0.136912 
0.407842 -0.033347 -0.046471 0.817173 -0.105102 -0.560537 
1.974813 0.300249 2.977932 -0.948240 0.094745 -0.251383 
1.380550 0.045551 1.185278 -0.736489 0.029411 0.607354 
-0.522205 -0.139261 0.255925 0.450500 -0.086834 0.810747 
-1.464202 0.160090 1.336928 -0.636230 -0.311723 -0.692090 
1.221463 0.543838 1.041995 -0.631452 -0.270817 0.712813 
-2.135787 0.404523 1.757502 0.421634 0.232487 0.854003 
0.356828 0.209680 0.182940 -0.079606 -0.254799 0.907332 
-1.132390 0.053243 1.021260 0.667657 0.007799 0.699536 
0.168689 -0.384238 -0.234952 0.433586 -0.329726 -0.825345 
0.506462 0.595217 0.126960 0.840131 0.378174 -0.341971 
0.071718 0.010886 -0.364873 0.472221 -0.092928 -0.853256 
-1.335840 0.012016 1.220627 -0.693829 -0.307419 -0.646800 
0.326282 0.710151 0.297313 0.635336 0.310724 0.675956 
1.566464 -0.202493 1.370007 0.715817 -0.244251 -0.637943 
0.533426 -0.446026 0.226523 0.708302 -0.131277 -0.672914 
1.648501 0.561820 1.507796 -0.719162 -0.285022 0.577299 
0.561638 0.117900 0.188870 0.826476 -0.082103 -0.551550 
-1.332414 0.527468 1.150233 -0.711774 -0.310840 -0.622906 
-2.582253 -0.005127 2.540290 0.872310 0.314107 0.336217 
-0.300309 -0.741946 0.091043 -0.101677 -0.022871 0.938706 
-2.501749 0.129391 2.172029 0.758260 0.356810 0.517008 
-0.626120 -0.209281 0.388758 0.573545 -0.030168 0.734223 
1.567430 -0.069340 1.392724 -0.898572 0.073383 0.323554 
1.828371 -0.250981 2.567488 -0.905408 0.360753 -0.061124 
-0.785063 -0.393053 0.610354 0.801170 0.010301 0.593713 
0.727258 -0.868103 0.503550 -0.638411 -0.047713 0.731452 
0.377407 0.273301 -0.121000 0.812324 -0.047408 -0.567347 
-1.083056 -0.860292 1.484739 -0.674245 -0.529898 -0.504722 
0.108757 0.593306 -0.278258 0.427539 0.354628 -0.805132 
1.500928 -0.679177 1.923067 0.802576 -0.550487 -0.196114 
1.390705 -0.150747 1.160899 0.786140 -0.277522 -0.551593 
-2.142550 -0.387798 1.984096 -0.627746 -0.451908 -0.626420 
0.855158 0.362752 0.697706 -0.638355 -0.146273 0.746901 
1.896537 0.702087 1.925462 0.918316 0.172745 -0.272322 
0.353738 -0.593083 -0.011350 0.669507 -0.182088 -0.695758 
-0.030997 0.431629 -0.375080 -0.465717 0.222138 -0.840684 
0.842100 0.429519 0.646046 -0.703703 0.354119 0.605696 
-0.554714 0.157425 0.180686 -0.841116 -0.097942 -0.529179 
-0.643781 -0.025884 0.333642 -0.830646 -0.084879 -0.548433 
-1.816810 0.497140 1.545297 -0.567235 -0.302220 -0.734835 
-1.954315 0.584973 1.684594 0.476650 -0.002921 0.820505 
-1.906022 0.674547 1.659294 0.445130 0.000691 0.839090 
-0.360200 0.339253 -0.160969 -0.752546 0.008125 -0.633101 
-0.023075 0.262578 -0.433713 -0.502531 0.049104 -0.858705 
-2.297850 -0.410673 2.309773 -0.729757 -0.449737 -0.484066 
-1.969239 -0.171749 1.688827 0.516169 0.281573 0.782746 
-0.802118 -0.349432 0.666484 0.806822 0.056217 0.578344 
-1.231226 0.323190 1.118855 0.635941 -0.118374 0.721071 
0.210249 -0.009293 0.183674 0.302550 -0.179683 0.904628 
-0.691242 -0.100063 0.413587 -0.824764 -0.082715 -0.558072 
-0.622201 0.054732 0.434565 0.676952 -0.123231 0.698167 
-1.746928 0.798576 1.493259 -0.634802 0.083494 -0.745386 
-0.196813 -0.656641 0.121605 -0.209593 -0.131044 0.933771 
0.791121 -0.885569 0.557414 -0.706167 -0.071288 0.697161 
-1.490496 0.743103 1.275305 -0.723263 -0.005136 -0.668878 
-2.333922 0.131981 1.943000 0.754484 0.125054 0.593623 
1.962233 0.410313 2.214325 -0.901177 0.109367 0.221095 
-1.342412 0.415656 1.176317 -0.705164 -0.311219 -0.630806 
-0.821799 -0.008037 0.651383 0.744255 -0.063381 0.648480 
1.567961 -0.269328 1.433764 0.694799 -0.327589 -0.615556 
0.501740 -0.051422 0.101608 0.809599 -0.090323 -0.573730 
-0.209465 0.287788 -0.321174 -0.637302 0.026185 -0.754836 
-0.668254 0.019856 0.484903 0.703151 -0.099987 0.679634 
-0.114471 -0.944049 0.020692 -0.104055 -0.260624 -0.950055 
-0.833862 -0.168953 0.626660 -0.805598 -0.108527 -0.577570 
-0.367001 -0.659165 0.048227 -0.652147 -0.179416 -0.709087 
0.800249 0.564732 0.578025 0.680059 0.178868 -0.691477 
-0.343365 -0.605715 -0.022752 -0.681353 -0.173113 -0.686816 
-0.399516 0.706736 0.097197 -0.600917 0.783871 -0.077295 
0.502699 -0.602265 0.263607 0.632621 -0.160719 -0.727834 
1.760315 0.020673 1.662197 0.928252 -0.070010 -0.309163 
0.149321 0.878546 0.354357 0.314066 -0.026513 0.936536 
-2.640131 0.084478 2.646786 0.932629 0.205554 0.255610 
1.703776 -0.188146 1.645286 0.931000 -0.256717 -0.169770 
-0.198902 0.601139 0.347956 -0.267742 -0.210059 0.923375 
-2.399429 0.177933 1.985906 -0.862592 0.000175 -0.468475 
-0.500261 -0.866692 0.298148 -0.624185 -0.139780 -0.728750 
1.899111 0.226010 3.160975 0.924880 -0.186608 0.286491 
-1.830140 -0.094478 1.558410 -0.748837 -0.157279 -0.626090 
1.329043 -0.193693 1.128879 -0.759573 0.148928 0.591017 
0.518560 -0.072526 0.259284 -0.460728 -0.117614 0.819930 
2.013123 0.151922 2.256159 -0.943981 0.143003 0.127146 
2.038925 0.087662 2.421118 0.979778 -0.124017 0.151107 
0.223890 -1.424356 0.197707 0.132427 -0.288880 -0.946898 
1.873585 -0.169370 2.074747 -0.902723 0.299063 0.198138 
1.390148 -0.347727 1.167400 0.791584 -0.263776 -0.547553 
-0.291394 -0.131817 -0.214232 -0.597403 -0.180293 -0.758097 
-0.973738 -0.174875 0.799754 -0.772917 -0.164985 -0.598618 
-2.527733 -0.169316 2.571007 -0.887995 -0.320357 -0.309309 
0.419306 -0.934042 0.229257 0.536348 -0.187021 -0.799762 
-0.512480 0.073363 0.118660 -0.841189 -0.084672 -0.531733 
-1.176844 0.351073 0.991174 -0.751649 -0.290677 -0.585084 
-0.475305 0.510165 -0.011465 -0.829003 0.189085 -0.488671 
-1.572733 0.114050 1.385616 -0.460309 -0.253483 -0.807632 
1.142848 0.077857 0.906484 0.777861 -0.230181 -0.578281 
1.591277 0.350153 1.428627 -0.812734 -0.114391 0.426803 
0.524385 0.437282 0.389834 -0.666529 0.274056 0.684349 
-0.164606 1.260183 0.249713 0.223411 0.942807 0.150516 
-1.226445 0.106533 1.128768 0.649917 0.004515 0.710132 
-0.158870 1.071864 0.205866 -0.525880 0.765721 0.194673 
-1.546898 -0.470789 1.548720 -0.378019 -0.463155 -0.776442 
1.230201 0.406283 1.047135 -0.650870 -0.193356 0.694569 
1.190948 -0.440095 1.001207 -0.792866 0.176319 0.571954 
-0.090335 0.511627 -0.323570 -0.471392 0.272499 -0.823369 
0.348830 0.796095 0.130244 0.880829 0.409919 0.025247 
-1.789674 -0.298019 1.632178 0.241991 0.332024 0.870525 
-1.341645 0.761213 1.176849 -0.363260 0.576038 -0.636444 
1.370822 0.101279 1.134568 0.775864 -0.275841 -0.566223 
-0.443234 -0.345065 0.028852 -0.788537 -0.128344 -0.600287 
1.632950 0.502315 1.395848 0.957037 -0.115944 -0.257678 
-2.627974 0.225697 2.404945 -0.901404 -0.220981 -0.354528 
1.929161 0.698475 2.003214 0.889966 0.313312 -0.227554 
1.148128 -0.875344 1.506991 0.740486 -0.607197 -0.273435 
-1.661134 0.153915 1.490830 0.453713 0.062629 0.855729 
-1.938032 0.626732 1.617765 -0.739314 -0.014599 -0.665781 
1.018999 0.168732 0.834217 -0.659356 -0.118582 0.707466 
1.853056 -0.118380 2.842293 -0.889808 0.417936 -0.113842 
0.662818 -0.806393 0.445143 0.663528 -0.057128 -0.720178 
-0.269387 -0.269803 -0.207596 -0.548273 -0.236616 -0.785905 
0.927196 0.353626 0.747309 -0.623905 -0.218615 0.744384 
-0.235705 1.249929 0.416487 0.650469 0.518348 0.539095 
2.048295 0.151148 2.497120 0.972617 -0.178365 0.105768 
1.933358 0.003817 2.754132 0.935423 -0.261848 0.192366 
1.650100 -0.186204 1.524389 0.770088 -0.288362 -0.503487 
-0.127220 1.129385 0.167595 -0.828030 0.030989 0.532948 
0.374623 0.643449 0.230510 0.418553 0.190697 0.773613 
-1.412537 0.708036 1.181718 -0.711055 0.100156 -0.693066 
1.245697 -0.289886 1.020211 0.785244 -0.213612 -0.570212 
1.347687 -0.715653 1.726124 -0.732544 0.542651 0.381569 
-1.197807 -0.081531 1.105138 0.675184 0.097198 0.690208 
0.061643 -0.068203 -0.350410 0.442719 -0.154493 -0.851859 
-0.318489 0.301893 0.207224 -0.106200 -0.222617 0.966514 
-1.920207 -0.710418 1.994989 0.583967 0.470493 0.642819 
1.617674 -0.054369 1.454461 -0.953505 0.051327 0.214999 
-0.001918 -0.009531 -0.387458 -0.417244 -0.141029 -0.861898 
-0.539167 0.275595 0.132541 -0.854644 -0.044558 -0.511621 
0.392370 0.470872 0.285290 -0.654731 0.135229 0.726861 
-1.472290 0.235987 1.373170 0.661032 -0.042960 0.691918 
0.061732 0.615502 0.386378 0.057982 0.235913 0.968849 
0.540987 0.628170 0.314912 -0.603261 0.383296 0.687126 
0.310726 -0.055615 -0.190778 0.638594 -0.159683 -0.716875 
-0.239864 0.248703 0.236107 -0.188677 -0.265911 0.943713 
-0.707984 0.229235 0.413933 -0.823232 -0.133269 -0.548334 
-0.984122 -0.124448 0.848423 0.730476 0.045305 0.652326 
-0.821462 -0.603331 0.688477 0.816789 0.039993 0.558659 
-2.439156 -0.172555 2.340410 -0.724193 -0.456944 -0.479677 
-1.556240 -0.395737 1.512417 0.769198 0.354302 0.516612 
-2.353440 0.032886 1.979935 -0.590092 -0.458907 -0.652652 
0.341866 0.115047 -0.163219 0.726229 -0.099967 -0.644461 
0.703070 0.002156 0.412697 0.798167 -0.088842 -0.590602 
1.765530 -0.369330 2.005689 -0.841283 0.408294 0.300920 
-0.272749 -0.637108 -0.081369 -0.388822 -0.307238 -0.828021 
0.051929 0.815676 0.363993 0.118744 -0.062824 0.986913 
-1.349940 -0.255369 1.294206 0.672514 0.233593 0.685678 
1.959880 -0.006006 2.590894 0.949975 -0.218021 0.162314 
1.961924 0.068188 2.748444 0.939920 -0.266471 0.161995 
-1.889808 -0.397890 1.760066 0.384506 0.373433 0.783071 
0.607041 -0.373134 0.316474 0.730856 -0.108459 -0.658635 
1.952869 0.093742 2.064237 -0.902530 0.198974 0.333263 
2.023937 0.257422 2.167257 -0.892743 0.151900 0.359198 
1.963914 -0.024442 2.176208 0.843822 -0.444971 -0.263870 
-0.401041 -0.771134 0.169050 -0.592933 -0.193723 -0.754491 
0.272273 -0.811696 -0.000670 0.439950 -0.287363 -0.837242 
0.370225 0.166989 -0.113867 0.784201 -0.094768 -0.582094 
-0.585073 -0.771854 0.378807 -0.679475 -0.106351 -0.684334 
-0.268743 1.002624 0.087406 -0.900015 0.358979 -0.169923 
-1.744719 0.406160 1.499029 -0.619861 -0.221804 -0.714558 
1.225960 -0.491982 1.038679 -0.799688 0.197264 0.559849 
1.550038 0.411676 1.311233 0.743656 -0.274042 -0.605447 
0.091954 1.272213 0.168717 0.207539 0.900296 0.360448 
-0.417692 0.392164 -0.075082 -0.807041 0.061750 -0.545551 
1.064172 -0.056983 0.832193 0.776663 -0.180344 -0.592835 
-1.587060 0.496935 1.380864 -0.562019 -0.250923 -0.731023 
-1.594022 0.168271 1.429479 0.737207 -0.044998 0.636355 
0.639681 -0.212368 0.394655 -0.554412 -0.043037 0.764035 
0.949521 0.499319 0.770433 -0.739815 0.299231 0.590128 
-2.016372 0.347708 1.679216 0.518890 -0.043651 0.815350 
0.064451 1.329440 0.018364 0.634868 0.657479 -0.079603 
-0.937126 -0.439585 0.860436 0.793951 0.137239 0.570576 
-1.326560 -0.582920 1.483672 0.710633 0.418921 0.543334 
0.650888 0.398224 0.472068 -0.656970 0.360016 0.655262 
-0.283771 0.910122 0.042884 -0.851811 0.309570 -0.332767 
-2.344124 -0.420928 2.423589 -0.775322 -0.430582 -0.431721 
1.725639 -0.502064 2.332611 -0.854752 0.472230 0.096692 
0.295425 -0.448437 0.124721 0.580989 -0.116793 0.791211 
-0.721466 0.331582 0.551309 0.679164 0.316883 0.638479 
-1.933371 -0.260255 1.683878 -0.653946 -0.340513 -0.665775 
1.689892 -0.341044 1.779747 -0.667142 0.401879 0.547301 
1.814871 -0.306135 2.035901 0.860911 -0.411320 -0.264323 
1.114154 -0.884999 1.437798 -0.764929 0.591701 0.248446 
-0.392679 -0.289429 0.039667 0.141723 -0.079357 0.963041 
-0.242058 1.037596 0.031399 -0.842027 0.352540 -0.352308 
1.478948 0.571626 1.231838 0.751763 -0.281872 -0.595361 
-1.009457 0.473183 0.748601 -0.715055 0.071381 -0.674212 
-0.007448 -0.503295 -0.199324 -0.132562 -0.718418 -0.678542 
-0.338979 -0.031588 -0.136324 -0.695470 -0.166452 -0.653375 
0.058101 0.699224 0.365623 0.072112 0.115294 0.985231 
-0.732091 -0.388119 0.548433 0.739911 0.012337 0.637318 
-0.545465 -0.538131 0.332809 0.465216 0.032367 0.798801 
1.542457 0.464606 1.364366 -0.765085 -0.195706 0.524650 
-0.382201 -0.418714 -0.052198 -0.768070 -0.142398 -0.618733 
-2.383439 -0.096869 2.128865 -0.635312 -0.495453 -0.579251 
0.492521 0.580664 0.030198 0.823394 0.326766 -0.409937 
1.792455 -0.365855 2.092479 0.849259 -0.450326 -0.237389 
-0.261843 -0.477834 0.135394 -0.482653 -0.120816 0.856075 
-1.151358 -0.501220 1.114499 -0.754079 -0.266443 -0.579471 
1.730903 -0.392227 2.715576 -0.868762 0.467763 -0.057686 
0.160858 1.068463 0.212382 0.512507 0.820089 0.136336 
-0.985616 0.393046 0.759145 -0.798763 -0.247610 -0.545456 
-0.683785 0.417108 0.409878 -0.737540 0.407969 -0.505505 
-1.848835 -0.774844 1.995978 0.591284 0.484283 0.639039 
-1.205537 0.636229 1.103296 0.742056 0.180305 0.607125 
1.944331 0.027363 2.093484 -0.914874 0.214788 0.242956 
1.698860 -0.526975 2.426663 0.840124 -0.515547 -0.062922 
1.791870 -0.032997 1.763644 -0.840949 0.172108 0.484012 
2.078508 0.533121 2.248022 0.962877 0.006552 -0.264957 
0.292295 -0.614490 0.092449 0.296767 -0.075281 0.901486 
-0.145006 -1.220956 0.115097 0.622880 -0.142808 0.250196 
1.733371 -0.459548 2.440630 -0.861345 0.464142 0.049184 
-2.388856 -0.136613 2.187525 -0.661346 -0.483812 -0.550884 
-0.432801 0.379216 0.280864 0.614237 -0.056650 0.752316 
-0.548509 -0.461731 0.301328 0.433694 0.015915 0.811069 
-0.844414 0.638572 0.649857 0.742234 0.085706 0.658768 
-0.977171 -0.002851 0.786504 -0.782287 -0.188463 -0.580826 
1.670358 0.196524 1.449777 0.914796 -0.137084 -0.346629 
0.201764 -1.100597 0.152421 -0.162352 0.212278 0.955145 
-0.043065 -0.338017 -0.294656 -0.359676 -0.355432 -0.842924 
-0.415065 0.331671 0.230179 0.525615 -0.205823 0.796661 
0.636344 -0.121682 0.315205 0.792395 -0.073655 -0.600830 
0.149659 0.770457 -0.167252 0.485531 0.425180 -0.747039 
1.860823 0.619628 1.835781 0.961824 -0.037326 -0.267658 
-1.087736 -0.603159 1.090194 0.787587 0.234775 0.547891 
1.738889 -0.359643 2.784690 0.866159 -0.474184 0.095669 
-1.650924 -0.282388 1.540331 0.806744 0.261782 0.501360 
0.348302 -0.382127 0.089841 0.493020 -0.091451 0.786279 
1.524578 0.470185 1.280369 0.754623 -0.284923 -0.589948 
0.181119 1.145360 0.005553 0.753874 0.418668 -0.437086 
-0.041787 0.899007 -0.158041 -0.405746 0.397109 -0.808674 
-1.138241 0.526637 0.923130 -0.769268 -0.283983 -0.566053 
-2.661994 0.398640 2.405805 0.918062 0.124137 0.339786 
-1.875126 0.647108 1.579598 -0.749339 -0.009488 -0.654083 
-1.635134 0.404080 1.399034 -0.741883 -0.163736 -0.630232 
0.755630 -0.301476 0.563525 -0.715314 -0.007300 0.681875 
-0.233651 -0.700913 -0.046600 0.018461 -0.398098 -0.898949 
0.027382 -0.329846 -0.302926 0.344433 -0.358608 -0.847369 
-1.605457 -0.522830 1.667634 0.498543 0.418117 0.722817 
1.871279 0.487029 1.831295 0.939500 -0.088882 -0.323308 
-1.856285 0.335893 1.565966 -0.561712 -0.179393 -0.777136 
-2.412150 -0.242357 2.363128 -0.738303 -0.449644 -0.466501 
-0.498271 -0.672022 0.311124 0.430582 0.050066 0.824744 
1.453525 0.701566 1.184380 0.694568 0.012155 -0.680763 
1.713237 0.339778 1.583782 0.880035 -0.184791 -0.371558 
1.852884 0.407511 1.850905 -0.820011 -0.050922 0.486496 
0.835619 -0.690694 0.616014 0.753215 -0.028175 -0.648097 
-1.244861 0.256198 1.139033 0.640177 -0.077639 0.716978 
1.259454 -0.838417 1.730702 -0.766001 0.571673 0.243051 
2.042266 0.261025 2.243484 0.975086 0.053447 -0.071671 
-1.034454 0.533714 0.796861 -0.619501 0.258453 -0.728205 
0.192512 0.080937 0.195251 0.207411 -0.199897 0.949583 
0.983865 -0.691277 0.811152 0.804389 -0.177676 -0.561198 
1.350134 0.371887 1.163608 -0.687783 -0.155849 0.653630 
-1.672417 -0.807517 1.904444 0.477971 0.484845 0.699644 
-0.295018 0.826812 0.251837 -0.731504 0.320758 0.522214 
1.579990 1.079738 1.404215 -0.775565 0.183675 0.503390 
1.883316 -0.193203 2.158636 0.844520 -0.459834 -0.239325 
-2.218494 0.076238 1.836126 0.656064 0.173904 0.706411 
-2.064269 0.536563 1.777991 0.548522 0.037591 0.752143 
0.797626 0.404790 0.559845 0.663931 0.354419 -0.640717 
-1.197084 -0.573524 1.267098 0.728826 0.313073 0.583723 
0.728183 -0.715705 0.513909 -0.651830 -0.034530 0.721828 
0.441333 0.666367 0.182789 0.134882 0.541264 0.708474 
-0.926655 -0.848990 0.963979 0.857687 0.207314 0.460042 
0.189905 -0.688647 0.122054 0.144067 -0.111873 0.938555 
0.317166 -0.308921 0.130506 0.621412 -0.125378 0.746173 
-0.548546 0.449977 0.112802 -0.873149 0.135891 -0.444142 
0.645032 -0.981481 0.393677 0.608947 0.126557 -0.760314 
0.335611 0.788661 0.031191 0.813538 0.462362 -0.298519 
0.790221 -0.009392 0.546845 0.784699 -0.108478 -0.606697 
1.123935 -0.602271 0.937553 0.801889 -0.211252 -0.553263 
-0.077935 -0.163223 -0.321436 -0.433991 -0.213535 -0.843737 
-2.221204 -0.123786 1.903932 -0.614131 -0.408281 -0.663996 
0.480982 0.191802 0.060727 0.843146 -0.080305 -0.528226 
-2.260262 0.019727 1.881285 -0.569626 -0.396240 -0.704100 
0.159649 1.145780 0.270075 0.880303 0.148231 -0.217314 
0.077096 -0.162062 0.204094 0.156615 -0.058212 0.978971 
0.513834 -0.001366 0.270477 -0.493918 -0.142924 0.806703 
-0.212709 -1.186007 0.122337 -0.314109 -0.215689 -0.840676 
0.154384 -0.117948 0.200404 0.222900 -0.095497 0.962114 
0.679603 0.218992 0.363074 0.816013 -0.138918 -0.557774 
1.335920 -0.519401 1.274045 0.772963 -0.404156 -0.439224 
-0.241708 0.921666 0.284113 -0.720960 0.138120 0.641914 
1.468248 -0.766476 2.020923 -0.777101 0.564078 0.249402 
-2.112116 -0.032877 1.741413 -0.564006 -0.293902 -0.761287 
-1.733640 -0.302076 1.580529 -0.726917 -0.336261 -0.577887 
-2.079362 0.527124 1.704543 -0.742174 0.027140 -0.659075 
0.740472 -0.557061 0.516802 0.718525 -0.044169 -0.678613 
1.820109 -0.230567 1.924798 -0.861585 0.345007 0.343127 
-1.353753 0.688000 1.133609 -0.591493 0.259602 -0.680140 
-0.995355 -0.428396 0.901831 -0.785888 -0.197408 -0.565396 
-2.605820 0.148178 2.430218 -0.892333 -0.249410 -0.355201 
1.103158 -0.711552 0.930493 0.808510 -0.218974 -0.543892 
0.465793 -0.049509 0.190803 -0.398656 -0.137182 0.853171 
-0.932483 0.160765 0.714767 -0.802282 -0.191177 -0.556905 
-1.375671 0.202798 1.290930 0.642871 -0.023453 0.708076 
0.562454 -0.174949 0.295367 -0.465661 -0.072946 0.811808 
0.648817 0.631538 0.428439 -0.662765 0.220977 0.686345 
1.484694 -0.251981 1.263161 0.770487 -0.266839 -0.571652 
1.272579 -0.797346 1.662267 0.704734 -0.593631 -0.360361 
0.146502 -1.074051 0.075297 0.327808 -0.236035 -0.866056 
1.817732 -0.184817 2.867384 0.897259 -0.386684 0.171660 
2.090099 0.337872 2.653275 0.972153 -0.194241 0.093299 
0.560854 0.510165 0.369621 -0.627656 0.371314 0.676065 
0.271247 -0.542855 0.115919 0.508554 -0.126244 0.848408 
-0.274998 -1.010056 0.083524 -0.389010 -0.264429 -0.862725 
0.253296 0.849069 -0.059420 0.670175 0.407715 -0.579923 
-2.019606 -0.588008 1.972453 -0.644554 -0.452729 -0.610774 
-1.543343 0.829210 1.439083 0.683804 0.174402 0.684078 
0.972745 -0.501292 0.795319 -0.784826 0.105811 0.597982 
-1.278728 -0.091333 1.201966 0.662358 0.127002 0.697478 
1.654920 0.300167 1.428852 0.899189 -0.134551 -0.361834 
-0.334934 0.559104 -0.195010 -0.613229 0.258544 -0.724921 
-0.585616 -0.182782 0.248640 -0.811963 -0.100237 -0.572544 
0.385966 0.727961 0.118801 0.886256 0.431191 0.022753 
0.081889 -0.291702 0.201428 0.177175 0.009369 0.980353 
0.472967 -0.245974 0.151636 -0.298676 -0.068608 0.893988 
1.912422 0.383999 1.925404 0.781096 -0.384214 -0.477696 
0.401299 0.225395 -0.063763 0.851562 -0.081473 -0.514172 
-0.803055 -0.876123 0.596897 0.813334 -0.060379 0.573569 
0.544106 -0.940545 0.338928 0.596550 -0.110638 -0.764556 
-1.617822 0.823080 1.411749 -0.676931 -0.014004 -0.729194 
0.640691 0.241608 0.294580 0.828340 -0.103559 -0.545951 
-2.468053 0.228799 2.057244 -0.851593 -0.093291 -0.481436 
-1.990572 -0.257031 1.725611 -0.640461 -0.332512 -0.684170 
1.651550 -0.352443 1.704657 -0.595904 0.409609 0.636622 
0.299766 -0.388691 -0.159541 0.572551 -0.266637 -0.754784 
1.429580 0.100183 1.193830 0.773920 -0.279552 -0.566900 
0.090174 -0.763775 -0.048370 0.084232 -0.374426 -0.905550 
1.268339 -0.864840 1.804551 -0.695143 0.587641 0.366442 
-0.983339 -0.565823 0.956929 0.804884 0.185309 0.540652 
-2.190360 -0.084895 1.836958 -0.611239 -0.367398 -0.690459 
-1.400984 -0.614263 1.563201 0.742499 0.448925 0.483062 
1.728084 -0.427188 1.979477 0.857122 -0.447098 -0.215054 
0.259086 -0.090195 -0.240948 0.578552 -0.157609 -0.773531 
-0.055269 0.833158 0.366527 -0.147876 -0.081616 0.980546 
-0.299675 0.568565 0.293561 -0.295560 -0.172210 0.892163 
1.476312 0.490431 1.231206 0.755380 -0.281843 -0.590533 
0.435390 0.678501 0.103689 0.601824 0.766357 -0.109146 
-0.011292 0.676186 0.372188 -0.038379 0.140949 0.983430 
-1.230751 -0.145111 1.147225 0.678265 0.140086 0.686118 
0.083117 -0.257142 -0.298030 0.405865 -0.279685 -0.842050 
-1.499060 -0.842259 1.817732 0.556577 0.486936 0.647713 
-2.485753 -0.122664 2.412528 0.793362 0.402012 0.427481 
-1.207143 0.517647 1.005122 -0.748228 -0.295588 -0.586579 
0.984483 -0.266868 0.789777 -0.764540 0.073526 0.626277 
-0.159797 1.187129 0.195260 -0.885781 -0.102707 0.256278 
1.732615 -0.218247 1.710341 0.910808 -0.307316 -0.205976 
-1.864442 -0.558426 1.845536 0.379646 0.427680 0.751677 
0.924893 0.508379 0.690366 0.601963 0.340339 -0.707633 
0.456517 0.329953 0.000702 0.862923 0.005656 -0.485053 
1.521296 -0.195308 1.304057 0.748480 -0.250835 -0.602429 
-0.512165 -1.005831 0.279427 0.475209 -0.100648 0.804806 
-0.305826 -0.206083 -0.165813 -0.607622 -0.225215 -0.728251 
1.417039 0.629671 1.235444 -0.674065 -0.288186 0.662093 
1.239456 -0.614169 1.210964 -0.793230 0.376981 0.417025 
1.739035 0.672923 1.740705 -0.770541 -0.011961 0.531015 
-0.449554 -1.095272 0.165761 -0.474918 0.260826 -0.838331 
-0.876224 0.227018 0.645687 -0.805035 -0.190635 -0.557336 
1.335578 0.007826 1.140350 -0.728918 0.043358 0.616984 
0.768612 -0.427380 0.543302 0.741177 -0.044838 -0.660500 
0.586185 0.015310 0.376468 -0.606076 -0.132540 0.749815 
0.185630 0.581046 -0.254797 0.487922 0.319980 -0.784369 
1.307636 -0.258357 1.080976 0.786986 -0.241637 -0.560257 
-0.086777 0.529447 0.363974 -0.159848 -0.264040 0.945271 
-1.488672 -0.676962 1.670548 -0.420852 -0.502501 -0.731197 
-1.945321 0.027986 1.622623 -0.593726 -0.091769 -0.782310 
-0.662385 0.137866 0.352283 -0.826737 -0.121478 -0.546226 
1.124712 0.238503 0.939752 -0.645719 -0.118605 0.706254 
0.299762 0.735815 -0.114372 0.603094 0.536941 -0.567522 
-1.830370 -0.444513 1.745959 0.297793 0.390388 0.809977 
-1.819741 -0.513977 1.769666 -0.685750 -0.447447 -0.571327 
1.671217 0.826853 1.533117 0.810641 0.460794 -0.219844 
-2.175082 -0.419785 2.050530 -0.628375 -0.491701 -0.601989 
0.364780 -0.279800 0.058432 0.124004 -0.096103 0.931961 
-2.228776 0.143591 1.807759 -0.485567 -0.350459 -0.792221 
0.734049 -0.241792 0.520067 -0.672002 -0.012046 0.701836 
-1.457155 0.527796 1.360207 0.621485 -0.194338 0.720992 
-0.198736 0.348223 0.292172 -0.209151 -0.275875 0.935684 
-0.466111 0.093548 0.043407 -0.842436 -0.087371 -0.528924 
-0.465001 -0.012856 0.046983 -0.829476 -0.096882 -0.546191 
-0.593466 0.327291 0.457282 0.660526 -0.049660 0.732175 
-0.216459 -0.097846 -0.265227 -0.553154 -0.150721 -0.794906 
2.033059 0.651639 2.191126 0.928748 0.236198 -0.247113 
1.944154 0.060942 2.818766 0.931263 -0.296118 0.166489 
-1.237428 -0.511293 1.269566 0.720037 0.297801 0.606856 
-0.335841 -0.316052 -0.123226 -0.690942 -0.194540 -0.666682 
2.020924 0.388111 2.337630 -0.931069 0.149973 0.154547 
0.267516 -0.366295 0.148097 0.523639 -0.074674 0.810344 
-0.862298 -0.758417 0.775283 -0.835849 -0.122279 -0.511763 
1.054864 0.051188 0.866320 -0.689647 -0.051955 0.678941 
-1.253624 0.395417 1.075177 -0.730565 -0.300310 -0.605647 
1.042315 -0.453397 0.858922 -0.784845 0.123861 0.593330 
0.470597 0.039492 0.219880 -0.455393 -0.166457 0.828782 
1.160662 -0.684626 1.007350 0.804879 -0.257813 -0.519915 
-0.261233 -0.044068 -0.245624 -0.597654 -0.135830 -0.764452 
1.263063 0.243862 1.022380 0.773324 -0.268798 -0.573281 
-1.786350 0.079117 1.518357 -0.710896 -0.099566 -0.667427 
-0.046502 -0.854916 -0.007401 -0.221954 -0.290240 -0.911255 
-0.284985 -1.092984 0.130058 -0.041146 0.120906 0.889593 
-2.299959 -0.289603 2.172001 -0.666559 -0.478501 -0.551806 
0.195841 1.088670 0.306134 0.693190 0.586773 -0.382059 
0.577160 -0.445552 0.305368 0.699142 -0.124501 -0.681098 
0.188059 0.250868 -0.333576 0.619213 0.008655 -0.769200 
-1.383167 0.121395 1.305177 0.648069 0.024401 0.703529 
1.520495 0.003042 1.294313 0.753382 -0.263879 -0.594251 
-0.174924 -1.377450 0.189092 0.761436 -0.495591 0.234085 
1.185266 -0.216111 0.957733 0.782428 -0.201972 -0.577819 
2.049721 0.411785 2.832999 -0.831626 0.509061 0.028521 
-1.735711 0.721281 1.542080 0.363644 -0.053193 0.897385 
0.286496 -0.604653 -0.087156 0.523707 -0.275241 -0.795113 
0.651049 0.247088 0.464941 -0.637701 -0.187083 0.740576 
-0.259029 -0.846423 0.115746 -0.112410 0.037684 0.937938 
0.813349 0.631761 0.598507 0.694269 0.105646 -0.706884 
1.853751 0.072220 3.152035 -0.916782 0.295115 -0.255295 
-1.286330 0.675735 1.195987 0.745449 0.121855 0.651727 
-1.225300 -0.695265 1.493715 0.690899 0.464797 0.535675 
-0.249048 0.815874 0.309641 -0.547588 0.246118 0.783994 
-0.063348 -0.626067 0.157406 -0.321941 -0.148912 0.930494 
1.004886 0.483636 0.840928 -0.638285 -0.134237 0.730331 
1.877807 -0.114458 1.908085 0.876394 -0.310003 -0.355417 
0.852489 0.497785 0.620856 0.642549 0.294664 -0.684690 
0.594497 0.512483 0.280785 0.789652 0.396777 -0.417929 
1.785721 0.370286 1.708785 0.838174 -0.241184 -0.439969 
-2.493633 -0.176773 2.492552 0.819258 0.389906 0.393120 
-0.215907 1.105702 0.020633 -0.820006 0.383141 -0.378053 
-0.227031 0.908435 -0.068034 -0.681281 0.320868 -0.655787 
-0.750460 -0.050763 0.504021 -0.816446 -0.107127 -0.565493 
-2.044096 0.011929 1.703404 0.567852 0.162281 0.796530 
-1.424183 -0.240225 1.331133 -0.616853 -0.294938 -0.708414 
-1.405275 -0.847301 1.748373 0.600706 0.498008 0.599789 
1.381968 -0.493942 1.350777 -0.828133 0.383052 0.304508 
1.044734 -0.852490 1.043113 0.795572 -0.371333 -0.409612 
0.615442 0.325542 0.474883 -0.655225 -0.040591 0.740065 
-1.860939 0.584276 1.612987 0.508487 -0.042117 0.839696 
1.477084 -0.172370 1.250606 0.777086 -0.275979 -0.561817 
-1.801352 -0.166410 1.597459 0.338426 0.250222 0.875367 
-1.022577 -0.464827 0.967697 0.778892 0.176458 0.578107 
-1.434712 0.585422 1.262300 -0.683646 -0.323667 -0.650354 
-1.144110 -0.818834 1.525488 -0.628420 -0.541245 -0.539197 
0.547016 0.080036 0.337580 -0.586716 -0.163306 0.763318 
-2.401988 0.525599 1.914218 -0.701999 0.000226 -0.711357 
1.133497 0.490702 0.885606 0.766992 -0.260203 -0.586219 
-0.337136 -0.801719 0.070207 -0.586074 -0.202849 -0.760967 
-0.920979 -0.314369 0.768927 -0.790178 -0.148170 -0.580166 
1.537260 -0.333152 1.459346 -0.888918 0.305703 0.196133 
-1.130034 -0.695266 1.288092 -0.728217 -0.383175 -0.537022 
0.206882 0.150597 0.209737 0.184495 -0.225758 0.955197 
0.158536 -0.748694 -0.037578 0.115883 -0.396896 -0.903359 
-1.538870 0.373027 1.404974 0.680299 -0.133822 0.677651 
0.014103 -1.251837 0.055082 0.267751 -0.057730 -0.960654 
-1.607483 -0.340963 1.508547 -0.355721 -0.391201 -0.825173 
-1.908402 0.482096 1.618440 0.477167 -0.155317 0.812841 
-2.688081 0.291317 2.649699 0.822920 0.362973 0.332120 
-2.334555 -0.209966 2.154403 -0.653737 -0.485469 -0.563043 
-0.520642 0.336965 0.093209 -0.862481 0.016909 -0.485161 
1.214400 -0.739650 1.370440 0.735374 -0.573804 -0.319255 
-2.138888 0.332483 1.740316 -0.469282 -0.332460 -0.802702 
0.481624 0.178864 0.270344 -0.549219 -0.211523 0.788025 
0.056100 1.298529 -0.045276 0.559292 0.283822 -0.707424 
1.159868 0.114815 0.970999 -0.677505 -0.049299 0.676607 
-2.133765 -0.249351 1.875083 -0.622336 -0.387302 -0.669463 
-0.002297 -0.566405 -0.154266 -0.664532 -0.368702 -0.591738 
-0.673993 0.056384 0.376012 -0.825863 -0.108565 -0.550511 
-0.836063 -0.665726 0.722832 0.822798 0.056848 0.544760 
-1.892233 -0.014740 1.589876 -0.663108 -0.109557 -0.715255 
-0.353150 0.617683 0.257027 -0.405128 0.026000 0.809349 
-0.524253 -0.003276 0.141365 -0.832182 -0.090306 -0.544045 
-0.537457 -0.310953 0.236978 0.377576 -0.025273 0.836996 
1.907058 0.052578 2.973964 0.917182 -0.321457 0.214539 
1.829914 -0.293760 2.115857 0.847991 -0.452036 -0.239601 
1.787551 0.765181 1.744301 0.846080 0.389882 -0.218385 
-2.209099 0.587176 1.845975 0.571720 0.084335 0.768328 
1.919496 -0.088707 2.581934 0.838620 -0.511127 -0.065349 
-0.997643 0.604218 0.795451 -0.625214 0.270903 -0.718436 
1.128350 -0.511285 0.945997 -0.795367 0.164464 0.572530 
-1.130782 -0.120547 1.025529 0.696752 0.093621 0.674711 
0.740199 0.223808 0.452914 0.809305 -0.145018 -0.566445 
1.646500 0.700154 1.510839 -0.695787 -0.350413 0.576328 
-0.701596 0.629026 0.493858 -0.741318 0.184213 -0.587713 
-0.403646 -0.009945 0.125008 0.305362 -0.168115 0.889263 
0.286167 0.925723 0.056051 0.872851 0.313018 -0.292993 
1.313547 0.664207 1.061809 0.468619 0.396828 -0.680932 
-0.326558 -0.994179 0.133861 -0.510784 -0.220435 -0.819728 
1.364380 0.168643 1.172510 -0.716839 -0.041192 0.626259 
0.910682 -0.093654 0.680347 0.771904 -0.117124 -0.616668 
-2.608120 0.250043 2.335692 0.900341 0.128297 0.370655 
-0.154460 0.029661 0.205291 -0.209651 -0.164619 0.958678 
1.547480 0.071712 1.323271 0.737753 -0.253790 -0.615931 
1.112402 -0.841724 1.331907 0.758977 -0.595654 -0.248163 
0.944014 -0.565188 0.756770 0.795250 -0.148106 -0.580078 
-0.088642 0.814869 -0.179493 -0.452963 0.397786 -0.786858 
0.491998 -0.146427 0.089128 0.796524 -0.101731 -0.590247 
0.232939 0.434828 0.295370 0.159986 -0.237860 0.951374 
0.051758 -0.802950 0.135721 0.268005 -0.126675 0.935759 
1.962362 0.685601 2.064297 0.901083 0.296462 -0.234236 
1.503288 0.343263 1.262072 0.760859 -0.283794 -0.582185 
0.229197 -0.950176 0.051965 0.091152 -0.360368 -0.925219 
1.902009 0.572652 2.039933 -0.851698 0.077028 0.388579 
-1.352929 -0.841655 1.700938 -0.515554 -0.531730 -0.646983 
0.705290 0.560931 0.492232 -0.680427 0.216415 0.673040 
0.504465 -0.514538 0.240507 -0.339223 0.013145 0.873195 
-0.775765 -0.699457 0.568372 0.789011 -0.045060 0.598467 
-2.492242 0.294071 2.070282 -0.820429 -0.125179 -0.527198 
0.658777 0.106553 0.466232 -0.657362 -0.149202 0.724295 
1.241128 -0.060725 1.008660 0.782641 -0.246317 -0.566284 
-1.692840 0.602050 1.490809 0.403365 -0.303946 0.825191 
-0.083619 -0.848751 0.121569 -0.176236 -0.124538 0.961889 
0.791726 -0.532802 0.562207 0.745114 -0.016473 -0.662065 
1.384065 -0.247231 1.156805 0.789431 -0.272046 -0.548533 
2.021021 0.378291 2.891885 -0.855696 0.449496 -0.026393 
-0.815209 0.221376 0.576463 -0.807836 -0.175770 -0.561179 
1.873763 0.186825 1.857244 0.833660 -0.163577 -0.492952 
1.374237 0.685301 1.213436 -0.672799 -0.129982 0.702133 
1.384269 -0.459702 1.278227 0.770621 -0.374350 -0.477884 
-0.073751 1.317489 0.051498 -0.643990 0.701908 0.195747 
-2.641071 0.396406 2.288886 0.937130 -0.008769 0.322567 
0.100981 -0.329049 -0.274301 0.398993 -0.322675 -0.836940 
1.092386 -0.837695 1.261284 -0.782813 0.539974 0.264943 
-1.560436 -0.051360 1.412565 0.746850 0.078432 0.629613 
-0.620214 0.251187 0.438209 0.638131 -0.198873 0.736334 
1.310645 -0.620083 1.377655 0.731163 -0.513488 -0.396450 
-0.420588 -0.239329 -0.012726 -0.800798 -0.121189 -0.583365 
-0.966191 -0.317194 0.852148 0.766636 0.119331 0.612687 
0.267459 0.758066 0.320050 0.508640 0.269932 0.811273 
0.514126 -0.644953 0.329947 -0.421838 0.043452 0.837809 
0.968798 0.188796 0.785495 -0.652679 -0.143673 0.718633 
0.422627 -0.106084 -0.021076 0.805982 -0.109899 -0.575518 
1.950402 -0.054708 2.248279 -0.944328 0.221771 0.027467 
1.785000 -0.247425 2.870025 -0.883090 0.443046 -0.124978 
2.049694 0.189831 2.563815 0.965809 -0.220731 0.077967 
2.009053 0.189082 2.151104 0.780248 -0.417248 -0.437471 
-0.625807 -0.712460 0.417735 -0.705996 -0.092824 -0.663003 
1.795218 0.513740 1.726545 0.807956 -0.382527 -0.423043 
-2.431296 0.142917 2.046419 0.683478 0.353534 0.606396 
-0.808895 -0.681335 0.640819 0.813161 -0.004165 0.569642 
1.527732 0.764655 1.265628 0.540927 0.319860 -0.700055 
1.889920 0.286562 1.885916 0.808535 -0.271683 -0.484172 
0.146631 0.437041 0.336379 0.225581 -0.276238 0.932297 
-0.346212 0.747198 0.229235 -0.776007 0.358766 0.419383 
-0.816017 0.576591 0.625020 0.742041 0.162463 0.628962 
0.328331 -0.459324 -0.113383 0.653379 -0.213175 -0.703156 
1.875863 -0.153239 2.634388 0.845550 -0.501775 -0.024775 
-0.065415 0.909612 0.371801 -0.199902 -0.000637 0.968982 
0.261451 0.239134 -0.286822 0.667974 -0.010971 -0.730377 
1.410351 0.690942 1.128921 0.660328 0.155865 -0.730113 
-1.034454 0.447846 0.811337 -0.795673 -0.269727 -0.541262 
0.739040 0.078772 0.462923 0.798023 -0.118028 -0.586395 
0.492579 -1.055888 0.235024 -0.460414 -0.196353 0.843392 
-1.743891 0.499392 1.500342 -0.591022 -0.263956 -0.727907 
1.873702 0.486754 1.941947 -0.841339 0.024076 0.440677 
-1.199427 0.675000 1.033923 0.697693 0.486190 0.406466 
-1.754328 -0.170133 1.543030 -0.759286 -0.211682 -0.590259 
-0.734462 -0.196253 0.547739 0.750322 0.000535 0.634463 
-0.297301 0.755609 0.296723 -0.605496 0.297006 0.701751 
0.426024 -0.095981 0.123189 -0.316086 -0.130171 0.893189 
0.114580 -0.668124 0.137865 0.172402 -0.135437 0.959070 
1.052607 -0.131785 0.822952 0.777075 -0.164760 -0.596081 
0.708450 0.144901 0.411915 0.806880 -0.127215 -0.572470 
-0.242204 -0.135803 0.165993 -0.433562 -0.153727 0.843342 
1.895379 0.060828 1.935560 -0.881725 0.179991 0.417722 
2.045179 0.184550 2.363029 -0.907494 0.301868 0.169543 
-1.463852 -0.042581 1.367629 0.692195 0.103221 0.669535 
-0.888716 -0.451807 0.785538 -0.817667 -0.165285 -0.535951 
1.546675 0.015827 1.367615 -0.857963 0.035239 0.393225 
-0.087892 1.149000 -0.071482 -0.504416 0.230433 -0.821998 
1.133054 0.301771 0.889885 0.775138 -0.260134 -0.575245 
-0.761724 0.615290 0.559035 -0.718341 0.097051 -0.684024 
-0.235793 1.154445 0.393900 -0.539337 0.448546 -0.700453 
-0.390566 -0.167808 -0.064390 -0.808708 -0.117771 -0.572066 
-1.063489 0.641354 0.889196 0.734706 0.299668 0.541956 
-1.888934 -0.083867 1.621043 0.472623 0.206789 0.837939 
-2.644098 0.028129 2.730706 -0.927915 -0.275664 -0.237719 
0.320056 0.858134 0.178904 0.883499 0.344467 0.205603 
-0.118662 1.255244 0.023430 -0.725729 0.566590 -0.215656 
0.298199 0.919839 0.149479 0.913769 0.306592 0.058842 
-1.886134 -0.483656 1.799173 -0.672341 -0.429597 -0.595679 
-0.739431 -0.272983 0.560291 0.749597 0.024049 0.633509 
-1.218778 -0.836088 1.595484 -0.586025 -0.541122 -0.577371 
1.537090 0.540366 1.358103 -0.744044 -0.233367 0.557272 
-1.600511 -0.173242 1.423770 -0.367256 -0.250090 -0.860853 
1.403101 0.473081 1.217930 -0.689668 -0.203686 0.648702 
1.035158 -0.838035 0.929714 -0.812813 0.233038 0.503455 
1.764316 0.765855 1.665577 0.924498 0.073974 -0.339802 
1.591677 -0.600524 1.974074 -0.714219 0.510180 0.371582 
-0.832752 -0.832924 0.690134 0.823561 0.012198 0.546564 
-1.493274 -0.297849 1.393484 -0.512269 -0.318819 -0.759598 
0.670782 -0.158534 0.451918 -0.628794 -0.054483 0.728637 
-1.471951 0.068030 1.342991 -0.605747 -0.299425 -0.712876 
-1.648359 -0.479972 1.614741 -0.526862 -0.469780 -0.706114 
0.239315 1.164131 0.400665 -0.080214 -0.308547 0.796783 
-1.571158 0.713392 1.368006 -0.820663 -0.173889 -0.540682 
1.085259 0.339827 0.841091 0.773128 -0.247880 -0.581671 
0.684626 0.167153 0.494712 -0.660619 -0.165221 0.723259 
0.016172 1.259201 0.211329 0.015653 0.831354 0.536685 
0.836983 -0.122429 0.648024 -0.725127 -0.037839 0.675503 
-0.312578 0.003289 -0.200981 -0.657940 -0.131665 -0.709820 
-0.612564 -0.252658 0.295301 -0.804173 -0.103807 -0.583607 
-0.619177 -0.025995 0.422420 0.665998 -0.092870 0.697864 
0.233568 -0.887814 0.118236 0.044030 0.073768 0.943389 
-0.483474 0.383362 0.349365 0.645234 -0.003264 0.735476 
-2.222729 -0.314866 2.047756 0.763871 0.297917 0.516963 
0.321059 0.662447 -0.173378 0.549674 0.441097 -0.694371 
-0.174374 -0.433300 -0.215929 -0.423849 -0.366758 -0.817111 
0.954149 -0.863711 0.777927 -0.791319 0.105713 0.586424 
-1.159053 -0.677674 1.357188 0.708172 0.392527 0.557651 
1.229253 -0.813365 1.582264 0.718816 -0.595285 -0.330035 
0.814102 0.245350 0.550688 0.803686 -0.140929 -0.573842 
1.766641 -0.447296 2.234792 -0.868833 0.426706 0.112674 
-1.555667 -0.241298 1.418616 -0.427707 -0.292036 -0.814676 
-0.917783 0.391117 0.646335 -0.758341 0.066083 -0.630403 
-2.249223 -0.164879 1.970305 -0.614859 -0.448651 -0.639367 
-2.464066 -0.099031 2.328673 0.761742 0.422648 0.469527 
-1.237180 -0.396206 1.173851 -0.716687 -0.274556 -0.626509 
0.368761 0.077067 -0.095965 0.762799 -0.136503 -0.588331 
1.539526 0.581916 1.292650 0.749261 -0.285678 -0.596734 
0.096246 1.298850 0.076901 0.634792 0.721111 0.127980 
2.099921 0.521281 2.574336 0.906278 0.298529 0.125228 
-0.646006 0.297658 0.286810 -0.850572 -0.011867 -0.516214 
-0.655111 -0.148664 0.358186 -0.817918 -0.090503 -0.566315 
-0.192993 -0.624847 -0.088045 -0.135617 -0.412178 -0.882738 
-1.930393 -0.523935 1.870066 0.459201 0.416398 0.722871 
-1.396236 -0.164887 1.335428 0.670457 0.186802 0.685586 
0.649494 -0.626761 0.435850 0.669487 -0.089695 -0.710054 
0.978523 -0.605599 0.808387 -0.794534 0.124213 0.583684 
-0.342150 0.807142 0.115843 -0.878078 0.413751 -0.036013 
-1.936574 -0.422471 1.810112 0.458740 0.381258 0.745671 
0.724581 -0.036562 0.533755 -0.702201 -0.085281 0.694638 
-0.277799 -0.849392 0.015055 -0.414574 -0.275889 -0.838449 
0.230510 0.598420 0.333661 0.296258 -0.195235 0.905933 
-1.331554 0.316207 1.176439 -0.705084 -0.309163 -0.632035 
1.772796 0.199938 1.684521 0.876944 -0.091446 -0.438145 
-1.826599 0.789815 1.581277 0.374878 0.389120 0.774792 
-0.462126 0.665800 0.113257 -0.742983 0.606884 -0.247630 
-1.357389 0.351795 1.259689 0.633383 -0.111870 0.716613 
-0.344843 -0.344863 0.093382 -0.436221 -0.103543 0.813028 
1.069282 0.599161 0.841901 0.539360 0.368072 -0.726238 
1.978450 0.547253 2.046891 0.959487 -0.019906 -0.278066 
1.791622 -0.385287 2.167861 0.835939 -0.493343 -0.209794 
-1.304076 -0.437023 1.300524 -0.689210 -0.328053 -0.633783 
0.474490 -0.670596 0.270701 -0.355008 0.042946 0.871240 
-2.380399 -0.208845 2.263817 0.842595 0.272816 0.418914 
-1.538806 0.297308 1.404506 0.690005 -0.094764 0.670664 
-1.545226 -0.705050 1.757910 0.478807 0.460127 0.727146 
-0.328083 -0.413676 0.104183 -0.547176 -0.103544 0.780413 
1.225708 -0.608416 1.063093 0.801274 -0.270081 -0.518995 
1.463217 -0.068073 1.231937 0.780089 -0.281959 -0.557391 
2.082578 0.604456 2.339948 0.937487 0.218190 -0.167726 
-2.502393 -0.013273 2.318654 -0.911297 -0.201935 -0.334038 
-0.586704 -0.391837 0.337541 0.480884 0.010282 0.782159 
-0.408541 -0.673267 0.146975 0.238543 0.026481 0.926190 
-2.628682 0.103791 2.544424 -0.912437 -0.257595 -0.301085 
0.084423 0.922979 0.370595 0.228042 0.028444 0.964236 
1.892068 -0.006586 2.931029 -0.907540 0.360142 -0.170245 
0.171927 -0.186745 0.191169 0.273332 -0.076530 0.938497 
-0.156540 0.913112 0.349850 -0.327142 -0.003643 0.924252 
0.320085 -0.537636 0.063942 0.226695 -0.072505 0.921255 
-0.917464 -0.043459 0.764968 0.732121 -0.017788 0.653860 
-0.803032 0.264440 0.635465 0.685488 -0.181246 0.703501 
-1.438391 -0.556212 1.535870 -0.450934 -0.478752 -0.712464 
1.370194 -0.435286 1.170703 0.795155 -0.281087 -0.530382 
2.058697 0.495819 2.190166 0.957680 -0.008619 -0.285914 
-0.440187 0.595807 -0.039723 -0.744202 0.324788 -0.521953 
0.065298 -1.095854 0.059109 0.247379 -0.140353 -0.956278 
-2.583517 -0.053625 2.594435 -0.914135 -0.284360 -0.274418 
1.873736 -0.229735 2.361439 0.823915 -0.535197 -0.155625 
-0.344203 0.031637 0.127219 -0.050544 -0.203879 0.956252 
-0.685370 0.387881 0.329463 -0.854104 0.094092 -0.487387 
-1.559118 -0.520470 1.610469 0.757663 0.410076 0.487681 
-2.601456 0.315239 2.229553 -0.874797 -0.200007 -0.433644 
-1.901249 0.150657 1.589665 -0.570751 -0.063291 -0.803644 
-0.001429 -0.853281 0.146556 -0.581427 -0.111064 0.797449 
-0.401738 -0.582897 0.070257 -0.685109 -0.165542 -0.682850 
1.713683 -0.064846 1.585649 0.974875 -0.115040 -0.152045 
0.328823 -0.700382 0.007222 0.618352 -0.202892 -0.732745 
-1.060120 -0.744596 1.177055 0.784241 0.307428 0.508958 
-0.539723 0.579172 0.250547 -0.815463 0.437152 -0.330659 
-1.167426 -0.406697 1.115022 0.736266 0.218863 0.621345 
1.490921 0.097449 1.255737 0.771958 -0.283428 -0.567514 
1.320370 -0.116849 1.122384 -0.740275 0.109968 0.607555 
-1.725756 -0.051901 1.521428 0.329802 0.164770 0.926657 
1.715793 -0.533119 2.128579 0.837092 -0.494444 -0.202397 
-1.715310 0.198271 1.507082 0.367440 -0.019747 0.888538 
-0.408373 0.682475 -0.034718 -0.668632 0.610281 -0.378681 
-0.252420 0.029399 -0.261779 -0.609410 -0.101826 -0.760811 
-2.286115 0.400249 1.924790 0.664707 0.090131 0.671154 
