1.129038 0.209231 -0.292500 0.653487 -0.105856 0.737032 
-0.073138 -1.108230 0.173450 -0.051053 -0.275492 -0.944760 
0.702225 1.203663 0.297917 -0.372217 0.336076 -0.856163 
-0.891626 1.049679 0.017945 -0.888694 0.034755 0.402166 
-0.279807 -0.904125 0.168590 -0.250649 -0.182115 0.941578 
0.519053 1.541415 0.556506 0.787520 -0.238571 0.539037 
-0.401941 -0.303586 0.146800 -0.755328 -0.152635 0.631100 
-0.313957 2.651285 -0.315202 -0.790385 0.450000 0.406869 
-0.132326 -0.496864 0.357493 -0.141170 -0.254803 0.952473 
1.156889 2.204246 0.654053 -0.249641 0.612270 -0.747381 
0.324489 0.390558 0.050185 0.551985 0.106939 -0.794227 
-0.544722 2.522499 -0.582530 0.864971 -0.290638 -0.405095 
-0.260584 1.023641 0.322062 -0.889687 0.398376 -0.155976 
-0.285610 0.470636 0.006372 -0.713702 0.040451 -0.696971 
-0.210366 1.108460 0.674238 -0.226312 -0.491307 0.798881 
0.724695 0.218665 -0.030406 -0.151538 0.140395 -0.832844 
-1.174312 0.385972 -0.635219 -0.783899 -0.269658 0.520065 
1.321898 1.723557 0.244815 -0.173271 0.706955 -0.667080 
0.714327 0.894245 0.319864 0.697965 -0.117904 0.682770 
-0.739637 2.002402 -0.284052 0.809520 -0.440426 -0.349681 
0.752930 -0.029641 -0.047436 -0.301363 0.099586 -0.835048 
1.002365 -0.282556 -0.246995 -0.447735 -0.040489 -0.864279 
0.431613 -0.058963 0.083736 0.223896 0.080027 -0.905537 
-0.129310 -0.673651 0.077206 0.026251 -0.232859 -0.966026 
1.775951 2.120228 0.426535 -0.145076 0.376104 -0.902438 
-0.788210 0.316132 -0.078018 -0.788587 -0.237376 0.558267 
-0.614128 0.623746 0.305763 -0.252005 -0.174456 0.886440 
-0.783445 1.561516 0.346649 -0.933921 0.165505 0.260875 
-0.146503 -0.613932 0.312577 -0.227125 -0.313152 0.919308 
-0.772100 -0.160395 -0.203784 0.566294 0.103810 -0.748435 
0.069309 -0.448765 -0.033291 0.300444 -0.372958 -0.874525 
1.528005 1.571653 0.079172 -0.071850 0.696873 -0.711416 
-1.127444 0.475276 -0.521304 -0.801430 -0.252455 0.521063 
-0.964481 1.337980 -0.076714 0.729144 -0.068111 -0.605507 
0.761195 1.821968 0.569362 -0.104566 0.453641 -0.859977 
-0.599442 1.338626 0.506938 0.950633 -0.093285 -0.024757 
0.126014 0.249142 0.534743 0.169848 -0.235488 0.954032 
0.848450 0.358487 -0.076629 -0.309935 0.172173 -0.803817 
-1.299624 0.517328 -0.790194 0.753165 0.306843 -0.526358 
0.516440 1.888091 0.717324 -0.420562 0.707960 -0.483887 
-1.009010 1.584582 -0.021459 -0.866354 0.253847 0.386430 
-0.124187 -0.934112 0.127018 0.096614 -0.255508 -0.958753 
1.195363 1.642601 0.235299 -0.151709 0.778399 -0.601920 
0.528760 -0.102961 0.143833 0.678932 -0.210195 0.697487 
-0.645222 1.761061 0.639565 -0.651817 0.393629 0.528208 
-0.902438 1.908259 -0.395853 -0.512298 0.797928 0.245827 
-0.411226 2.895670 -0.665959 0.787732 -0.371228 -0.488795 
-0.703883 0.483527 -0.041868 0.404993 0.256959 -0.739578 
0.842004 -0.435759 -0.161392 -0.389699 -0.028380 -0.890044 
0.700204 -0.821442 -0.049541 -0.344477 -0.110808 -0.929883 
1.218488 1.389403 0.017480 0.296133 -0.573827 0.725514 
1.284981 0.178710 -0.426404 0.574179 -0.012133 0.786674 
0.250494 -0.097705 -0.007603 0.614852 -0.082577 -0.775305 
1.792843 2.288256 0.573133 0.128171 -0.556011 0.806652 
-1.414967 1.058166 -0.636214 -0.802505 -0.080825 0.567897 
-0.679277 -0.232303 -0.102489 0.503548 0.073243 -0.784960 
1.725214 2.455006 0.719084 -0.103524 0.656326 -0.746392 
-1.500031 1.527597 -0.910951 0.754092 -0.440090 -0.474060 
1.573294 1.222392 -0.128002 -0.028743 0.527838 -0.767198 
-1.202636 1.950081 -1.019306 0.723317 -0.532185 -0.429493 
-0.700853 1.132954 0.394750 -0.767719 -0.177386 0.595395 
-1.144490 1.258938 -0.350123 0.785266 -0.158646 -0.552169 
-0.861353 -0.269440 -0.346782 -0.684971 -0.111479 0.656376 
1.414039 2.072351 0.470350 -0.232151 0.366202 -0.896280 
-0.727667 1.947451 -0.138648 0.813857 -0.438109 -0.327976 
-0.236050 -0.847323 0.201522 -0.223110 -0.214261 0.945918 
-0.802003 1.068107 0.166761 -0.922905 0.028745 0.348550 
0.824498 0.947511 0.197162 0.753335 -0.061881 0.610587 
-0.565551 -0.354598 -0.009772 -0.733261 -0.095458 0.655451 
-0.661579 1.814637 0.318762 0.683644 -0.356366 -0.584785 
-0.854349 1.128191 0.028839 0.695932 0.098097 -0.648106 
-0.724573 1.784295 0.329696 -0.772664 0.529031 0.247854 
1.316535 0.438232 -0.429198 0.674564 -0.104708 0.721854 
-0.209388 1.140497 0.355022 -0.859583 0.478620 -0.118814 
-0.095529 0.375646 -0.106084 -0.582587 0.110173 -0.787070 
0.094905 0.628920 0.589959 0.063169 0.185275 0.972573 
-0.386843 -0.191346 0.071771 -0.177627 0.056458 -0.910798 
-0.071189 1.067767 0.607741 0.077080 0.139238 0.941179 
1.787754 1.323084 -0.110839 0.072460 -0.641763 0.723895 
1.919417 2.170921 0.456764 -0.090593 0.741074 -0.658211 
-0.400988 0.551356 0.279535 -0.467941 0.512198 -0.669048 
-0.037775 0.019285 0.474127 -0.106780 -0.231866 0.964588 
-0.836240 0.304220 -0.159602 -0.800024 -0.202683 0.560072 
-0.230477 -0.637628 0.274973 -0.407455 -0.277059 0.844931 
0.516642 1.142933 0.470496 -0.868173 -0.127687 -0.341822 
0.298442 1.748699 0.768447 0.089877 -0.746088 0.655235 
-1.457895 1.469909 -0.738814 -0.797446 0.361534 0.480999 
0.777986 1.272459 0.301917 0.681882 -0.199199 0.621240 
0.939515 1.302374 0.175803 0.562704 -0.312791 0.685416 
0.909988 0.582367 0.051447 0.739755 -0.169906 0.644506 
-1.085656 1.287052 -0.268047 0.771218 -0.147114 -0.562802 
-0.515441 -0.070946 0.111492 -0.771727 -0.209580 0.588910 
-1.478243 0.911804 -0.813949 0.790511 0.229465 -0.553323 
0.541514 1.559181 0.486724 -0.243278 0.377341 -0.887267 
-0.294712 0.067263 0.418142 -0.464331 -0.262141 0.819197 
-0.071711 -0.597367 0.051757 -0.095395 -0.317899 -0.935320 
1.395674 1.290295 -0.067875 0.087235 -0.657697 0.678892 
0.833134 0.675120 0.171139 0.821281 -0.090696 0.560799 
1.133494 0.781163 -0.138811 -0.556663 0.288585 -0.756631 
0.324148 -0.658124 0.226161 0.573065 -0.178624 0.791840 
0.257447 1.803033 0.788499 -0.032565 0.846478 -0.407398 
-0.593793 0.456807 0.363723 -0.634130 -0.254667 0.676959 
-1.431677 1.240598 -0.638791 0.785551 -0.033139 -0.575676 
0.732653 1.373254 0.309119 -0.315297 0.379925 -0.859334 
-0.813894 1.766256 0.074130 -0.920258 0.230454 0.293655 
-0.339925 2.865008 -0.529818 -0.838175 0.333958 0.415156 
-1.149118 1.889842 -0.849091 0.754284 -0.464575 -0.444221 
1.649844 1.207347 -0.147967 -0.083989 -0.726471 0.643947 
1.661865 0.929364 -0.315888 -0.243797 -0.741194 0.616786 
1.657670 1.306361 -0.097745 -0.134423 0.464629 -0.824226 
-0.217040 2.806171 -0.286045 -0.880973 0.304774 0.344746 
0.345872 -0.138713 0.117256 0.333737 0.062775 -0.926912 
0.150172 -0.986334 0.189123 0.171911 -0.121067 0.974328 
-0.100288 0.140318 -0.119018 -0.578902 0.012483 -0.804490 
0.478168 0.605577 0.351415 -0.080593 0.614239 -0.542431 
-0.972381 2.140596 -0.887325 0.752895 -0.470773 -0.452361 
-0.893493 0.566541 -0.110293 -0.850002 -0.199165 0.482293 
0.890278 0.292912 -0.101656 -0.366966 0.152268 -0.786421 
-0.691476 1.294698 0.423732 -0.929545 0.020014 0.315412 
0.101001 -0.965336 0.136479 -0.034801 -0.261740 -0.957200 
1.029164 0.043657 -0.235884 0.634797 -0.094527 0.753226 
0.755181 0.527667 0.192287 0.724691 -0.211302 0.641799 
-0.266439 0.886548 0.203818 -0.765579 0.394532 -0.461385 
0.434510 0.313164 0.130938 0.195443 0.204758 -0.919630 
-0.235890 0.561227 -0.007945 -0.635659 0.137769 -0.731021 
-1.050576 0.629143 -0.358295 0.764987 0.160887 -0.609844 
-0.194920 1.176700 0.431200 -0.666446 -0.096030 0.630019 
-1.107678 0.291712 -0.560069 -0.773491 -0.242350 0.542040 
0.936485 1.101580 0.139128 0.625985 -0.198875 0.667861 
1.631846 2.340204 0.629068 0.157863 -0.611743 0.768478 
0.157397 -0.689429 0.082206 0.004739 -0.200625 -0.967416 
0.528170 -0.922514 0.033251 0.520760 0.040637 0.836805 
0.865604 -0.605037 -0.145302 0.407871 0.099384 0.897192 
-0.250286 2.564228 -0.054919 -0.780944 0.514153 0.338272 
-0.303007 -0.324010 0.118288 -0.313350 0.020870 -0.946480 
1.184636 0.725916 -0.214824 -0.572449 0.288491 -0.748284 
-1.028693 1.012696 -0.254351 0.761071 -0.010848 -0.588039 
-1.047430 1.636665 -0.279911 0.677486 -0.507415 -0.423242 
-1.077142 0.706917 -0.371772 0.767588 0.128457 -0.604086 
1.712142 1.934293 0.282995 -0.183920 0.500104 -0.833177 
0.625149 1.109304 0.429106 0.641785 -0.111068 0.739767 
-0.837503 1.929231 -0.366151 0.830499 -0.360416 -0.398453 
-1.271587 0.806231 -0.527383 -0.806056 -0.155880 0.564721 
-0.491970 2.364335 -0.296065 -0.662466 0.629105 0.395834 
-0.687256 1.467366 0.397173 0.669300 0.002552 -0.710335 
-0.882704 1.721115 -0.099008 0.589109 -0.594310 -0.396962 
0.930769 1.677940 0.373384 -0.130992 0.773950 -0.609394 
0.950080 -0.194872 -0.230974 0.601608 -0.056133 0.786034 
-1.439268 1.588371 -0.897601 0.725289 -0.490345 -0.452095 
0.546398 1.333897 0.536264 0.582403 -0.131770 0.796940 
0.555961 0.396510 0.407256 0.527395 -0.258545 0.777991 
-0.947365 0.944377 -0.153113 0.735045 0.079388 -0.618256 
-1.013504 1.635552 -0.193790 0.686584 -0.447624 -0.465135 
0.650519 1.600047 0.481095 0.654179 -0.382025 0.558841 
-0.919260 1.139229 -0.003467 -0.884437 0.079943 0.404257 
1.579480 1.423193 -0.013602 -0.230845 0.383653 -0.874629 
-0.961662 0.386899 -0.276993 -0.798875 -0.186397 0.562155 
1.525192 1.507073 0.034330 -0.158276 0.563014 -0.804901 
-1.294721 1.785335 -0.936160 -0.758584 0.470839 0.417076 
1.280278 1.028854 -0.232738 -0.452334 0.412025 -0.773162 
0.929375 2.191659 0.755917 -0.352584 0.685404 -0.616193 
0.230183 0.507350 -0.014521 0.615826 0.121937 -0.754303 
-0.264600 0.511548 0.543308 -0.282055 -0.164430 0.939801 
0.398439 -0.656736 0.089011 0.002619 -0.014862 -0.940561 
1.419992 1.134794 -0.171342 0.065130 -0.615840 0.701577 
-1.120112 1.961576 -0.882930 -0.602157 0.676374 0.334032 
-0.786261 0.557779 0.045745 -0.848702 -0.232152 0.463831 
0.309633 0.571466 0.540449 0.429039 -0.064395 0.871844 
1.361404 1.870743 0.349821 0.296227 -0.539747 0.786755 
0.390585 -0.471835 0.088654 0.139681 0.003430 -0.923550 
-0.258643 0.823819 0.131904 -0.652391 0.475642 -0.556851 
-1.479014 1.371547 -0.727299 -0.795681 0.254281 0.506966 
1.030746 0.154043 -0.196735 0.653541 -0.124224 0.732921 
0.596914 1.500382 0.486541 0.745018 -0.254574 0.566354 
0.558527 0.617018 0.273306 -0.265192 0.494156 -0.477977 
1.512068 2.329741 0.665565 0.198018 -0.622173 0.744814 
-0.215602 0.022955 -0.034231 -0.642191 -0.038645 -0.751773 
-0.734148 2.142905 -0.471039 -0.728012 0.571053 0.369999 
-0.524241 0.103001 0.202603 -0.755195 -0.290304 0.573400 
-0.740441 -0.237533 -0.179755 0.543820 0.089412 -0.766087 
-0.321974 3.107700 -0.648690 0.802685 -0.320862 -0.498531 
-0.746113 1.227213 0.223907 0.668371 0.117123 -0.687669 
0.582892 0.470436 0.422074 0.483692 -0.169193 0.822903 
1.076427 2.095902 0.679249 0.364029 -0.509005 0.731791 
-0.103676 -0.394064 -0.049968 -0.441310 -0.255441 -0.843671 
-1.385375 1.621970 -0.849062 -0.783515 0.406159 0.449739 
-0.991978 0.152783 -0.441006 0.652793 0.193334 -0.651883 
-0.431943 2.492684 -0.351477 0.826086 -0.397870 -0.383796 
0.287930 0.916167 0.448887 0.896884 0.218980 0.362718 
-0.989546 -0.215164 -0.426522 -0.587396 0.002187 0.706669 
0.398643 0.560224 0.326408 0.352078 0.593097 -0.634695 
1.180180 2.055987 0.558233 0.345880 -0.451879 0.810908 
0.861823 1.979377 0.629572 -0.198297 0.679605 -0.699399 
-0.604279 1.848057 0.569757 -0.784685 0.580137 0.209758 
-1.080315 0.983508 -0.302404 -0.814860 0.034952 0.519201 
1.347758 0.400072 -0.480314 0.665013 -0.083619 0.733521 
-0.572097 2.394912 -0.482171 -0.859689 0.342581 0.359203 
0.589411 -0.023496 0.012318 0.021091 0.080798 -0.857979 
-0.623602 2.094171 -0.152856 0.716951 -0.607208 -0.320324 
1.342954 0.566693 -0.428297 -0.630902 0.129944 -0.746833 
-0.559722 0.614787 0.246858 0.324445 0.523740 -0.353168 
-1.135793 1.566210 -0.245202 -0.828016 0.294720 0.463115 
-0.650852 0.272087 0.108265 -0.764140 -0.297973 0.560128 
0.978027 1.624404 0.372878 0.339674 -0.603057 0.617806 
-0.121777 -0.151795 -0.079313 -0.533527 -0.095079 -0.824394 
0.181607 -0.772011 0.089554 -0.117028 -0.207925 -0.954779 
0.083126 -0.338269 -0.067553 0.426751 -0.244680 -0.852260 
-1.203208 1.219911 -0.413087 0.784425 -0.108537 -0.561627 
0.830589 0.576951 0.024967 -0.426848 0.264818 -0.812613 
0.211880 0.789752 0.550747 0.415318 0.090223 0.875947 
0.523714 1.770813 0.687129 0.510378 -0.472588 0.705141 
-0.710617 1.886946 0.032675 0.771154 -0.389086 -0.430639 
-0.338902 0.432762 0.507710 -0.326053 -0.201214 0.919777 
0.363077 -0.218292 0.102177 0.311136 0.039635 -0.915564 
0.587902 -0.589919 0.020647 -0.335771 0.018191 -0.910285 
-0.593289 1.607479 0.602314 -0.118882 -0.359669 0.903717 
0.920098 0.519158 -0.070516 -0.450549 0.223536 -0.788347 
0.037099 -0.498724 0.365056 0.139872 -0.230735 0.950481 
0.346366 -1.299057 0.112101 -0.658608 -0.491087 0.319380 
-1.052236 1.717409 -0.415946 0.614557 -0.625292 -0.383952 
0.163516 1.231106 0.522238 -0.082965 0.899706 0.253980 
0.542024 -0.501950 0.051701 0.613181 -0.097001 0.772079 
0.612495 -0.387247 0.024734 0.622046 -0.106662 0.762874 
-0.336328 2.806577 -0.482372 -0.824417 0.364659 0.417126 
0.241932 -0.364104 0.004335 0.577816 -0.154257 -0.799814 
0.154060 0.917144 0.589208 0.301664 -0.143628 0.921514 
-1.153763 0.187795 -0.623529 -0.707130 -0.180330 0.581192 
0.695274 -0.392491 -0.032190 -0.389805 0.045653 -0.880691 
-1.016965 0.046757 -0.512719 0.618343 0.196844 -0.657485 
0.699398 0.594277 0.103589 -0.317703 0.351103 -0.823342 
0.649652 1.991749 0.751544 -0.491278 0.780397 -0.299278 
-1.127605 0.098180 -0.584878 0.660610 0.125340 -0.634086 
0.755053 1.900302 0.614933 -0.186351 0.637832 -0.739798 
-0.296710 2.503924 -0.050937 -0.762098 0.539778 0.340927 
-0.749276 2.053545 -0.341777 -0.696173 0.625360 0.333525 
-0.872676 -0.199753 -0.370005 0.548763 0.136167 -0.725641 
0.263530 0.814060 0.502438 0.658793 0.199835 0.658710 
-0.596036 2.516331 -0.633363 -0.770205 0.445391 0.439564 
1.533828 1.886325 0.299071 0.248085 -0.566234 0.782875 
-0.491043 0.609401 0.353095 0.157458 0.648779 -0.449433 
0.182786 1.164945 0.625594 0.858476 -0.108973 -0.404962 
0.783162 1.648134 0.485607 0.503090 -0.424625 0.641845 
-0.316311 0.258791 0.063282 -0.519540 0.093696 -0.803021 
-1.424395 0.776317 -0.856891 0.797853 0.308869 -0.506406 
0.209292 0.079227 -0.045965 0.612512 -0.026610 -0.779253 
-0.316920 2.341595 0.142449 0.803555 -0.465797 -0.358533 
-0.685910 1.719777 0.387056 0.634342 -0.268953 -0.626893 
1.494971 2.536679 0.841320 -0.267120 0.852559 -0.410899 
0.457574 1.745492 0.700373 0.537423 -0.461381 0.691701 
0.749423 1.628735 0.409146 -0.283604 0.366225 -0.879438 
1.253200 1.576515 0.227361 0.264701 -0.618204 0.712246 
1.594258 1.601300 0.098786 0.389975 -0.200684 0.861713 
-0.902435 0.140324 -0.274076 -0.763623 -0.160028 0.596813 
1.722717 1.228806 -0.156426 -0.073818 0.517914 -0.792713 
-0.766731 2.729595 -1.101665 0.781744 -0.388967 -0.486957 
0.104744 -0.207484 -0.078575 0.486454 -0.149589 -0.839745 
-0.852187 2.352112 -0.929108 0.718129 -0.509181 -0.460663 
-0.480249 -0.822739 0.033137 0.374361 -0.026624 -0.905456 
0.843489 0.508494 -0.025004 -0.371618 0.229257 -0.810115 
-0.023233 0.226291 -0.176115 -0.537895 0.048532 -0.838681 
0.332327 0.587526 0.087862 0.652671 0.281154 -0.678581 
-0.966912 0.644533 -0.257327 0.752585 0.159717 -0.616681 
-1.033747 1.722059 -0.347209 -0.856114 0.273419 0.431852 
0.672982 0.234558 0.169758 0.671565 -0.279096 0.679177 
0.279823 0.892589 0.240005 0.820376 0.373577 -0.354090 
0.233562 0.062826 0.444487 0.333242 -0.260062 0.885928 
0.792954 1.032049 0.192337 -0.437831 0.312049 -0.834827 
-0.335484 -0.839986 0.173665 -0.490632 -0.130154 0.843317 
1.570523 1.018142 -0.251614 -0.151411 -0.715298 0.633896 
1.036592 2.162500 0.726419 0.365024 -0.511904 0.745717 
0.253079 0.409249 0.541373 0.252676 -0.187073 0.946435 
-0.309191 3.253536 -0.702198 0.814373 -0.284597 -0.502285 
1.905542 1.431804 -0.078403 -0.140904 0.564755 -0.804394 
-1.440696 0.902599 -0.752641 0.785710 0.207667 -0.571023 
-0.707523 1.218419 0.368072 -0.954428 0.042613 0.271099 
0.448569 0.561606 0.260669 0.279451 0.494942 -0.599443 
-0.140226 0.566344 0.596142 -0.204996 -0.132807 0.969010 
-0.343038 -0.607682 0.194899 -0.662701 -0.152094 0.724217 
1.948956 1.227258 -0.205951 -0.130822 0.510962 -0.825373 
0.359419 0.678114 0.478621 0.731484 0.337603 0.485926 
-0.559396 0.214981 0.215568 -0.750801 -0.324585 0.563866 
-0.890542 -0.084089 -0.342119 -0.728611 -0.152479 0.620025 
-0.409877 -0.692081 0.073716 0.146182 -0.017867 -0.926406 
2.090381 1.967665 0.264817 0.117372 -0.644739 0.748820 
-1.024510 1.377074 -0.110653 -0.860316 0.201831 0.427783 
-0.759728 0.537281 -0.054337 0.535598 0.280242 -0.704498 
-0.265330 -0.424937 0.337406 -0.533372 -0.211908 0.792132 
-0.660595 -0.865017 -0.085272 -0.508522 0.223189 0.816021 
0.357942 -0.810233 0.070497 0.006918 -0.077700 -0.925253 
0.276926 0.379123 -0.008662 0.677009 0.050627 -0.729922 
-1.435649 1.439241 -0.676524 -0.797109 0.323509 0.492624 
0.048047 -0.565868 0.039792 0.208454 -0.371510 -0.891592 
-0.218457 2.536465 0.041350 -0.630498 0.614220 0.469867 
-0.314772 -0.508729 0.090595 -0.219051 -0.033477 -0.918703 
0.662932 -0.185649 0.013377 0.659331 -0.140354 0.729216 
-1.215745 0.735643 -0.504981 0.769958 0.178250 -0.610961 
-0.092280 0.217106 0.524911 -0.144464 -0.244090 0.954125 
1.406909 2.410114 0.757943 0.226442 -0.646029 0.715504 
0.313057 0.528624 0.046661 0.671483 0.179600 -0.697627 
-0.912509 0.715427 -0.101531 -0.858925 -0.113991 0.464697 
-0.799802 1.175636 0.201520 -0.926437 0.064247 0.330636 
0.760422 1.474418 0.308717 -0.281755 0.408252 -0.860178 
0.430986 0.012694 0.090293 0.225122 0.100006 -0.911028 
0.806829 -0.645799 -0.116258 -0.373658 -0.094788 -0.911085 
-0.751331 0.563618 0.127183 -0.868150 -0.232515 0.420002 
-0.430402 0.318734 0.099234 -0.126099 0.208531 -0.892907 
-0.464122 -0.931369 0.041238 -0.614109 0.020403 0.785924 
-1.162103 0.482103 -0.597053 0.746923 0.266695 -0.566997 
0.573898 0.595338 0.392038 0.087635 -0.161512 0.917378 
-1.304522 1.432045 -0.480883 -0.806727 0.221611 0.513291 
0.238636 -0.051402 0.418369 0.395855 -0.246548 0.852360 
-0.092588 -0.316773 0.398676 -0.124214 -0.149733 0.977736 
-1.145170 0.416569 -0.574170 -0.790818 -0.258640 0.523002 
2.306755 2.173152 0.429762 -0.053747 0.667966 -0.741870 
1.860479 1.478330 -0.041943 -0.130434 0.584920 -0.790950 
-0.560058 0.547581 0.127742 0.134696 0.409608 -0.723804 
-0.825790 1.700186 0.221087 -0.920115 0.218385 0.279665 
-0.173315 -0.285411 0.393909 -0.272429 -0.172225 0.920161 
-0.605603 -0.909176 -0.047635 -0.548289 0.197945 0.791098 
2.173007 2.548859 0.791728 0.065857 -0.722227 0.682769 
-1.429366 0.933669 -0.687659 -0.802874 -0.166089 0.567432 
-1.240234 1.948631 -1.079376 -0.707539 0.576139 0.397472 
1.840771 2.079987 0.384929 -0.137837 0.419767 -0.880092 
-0.474617 -1.124317 0.053669 0.516213 -0.089289 -0.846816 
-0.921990 2.084838 -0.730368 0.769873 -0.441958 -0.450077 
1.636682 2.024824 0.379951 0.179198 -0.691084 0.684396 
1.383988 2.178681 0.571279 0.264970 -0.519669 0.802246 
0.499801 0.558752 0.475366 0.047336 -0.225248 0.904794 
1.279499 2.319390 0.697425 -0.254532 0.616836 -0.743111 
-0.398997 -0.268279 0.060867 -0.132167 0.038424 -0.905526 
-0.090814 -0.748156 0.093497 -0.026637 -0.252185 -0.956634 
1.956293 1.862515 0.180291 0.150513 -0.618750 0.764398 
0.197749 1.833733 0.835350 -0.307346 0.692148 -0.531111 
-0.335683 0.625591 0.094599 -0.659532 0.288734 -0.673567 
-0.615975 1.825613 0.425881 0.629416 -0.409209 -0.619602 
-0.680886 2.477536 -0.758381 0.630642 -0.579990 -0.482745 
-0.415888 0.381781 0.460544 -0.415893 -0.220978 0.876200 
0.873946 0.380270 0.025677 0.688562 -0.246628 0.676348 
1.860579 1.362650 -0.104074 0.282910 -0.362527 0.855003 
1.169925 1.428137 0.052260 -0.363798 0.426214 -0.824487 
0.004182 -1.104575 0.159929 0.516010 -0.213543 -0.798727 
-0.300370 0.397719 0.032104 -0.630725 0.062624 -0.743366 
-1.137077 2.049929 -1.041759 -0.718522 0.555760 0.407419 
-0.082257 0.971444 0.103346 -0.469054 0.468797 -0.728965 
-0.449786 2.108983 0.250334 0.788941 -0.441506 -0.411106 
1.339771 2.098855 0.521012 0.275027 -0.443660 0.850363 
0.521335 1.045134 0.455563 -0.835362 -0.050652 -0.473118 
-1.041759 1.766934 -0.477136 0.572044 -0.703233 -0.354600 
0.396396 -1.098789 0.100300 0.138329 0.076888 -0.877476 
-0.695123 0.672505 0.202602 -0.527010 -0.082146 0.803079 
-1.230966 0.694875 -0.577458 0.777081 0.227358 -0.577475 
-0.360279 2.379828 0.052332 -0.745572 0.569535 0.301868 
1.515360 1.656551 0.136927 -0.118903 0.663998 -0.729756 
-0.864970 1.216495 0.105619 -0.907144 0.099270 0.361558 
2.039443 1.926152 0.229756 -0.118050 0.562450 -0.807885 
-0.992930 1.936613 -0.649478 0.793354 -0.380840 -0.467160 
0.328888 0.821352 0.426548 0.875374 0.349469 0.324376 
-0.427842 2.052223 0.435692 0.870046 -0.397449 -0.113743 
0.886989 0.737671 0.042224 -0.542389 0.251386 -0.792699 
0.366270 -0.143839 0.333875 0.602547 -0.239905 0.754549 
0.814466 1.936538 0.660409 0.468400 -0.420384 0.744281 
1.216835 0.183425 -0.400485 -0.530252 0.045516 -0.807049 
-0.468724 2.607534 -0.531758 0.835486 -0.332955 -0.426432 
0.187155 -0.059168 -0.051245 0.583109 -0.060695 -0.799616 
1.806708 1.663542 0.078344 -0.108760 0.627645 -0.764966 
-0.887013 1.686444 -0.018023 0.639310 -0.455760 -0.480631 
-0.109000 0.452532 -0.078105 -0.578452 0.154565 -0.779469 
1.049810 2.033749 0.587841 -0.232448 0.694565 -0.674902 
1.367345 0.635367 -0.432916 -0.650231 0.144145 -0.735674 
0.733713 0.819815 0.279089 0.532415 -0.088945 0.802129 
-0.205802 3.015486 -0.401245 -0.552866 0.508017 0.615356 
-1.136664 1.734523 -0.597340 0.579847 -0.701291 -0.358675 
-0.649099 2.762525 -0.933293 -0.754350 0.421399 0.486771 
-1.082417 1.760745 -0.540802 0.568986 -0.714118 -0.352461 
-0.790469 1.719256 0.132055 0.612125 -0.436651 -0.507875 
-0.838032 -0.512767 -0.265634 0.512137 -0.097988 -0.795464 
-0.168858 -1.191138 0.188561 -0.174336 0.059303 0.907853 
-0.353561 2.277399 0.170553 0.797123 -0.461727 -0.374918 
-0.902704 -0.141878 -0.397627 0.565299 0.149104 -0.710688 
-0.236394 1.064790 0.439998 -0.872304 0.442071 0.148757 
-0.627865 -0.727025 -0.099490 -0.599396 0.034511 0.769085 
1.443964 2.346726 0.695464 0.215355 -0.612354 0.752230 
0.810520 -0.241775 -0.083312 0.607070 -0.090829 0.774345 
-0.421668 -0.560214 0.093055 -0.718119 -0.085850 0.677295 
-0.926765 -0.247144 -0.385934 -0.631219 -0.048166 0.685114 
0.010030 -0.697913 0.321209 0.466161 -0.194728 0.856958 
-0.358935 -0.341939 0.231920 -0.726634 -0.181088 0.657680 
1.735495 2.160298 0.469169 0.138021 -0.441198 0.881317 
-0.571245 1.999521 0.289402 -0.795206 0.554011 0.220955 
-0.963527 0.051400 -0.429543 0.622572 0.178886 -0.671499 
-0.467525 1.968874 0.521219 0.896816 -0.322686 0.011646 
-0.354108 0.250447 0.130819 -0.281765 0.185524 -0.936931 
0.107771 -0.520914 0.350746 0.132793 -0.258733 0.953582 
0.255227 0.578329 -0.004407 0.638083 0.174885 -0.727248 
0.071721 -0.134899 0.440212 0.127898 -0.194453 0.969703 
1.082491 0.088711 -0.282225 0.637354 -0.088701 0.752645 
1.157967 1.722066 0.315877 -0.216934 0.717876 -0.636494 
0.212146 1.137995 0.375557 0.869712 0.473972 -0.068939 
0.079249 0.933409 0.612595 0.208014 -0.096049 0.965343 
-0.510629 1.960658 0.404234 0.800812 -0.393807 -0.438959 
-1.309164 0.627635 -0.767330 -0.813093 -0.325579 0.470864 
-0.536343 2.208698 -0.158649 0.617703 -0.660831 -0.405521 
-0.658223 1.713276 0.472109 0.650018 -0.196678 -0.675379 
1.584632 1.315585 -0.076729 -0.124731 0.460619 -0.818311 
0.021594 1.399867 0.344004 0.400696 0.750454 0.476916 
-0.150882 0.006898 -0.077032 -0.592747 -0.030397 -0.792593 
-0.489314 2.866634 -0.756029 -0.756398 0.408784 0.490232 
-0.671298 1.138610 0.309599 0.644303 0.211446 -0.715720 
-0.678983 0.528843 0.262384 -0.740217 -0.222405 0.557848 
-1.069213 1.059651 -0.301527 0.773577 -0.059973 -0.572752 
0.819655 0.002911 -0.051017 0.661822 -0.146929 0.723816 
0.738371 0.563206 0.258609 0.714653 -0.148460 0.636741 
0.175178 0.655949 -0.025598 0.538492 0.260338 -0.770518 
-1.219347 1.651318 -0.587393 -0.829373 0.301223 0.465375 
-0.737637 0.284862 -0.018497 -0.781178 -0.252244 0.560306 
0.547961 1.140757 0.385978 -0.802492 -0.042303 -0.508779 
-0.531597 0.591663 0.428000 -0.140708 -0.269402 0.893362 
1.080976 1.819813 0.428772 -0.289376 0.560018 -0.758446 
0.294691 0.655361 0.549939 0.461654 0.314841 0.802607 
0.968874 2.133058 0.732176 0.389714 -0.495379 0.744845 
1.186169 1.787111 0.372618 0.364699 -0.473103 0.797608 
0.345183 -1.153353 0.087954 -0.196907 0.014191 -0.972678 
0.448604 1.570928 0.554602 -0.299067 0.327643 -0.868103 
1.673370 1.794997 0.191078 -0.172335 0.602906 -0.772863 
-0.195932 1.135096 0.277776 -0.767232 0.468634 -0.359658 
0.437885 -0.729727 0.105055 0.574065 -0.083486 0.805354 
-0.224469 0.988675 0.208099 -0.701582 0.378264 -0.552592 
-1.311819 1.808313 -1.007738 0.666056 -0.618985 -0.396595 
1.083266 -0.002473 -0.320476 -0.480818 0.032784 -0.833593 
0.680437 1.298992 0.332854 -0.338555 0.351948 -0.862182 
1.033746 0.497590 -0.088083 0.701955 -0.221387 0.673996 
-0.647411 2.150583 -0.296062 -0.753438 0.566561 0.328240 
0.580559 0.800880 0.369274 -0.762345 0.077371 -0.637005 
-0.596524 2.801064 -0.880295 0.808477 -0.340898 -0.474682 
-0.620112 1.026469 0.371276 0.965710 -0.031808 -0.204063 
1.406387 1.929666 0.354264 -0.260527 0.524609 -0.803515 
1.053798 1.225003 0.041584 -0.380927 0.417598 -0.816977 
1.219578 0.328200 -0.355394 0.665100 -0.107598 0.728142 
-0.596070 0.200957 0.150305 -0.760055 -0.295658 0.565688 
2.083242 2.538441 0.785276 0.083466 -0.734292 0.665170 
-0.818766 -0.418847 -0.281905 0.512682 0.004046 -0.777805 
-1.514208 1.002004 -0.784992 -0.802035 -0.175966 0.561387 
0.111353 0.774460 0.573842 0.175162 -0.103836 0.969823 
-0.514186 0.586016 0.197174 -0.082766 0.484332 -0.663722 
1.434541 0.724485 -0.477624 -0.669657 0.151510 -0.724317 
0.217491 1.075859 0.258829 0.774655 0.415422 -0.406888 
0.356494 0.312376 0.091952 0.411083 0.135580 -0.874048 
0.034153 0.571876 0.603055 0.077773 -0.129652 0.985858 
1.015212 2.081189 0.632569 -0.225232 0.654420 -0.714997 
-1.126018 0.819512 -0.401362 0.771420 0.086399 -0.596700 
0.114573 -0.665665 0.300359 0.192742 -0.293819 0.934469 
0.091208 0.089277 -0.123268 0.545883 -0.002797 -0.829406 
-0.354191 -0.463373 0.178453 -0.715796 -0.166158 0.670805 
0.027888 1.170391 0.562978 -0.079791 0.590616 0.780359 
-0.859660 1.840944 -0.141671 -0.839371 0.420452 0.327868 
-0.762954 2.206423 -0.627088 0.724948 -0.544060 -0.411759 
0.525094 0.022700 0.217700 0.667845 -0.261576 0.688571 
-0.327322 0.182962 0.096968 -0.395800 0.119389 -0.879351 
-1.349864 1.189923 -0.559733 0.784432 -0.022350 -0.578151 
0.883348 1.355803 0.194685 -0.327742 0.410123 -0.842250 
0.432509 -1.177518 0.091141 0.701328 0.254220 0.643302 
-0.754504 2.472875 -0.872052 0.685012 -0.525238 -0.475644 
-0.427403 2.980168 -0.747606 -0.823610 0.320694 0.459408 
1.219707 0.522299 -0.283416 0.698317 -0.160721 0.692051 
-0.325293 0.756827 0.477530 -0.703209 0.357755 0.543502 
1.545902 0.987316 -0.383818 -0.114059 0.599921 -0.697269 
2.186404 2.136964 0.409031 0.083002 -0.612099 0.776321 
0.316114 0.126412 0.047700 0.516947 0.032259 -0.821211 
-0.325088 0.344240 0.082424 -0.462840 0.125717 -0.839707 
-0.955202 1.203929 -0.044620 -0.875480 0.115157 0.414827 
-0.925062 1.554102 0.058214 0.733310 -0.178523 -0.620795 
0.853747 -0.530252 -0.151322 0.467415 0.049950 0.865199 
2.327811 2.096054 0.360973 0.068750 -0.659513 0.747722 
-1.158612 0.708460 -0.450373 0.768160 0.165825 -0.611351 
0.033332 0.148874 -0.161909 0.514385 0.013037 -0.848503 
0.375433 0.460918 0.499456 0.318255 -0.158839 0.933041 
1.420923 0.979060 -0.406611 0.489451 -0.426751 0.748776 
-0.619343 -0.799919 -0.073108 0.413505 -0.115293 -0.880571 
-0.503328 2.215798 -0.058925 -0.678367 0.658277 0.308872 
1.121518 1.502356 0.166419 0.251345 -0.688952 0.599420 
-0.972483 2.024946 -0.710485 -0.526052 0.743536 0.289971 
0.757057 0.925897 0.191816 -0.476235 0.271994 -0.828594 
-1.345134 1.050900 -0.577023 0.780059 0.055699 -0.592341 
-0.545093 -0.785603 -0.038910 0.388679 -0.024043 -0.885873 
-1.268766 1.620744 -0.650796 0.659166 -0.569593 -0.415957 
-0.108128 -0.858073 0.114135 0.065799 -0.263249 -0.961651 
-1.084014 1.637783 -0.342168 0.687356 -0.493328 -0.437272 
0.368716 -0.882569 0.082725 -0.144844 -0.088944 -0.952412 
-0.308772 3.050753 -0.598738 0.798032 -0.336160 -0.496102 
0.626161 -0.292301 0.024337 0.642588 -0.124826 0.744620 
1.334479 1.079675 -0.269626 0.459710 -0.437013 0.759208 
1.450694 0.929414 -0.458115 0.505976 -0.418099 0.743039 
-0.369392 2.705234 -0.460129 -0.779867 0.438438 0.441437 
-0.533427 2.646740 -0.659427 0.847167 -0.302076 -0.430630 
1.387322 1.461788 0.048013 0.077101 -0.728697 0.636403 
0.756003 0.676223 0.155877 -0.907186 0.281721 -0.302893 
0.063473 -0.985388 0.209959 0.284089 -0.095536 0.944159 
1.092095 -0.178519 -0.297630 -0.480552 -0.040097 -0.848265 
1.767443 1.601154 0.058116 0.303949 -0.336218 0.843379 
-0.759330 0.873868 0.185000 -0.923250 -0.072475 0.356220 
1.719827 0.980806 -0.298620 -0.176358 -0.705378 0.650719 
-0.706580 1.055169 0.356661 -0.790883 -0.165211 0.556293 
-0.186526 -0.183399 -0.041826 -0.586136 -0.084640 -0.797416 
-0.367402 0.611886 0.214907 -0.701072 0.340049 -0.544982 
-1.021814 0.488259 -0.338448 -0.810869 -0.211258 0.540806 
1.292722 0.512261 -0.391263 -0.618487 0.130167 -0.753464 
1.045025 1.624500 0.350466 0.364584 -0.541790 0.701610 
1.981994 1.663800 0.045261 0.186016 -0.528247 0.813204 
0.140917 -0.383162 0.387419 0.151934 -0.176120 0.970344 
-0.473248 -0.003955 0.217200 -0.755702 -0.268004 0.582240 
-0.306003 -0.150072 0.100815 -0.361432 0.040577 -0.912920 
0.478010 0.172670 0.342625 0.595971 -0.306993 0.732967 
0.223405 -0.702204 0.260055 0.301563 -0.275723 0.898754 
-0.090813 1.168205 0.202595 -0.497887 0.381984 -0.767302 
0.494217 0.661812 0.429531 -0.375971 0.603550 -0.558256 
-0.111317 0.537183 -0.062844 -0.539090 0.173116 -0.797758 
0.694487 0.423969 0.025103 -0.155889 0.208970 -0.853515 
1.286403 1.239149 -0.158860 -0.345986 0.487332 -0.788319 
-0.599569 2.166761 -0.239818 0.679622 -0.625708 -0.363368 
-0.000551 -0.795193 0.296946 -0.573573 -0.144052 0.796815 
-0.483842 2.661680 -0.588095 -0.690535 0.511285 0.484522 
2.010333 2.640189 0.896488 0.014422 -0.545595 0.799865 
0.591869 0.563188 0.157365 -0.037325 0.397147 -0.779860 
-0.894187 0.046881 -0.296862 -0.749274 -0.155594 0.607132 
0.277813 -0.846270 0.188665 0.300466 -0.184353 0.913925 
-0.554354 -0.522970 -0.009107 -0.696023 -0.056339 0.697241 
0.575005 -0.982817 0.015950 -0.365300 -0.087881 -0.924074 
-0.631873 0.008997 -0.086026 0.248439 0.100891 -0.790481 
0.970878 0.165580 -0.153317 -0.539599 0.132304 -0.795557 
1.502464 0.981863 -0.507627 0.476569 -0.450416 0.752906 
-0.454587 0.419830 0.141388 -0.098934 0.317746 -0.816729 
0.358499 -0.494802 0.195143 0.636024 -0.182436 0.746468 
-1.258927 1.695646 -0.734779 -0.810043 0.351874 0.447872 
-0.725594 2.653302 -0.970278 -0.806811 0.373326 0.450634 
0.268723 -0.252609 0.026855 0.532818 -0.098908 -0.821188 
-0.317226 -0.217476 0.120852 -0.294891 0.054826 -0.946776 
-0.282895 0.319998 -0.003267 -0.735656 0.022389 -0.675220 
-0.617205 1.856159 0.360324 0.641585 -0.440618 -0.575868 
-0.481039 -1.330993 0.089444 -0.879751 0.243768 0.002279 
1.191009 1.322055 -0.025410 0.384887 -0.472799 0.783353 
-1.127263 1.790831 -0.665342 0.575990 -0.720851 -0.350493 
-0.764105 0.417760 -0.155911 0.409473 0.199630 -0.724955 
-0.788399 2.009223 -0.403065 0.795458 -0.436962 -0.392469 
-0.298366 0.808557 0.203240 -0.775824 0.415940 -0.398087 
0.163987 -0.306094 0.393031 0.235761 -0.162124 0.942796 
-0.266347 -0.755623 0.083901 0.101999 -0.158231 -0.967581 
1.435403 2.138843 0.520895 0.246323 -0.464506 0.844681 
0.903304 0.050652 -0.116689 -0.509768 0.118478 -0.812315 
1.646027 1.145624 -0.183764 -0.123554 -0.733307 0.634801 
-1.014996 2.151453 -0.973319 0.736791 -0.505672 -0.443976 
-0.026315 -0.682687 0.095957 -0.272441 -0.278869 -0.919198 
-0.489242 0.652229 0.466178 -0.056579 -0.337486 0.859342 
1.570991 1.738845 0.177697 -0.155658 0.629288 -0.752550 
-0.241134 3.121279 -0.526800 0.877706 -0.231606 -0.396624 
0.786641 -0.561569 -0.120946 -0.368294 -0.052743 -0.905299 
1.668718 1.727562 0.160724 0.296497 -0.392088 0.825967 
-0.967558 0.786733 -0.171704 -0.843370 -0.072701 0.485101 
-0.672837 0.411535 0.151690 -0.776590 -0.320778 0.528895 
0.239372 1.199933 0.701714 -0.651545 0.460359 0.589257 
-1.545548 1.309384 -0.813488 -0.792446 0.209313 0.516368 
-0.578817 1.678527 0.586309 0.848365 0.182903 -0.408044 
-0.256032 -0.124050 0.001680 -0.646391 -0.082990 -0.747804 
0.087737 1.232083 0.493220 0.075306 0.836225 0.526347 
-0.449440 3.104667 -0.850625 -0.806206 0.320551 0.495967 
-0.395376 3.042339 -0.727890 -0.828258 0.308316 0.459244 
-0.976857 1.856093 -0.422507 -0.597371 0.701920 0.274459 
0.022811 0.546830 -0.108229 0.464861 0.239552 -0.845697 
1.914286 2.309061 0.578105 -0.085967 0.714498 -0.687461 
0.345050 -0.909726 0.156061 0.393660 -0.125064 0.898240 
-0.256741 2.945158 -0.462113 0.789271 -0.366248 -0.490144 
1.334258 0.331532 -0.468184 0.633968 -0.058180 0.751688 
1.000865 1.245095 0.086203 -0.370784 0.412499 -0.825214 
-1.372326 1.396271 -0.574198 -0.802741 0.216290 0.514540 
-0.831764 1.527100 0.193598 0.708648 -0.111763 -0.655937 
-1.135377 0.748297 -0.396837 -0.810272 -0.123227 0.547844 
-0.950611 0.555988 -0.255942 0.750039 0.201948 -0.624084 
-0.022934 -0.283744 0.405823 -0.048601 -0.154932 0.984344 
-0.291786 -1.247899 0.127233 0.494054 -0.352911 0.395976 
0.377001 0.693479 0.363441 0.935212 0.316023 0.036677 
-0.397114 -0.163926 0.227727 -0.700871 -0.193676 0.672816 
1.170696 0.258994 -0.323287 0.657978 -0.105295 0.733867 
1.325088 1.771012 0.304298 0.336006 -0.460730 0.811747 
1.533113 1.960723 0.339807 -0.223648 0.498998 -0.824949 
0.408174 -1.015603 0.103156 0.486241 -0.003413 0.843280 
-1.066088 1.296727 -0.199035 -0.840790 0.175195 0.463634 
0.444791 -1.414994 0.098878 0.285274 -0.712756 0.397115 
0.352750 -0.762460 0.184734 0.522582 -0.141840 0.828027 
0.745254 0.228260 0.085355 0.682607 -0.244186 0.682262 
0.823689 0.329645 0.053834 0.685502 -0.249134 0.678047 
1.612453 1.542313 0.059394 0.390685 -0.194579 0.866442 
-1.297676 1.859114 -1.057321 0.713951 -0.551241 -0.421164 
-0.318675 2.758180 -0.425453 0.778398 -0.414613 -0.469373 
-0.888716 0.450198 -0.153000 -0.795704 -0.243386 0.547745 
1.103005 1.933137 0.509548 0.410326 -0.540122 0.701765 
-0.155377 0.357674 -0.072442 -0.631366 0.084358 -0.750669 
0.733343 1.497837 0.375424 0.651854 -0.331080 0.618743 
0.302998 -0.514326 0.279592 0.626432 -0.212665 0.748944 
-0.049137 1.182421 0.555458 0.139574 0.660334 0.723975 
-0.280018 2.664849 -0.253045 -0.807253 0.433518 0.379129 
-1.057817 1.494496 -0.130164 -0.851099 0.246550 0.428478 
-0.586073 2.097696 -0.026715 -0.789777 0.547748 0.211249 
0.325861 0.485016 0.102200 0.630630 0.232255 -0.700611 
-0.258314 2.651647 -0.185359 -0.810051 0.441464 0.358169 
0.238665 0.900269 0.157205 0.686323 0.425949 -0.575107 
0.017625 0.155316 0.511846 0.075222 -0.244681 0.965238 
-0.536197 2.372291 -0.400299 0.551352 -0.694027 -0.459098 
1.375485 0.959715 -0.355453 0.504080 -0.407494 0.743931 
0.319847 -0.425023 0.293368 0.655291 -0.209348 0.724877 
0.267149 -0.853188 0.093033 -0.094507 -0.117411 -0.969793 
0.463184 -0.300188 0.059975 0.105759 0.031397 -0.897735 
0.387762 -1.369661 0.111821 -0.365384 -0.598451 0.478140 
0.218033 -0.280003 -0.016700 0.574225 -0.126885 -0.803552 
0.845110 1.511595 0.267293 -0.284776 0.419377 -0.855047 
0.384813 1.683496 0.607566 -0.769978 0.055921 -0.585524 
0.614260 1.126716 0.347448 -0.394866 0.299446 -0.862803 
0.781203 1.054271 0.261456 0.740572 -0.056926 0.607271 
0.605106 1.758342 0.592444 -0.038819 0.474833 -0.854559 
2.058191 2.604675 0.850194 -0.051199 0.698586 -0.711483 
-0.513444 0.413660 0.427327 -0.536586 -0.265557 0.769999 
-0.647472 1.939186 0.105730 0.708927 -0.501687 -0.427450 
0.112762 1.003077 0.131630 0.514694 0.432771 -0.723091 
-0.333261 -0.611523 0.085900 -0.112895 -0.044076 -0.918726 
0.165666 0.449311 -0.055021 0.592760 0.130267 -0.777968 
1.298185 2.381535 0.765697 0.256720 -0.603141 0.748340 
-0.724301 1.775716 0.120767 0.778574 -0.311829 -0.472443 
0.371643 -0.361769 0.093504 0.250049 0.012358 -0.915215 
0.354320 0.423546 0.141408 0.507609 0.263476 -0.768554 
1.302645 1.654803 0.207802 -0.138016 0.743916 -0.640594 
-0.496454 0.556709 0.479229 -0.229596 -0.218978 0.876106 
-0.266695 0.797233 0.505271 -0.607492 0.243405 0.695051 
-1.359391 0.714896 -0.799425 0.794834 0.312293 -0.510156 
-0.816131 2.147278 -0.642245 0.753135 -0.504702 -0.414307 
0.072589 -0.603585 0.328815 0.223955 -0.274927 0.927098 
-0.764833 0.605752 -0.003805 0.617581 0.324715 -0.689370 
-1.189346 1.338310 -0.381049 0.788034 -0.183409 -0.547911 
-0.697908 0.554534 0.021870 0.475611 0.305608 -0.728935 
1.428847 0.652776 -0.493837 -0.649928 0.127192 -0.736809 
0.761729 -0.118435 -0.030649 0.647529 -0.132925 0.737512 
-0.089609 0.716380 0.565531 -0.093203 0.018495 0.991447 
2.251625 2.097198 0.369628 0.077551 -0.669550 0.736020 
-0.184631 1.159299 0.628338 -0.848698 -0.048822 -0.415695 
0.354198 -0.231898 0.317312 0.627342 -0.226938 0.739410 
-0.062711 0.153810 0.507170 -0.122708 -0.246602 0.957344 
1.787301 1.506368 -0.010866 -0.116797 0.610828 -0.772763 
-0.935338 0.301112 -0.266355 -0.787009 -0.174984 0.575347 
-0.592275 0.038795 0.058537 -0.776401 -0.217760 0.580214 
-1.296866 0.701058 -0.695736 0.786667 0.274644 -0.540513 
1.267510 0.718610 -0.314646 -0.567016 0.314128 -0.743392 
0.806821 1.769328 0.530583 0.561230 -0.463756 0.630983 
1.485701 1.278076 -0.077773 -0.047693 -0.741571 0.624257 
-0.572090 0.248620 -0.029487 0.094434 0.166719 -0.822578 
-0.531645 2.128861 0.020481 0.588837 -0.605474 -0.495836 
1.171500 0.480311 -0.241993 0.695789 -0.165642 0.692810 
-0.907899 1.859694 -0.300371 -0.598021 0.707293 0.260691 
0.147866 -1.053816 0.149695 -0.137849 -0.243004 -0.954098 
0.812058 0.680938 0.091294 -0.492964 0.302416 -0.815445 
0.330850 -1.229786 0.117701 -0.516672 -0.376990 0.455782 
-0.398158 -1.047302 0.103848 -0.549697 0.042514 0.800312 
0.485801 -0.114670 0.053278 0.153855 0.061398 -0.884193 
-1.053712 1.592870 -0.097895 -0.852892 0.272339 0.411500 
0.542362 0.162088 0.275752 0.658650 -0.309001 0.679463 
-0.316176 -0.468890 0.263517 -0.685925 -0.198027 0.696957 
-0.357540 0.410391 0.189857 -0.444245 0.315946 -0.792044 
0.646164 1.706525 0.563815 0.660951 -0.415211 0.577495 
-0.045540 1.372267 0.283562 -0.608646 0.693354 -0.335270 
-0.152994 1.111222 0.428787 -0.685308 0.077520 0.622706 
-0.398952 -0.368992 0.120307 -0.769294 -0.139864 0.621413 
-1.148311 1.819978 -0.726369 -0.809442 0.360505 0.429270 
-0.744426 0.658619 0.039979 0.629210 0.363596 -0.684968 
-0.447831 -0.612045 0.048203 0.187424 -0.002962 -0.905561 
1.135981 2.355630 0.800287 0.168406 -0.430562 0.876152 
-0.400448 2.574502 -0.390848 -0.727469 0.513170 0.437568 
-0.598723 2.224441 -0.312464 -0.777774 0.530935 0.327353 
0.948951 1.855658 0.525152 0.486331 -0.506829 0.662612 
-0.340838 -0.931437 0.143796 -0.403778 -0.113204 0.891575 
-0.530658 -0.936652 0.004916 0.398652 -0.116841 -0.901628 
0.087448 0.520555 0.593953 0.133729 -0.149016 0.975425 
-0.629936 0.975349 0.274302 0.902158 0.098292 -0.404971 
1.078026 2.304010 0.791276 0.166450 -0.421661 0.867991 
1.531722 1.369146 -0.034486 -0.164519 0.424104 -0.838892 
-1.007440 1.536683 -0.075418 0.752440 -0.212332 -0.589685 
-1.190903 0.831338 -0.441157 -0.808830 -0.102484 0.550184 
0.158484 1.231452 0.424525 0.622483 0.756318 0.038390 
1.498566 1.017387 -0.431722 0.346015 -0.505365 0.735695 
-0.859986 0.512635 -0.175219 0.636556 0.241326 -0.664241 
-1.381292 1.496284 -0.631691 -0.802427 0.345866 0.483867 
0.002280 1.331669 0.227279 0.380443 -0.018284 -0.890788 
0.207207 0.674253 0.565493 0.294432 0.261653 0.891854 
-0.396264 0.464544 0.225984 -0.375095 0.408547 -0.753663 
1.616957 2.269863 0.574682 0.163184 -0.540459 0.813515 
0.785205 0.252682 -0.056009 -0.229188 0.146373 -0.816115 
-0.045442 0.632193 0.588741 -0.036723 0.165790 0.975830 
-0.523063 -0.646750 0.008595 -0.675272 -0.033234 0.721750 
-0.617008 1.948014 0.169712 0.667108 -0.506416 -0.481079 
-0.038491 0.481045 0.590533 -0.077943 -0.169613 0.978177 
1.096905 0.322626 -0.212350 0.676006 -0.147863 0.711235 
-0.631910 -0.451239 -0.081347 0.482639 0.042441 -0.820664 
1.258571 2.045552 0.518115 0.338481 -0.584736 0.726593 
-0.073830 -0.328217 -0.072354 -0.428697 -0.239503 -0.850980 
0.154540 -0.490594 0.025138 0.272600 -0.365115 -0.866788 
0.016879 0.674441 0.576772 0.032360 0.077116 0.987756 
-0.278154 -0.239284 0.058289 -0.466221 -0.039916 -0.857338 
-0.335983 0.509384 0.518294 -0.365952 -0.150798 0.905130 
-0.550210 2.791018 -0.792152 -0.729287 0.443457 0.494757 
-0.868683 1.753027 -0.036554 -0.903400 0.246518 0.329684 
-1.163056 1.183702 -0.359940 -0.811383 0.112905 0.518908 
0.265816 -1.247316 0.140706 -0.435143 -0.293925 0.463207 
0.579596 0.349373 0.336753 0.651105 -0.346167 0.668024 
-0.948114 1.898922 -0.479486 -0.448636 0.842779 0.224472 
-1.021446 1.164555 -0.161235 -0.848492 0.107880 0.458363 
-0.301189 -0.819034 0.085749 0.166719 -0.144519 -0.966477 
0.390074 0.361209 0.184458 0.364165 0.301124 -0.841105 
-0.628902 2.505368 -0.698198 0.600608 -0.606531 -0.488950 
0.795235 0.628149 0.213777 0.721916 -0.089375 0.633047 
-0.611011 2.885309 -0.968148 -0.790316 0.366386 0.488274 
0.186595 0.374484 -0.052128 0.609063 0.093399 -0.771256 
0.606453 1.242195 0.436090 0.808036 -0.079623 0.553188 
-0.222002 0.221456 -0.041502 -0.680544 0.009685 -0.720738 
-1.203930 1.701616 -0.645205 -0.831947 0.303828 0.454449 
-0.344242 0.115662 0.127391 -0.284237 0.147813 -0.939369 
-0.795474 1.786897 -0.069647 0.611298 -0.620148 -0.344700 
-0.623563 2.445737 -0.640875 0.576240 -0.640121 -0.486556 
-0.154666 1.237965 0.435873 -0.602382 0.776571 0.082425 
0.346389 0.029796 0.108368 0.352536 0.082241 -0.915563 
-0.173543 0.507037 -0.039296 -0.605551 0.121283 -0.760638 
1.994601 1.317844 -0.163489 -0.163153 0.521735 -0.832649 
-0.504224 -1.005760 0.026660 0.436131 -0.103816 -0.884608 
-0.077275 -0.404459 0.387906 -0.062366 -0.153308 0.983426 
-0.552356 2.223218 -0.231569 0.633157 -0.660904 -0.390038 
0.271870 0.792386 0.106475 0.651049 0.509589 -0.534189 
-0.778142 0.917652 0.086692 0.676774 0.229914 -0.679055 
-0.485956 2.026365 0.474649 -0.710180 0.622577 0.324330 
1.498487 1.714564 0.196407 0.353236 -0.329756 0.834010 
0.626834 0.603662 0.343759 0.170273 -0.103875 0.928102 
0.931234 -0.481790 -0.189378 0.434292 0.081609 0.879681 
-0.426599 2.814305 -0.626715 0.790151 -0.381014 -0.474775 
1.479907 2.097281 0.482583 0.230196 -0.681558 0.680325 
1.020489 1.171038 0.083991 0.547645 -0.288327 0.705604 
-1.134161 1.030047 -0.353411 -0.811621 0.038821 0.526128 
1.272585 1.436738 0.051906 0.197129 -0.660127 0.668299 
-0.284740 0.587457 0.550983 -0.410153 -0.077724 0.883790 
1.443391 1.062567 -0.414182 -0.424055 0.476994 -0.768250 
0.178593 0.581830 -0.027283 0.549357 0.197466 -0.778719 
-0.732374 0.449289 -0.098361 0.403670 0.227756 -0.733246 
-0.427047 -0.095668 0.223296 -0.719431 -0.221207 0.640698 
0.031845 0.448945 0.585486 0.067282 -0.184877 0.976654 
1.793719 2.492779 0.746009 -0.086779 0.664004 -0.741873 
-0.776140 -0.338770 -0.249530 -0.695912 -0.104399 0.666380 
-0.385304 2.510171 -0.284824 0.800096 -0.449448 -0.386730 
2.009749 2.318343 0.578851 -0.072143 0.717313 -0.687125 
-0.462357 0.351883 0.402597 -0.547244 -0.291143 0.744642 
-0.819864 1.320107 0.141330 0.692453 0.020760 -0.660027 
-0.695636 1.210995 0.296604 0.654925 0.154223 -0.706679 
-0.439167 2.209680 0.075828 0.803823 -0.453589 -0.367865 
-0.636320 0.339454 -0.069485 0.195425 0.187304 -0.790737 
-0.804658 1.841414 0.004497 -0.684211 0.658163 0.264410 
0.753009 0.315206 0.124943 0.676433 -0.275121 0.676470 
1.030606 1.906149 0.523588 0.447399 -0.527508 0.679308 
1.435087 1.648626 0.154549 -0.123630 0.684230 -0.707741 
-0.999043 2.027669 -0.781297 0.770415 -0.431516 -0.457897 
2.111344 2.296023 0.553922 0.078292 -0.612203 0.773805 
-0.177011 -0.103737 -0.052910 -0.592806 -0.062957 -0.792171 
0.242296 -0.154390 0.395146 0.451050 -0.234270 0.822667 
0.890939 -0.056042 -0.109422 0.631092 -0.114307 0.751555 
1.533532 2.019354 0.403045 0.215440 -0.659271 0.704176 
-0.687177 1.439141 0.469364 -0.962008 0.096540 0.224903 
-0.173348 0.984336 0.154509 -0.601508 0.416659 -0.666871 
1.363289 2.361388 0.728057 0.236769 -0.599925 0.760042 
0.753778 0.853649 0.177351 -0.480805 0.276381 -0.827500 
0.305450 0.308674 0.011631 0.643324 0.039768 -0.749025 
0.889839 0.659155 0.083180 0.766575 -0.118136 0.627793 
-0.167420 1.207876 0.352995 -0.736454 0.630486 -0.160520 
-1.073152 0.857862 -0.316833 -0.812830 -0.030355 0.529742 
0.295051 0.732367 0.054890 0.667166 0.479332 -0.558914 
0.244732 1.006798 0.262789 0.797435 0.382570 -0.373254 
0.689684 -0.560089 -0.058660 0.564259 -0.044804 0.815890 
1.330178 0.652284 -0.365793 0.709889 -0.158691 0.684027 
-0.801222 2.106066 -0.563663 0.758832 -0.497998 -0.409108 
2.249939 2.316239 0.558974 -0.047988 0.680004 -0.730808 
0.659395 0.142202 -0.006251 -0.067976 0.122879 -0.847962 
2.053933 2.395676 0.643447 -0.069359 0.670132 -0.737477 
0.421774 0.164972 0.390768 0.538393 -0.295705 0.785471 
-0.405186 2.217681 0.137578 0.780232 -0.476470 -0.390703 
1.163088 1.968080 0.495215 -0.247972 0.423834 -0.855721 
0.164008 1.054154 0.487449 0.566892 0.728509 0.142060 
1.082488 1.761639 0.381416 -0.228937 0.638377 -0.700471 
0.106230 -1.159394 0.196996 0.317197 -0.004616 0.916709 
-0.776735 0.476972 0.025413 -0.808069 -0.266868 0.510767 
1.128518 0.047438 -0.345630 -0.497321 0.031981 -0.825740 
1.177609 0.598090 -0.243032 -0.633065 0.223547 -0.734883 
0.031402 -1.162498 0.194484 0.218690 -0.283591 -0.928389 
1.105069 0.817576 -0.078079 0.626589 -0.256185 0.695681 
-0.039092 0.075481 -0.148151 -0.512028 -0.023898 -0.842284 
1.125330 0.485412 -0.185481 0.701125 -0.182768 0.685108 
-0.062663 1.077917 0.157191 -0.362188 0.449272 -0.802728 
-0.905905 0.565925 -0.191716 0.726607 0.237611 -0.639027 
2.180553 2.191575 0.457017 0.078862 -0.619875 0.770686 
-0.813268 -0.248471 -0.276578 -0.707745 -0.120101 0.650625 
-0.646779 0.736194 0.267690 0.884226 0.238159 -0.342326 
-0.675051 2.169864 -0.430850 0.717225 -0.570055 -0.388565 
-0.227428 1.058763 0.610888 -0.425762 -0.537346 0.644777 
-0.738190 1.703129 0.447313 -0.948083 0.188219 0.215776 
-0.090670 0.808914 0.586833 -0.208716 -0.196989 0.950912 
0.929470 0.374444 -0.113495 -0.414076 0.171942 -0.779233 
-0.693929 -0.679834 -0.146052 -0.563217 0.074175 0.784057 
0.400256 -0.190954 0.247750 0.626769 -0.210024 0.742839 
1.500108 1.056170 -0.227461 -0.043315 -0.659894 0.670375 
-0.763786 -0.694035 -0.177051 -0.477914 0.179196 0.836397 
-1.436189 1.365280 -0.670049 0.783609 -0.221173 -0.535709 
-1.272567 1.353504 -0.459199 0.789044 -0.153100 -0.553900 
-0.993088 0.590994 -0.308660 0.763425 0.155916 -0.608615 
-0.045941 0.744777 -0.025331 -0.324938 0.431881 -0.821233 
-0.695816 0.201046 -0.124163 0.312984 0.142739 -0.756727 
-1.163158 1.948570 -0.951052 0.736266 -0.504216 -0.436491 
-0.200465 2.714900 -0.168928 0.859283 -0.358289 -0.332360 
0.594364 1.315573 0.399527 -0.329176 0.336141 -0.872193 
-0.359317 3.289057 -0.800190 -0.818484 0.285230 0.497560 
1.670590 2.411686 0.689347 0.154697 -0.682307 0.706917 
