-1.389516 0.914744 -0.790643 -0.825536 -0.272108 0.476886 
-0.469316 0.233232 0.347468 -0.696550 -0.333965 0.617772 
-1.277716 0.755758 -0.746697 0.809746 0.313644 -0.483563 
-0.378202 -0.740563 0.145785 -0.650689 -0.104138 0.742674 
-0.206523 -0.822503 0.089555 0.185398 -0.181647 -0.952408 
-0.165152 1.187441 0.564242 -0.922991 -0.222356 -0.250169 
-0.812956 1.764607 0.108973 -0.906609 0.248951 0.312499 
-0.206563 1.144761 0.360205 -0.857347 0.484179 -0.111597 
1.168867 0.176967 -0.379023 -0.523953 0.027827 -0.815474 
0.351050 -0.087122 0.121619 0.313392 0.079100 -0.933024 
-0.353036 2.412629 -0.101072 0.806116 -0.471177 -0.347689 
-0.762380 0.407048 -0.019807 -0.798456 -0.283199 0.521497 
1.775045 2.296939 0.690397 0.140142 -0.638123 0.741614 
-1.287218 0.599944 -0.809486 -0.793150 -0.302592 0.457291 
1.955601 2.107475 0.475717 0.126216 -0.766076 0.622073 
-1.149785 1.946715 -0.814599 -0.540962 0.725228 0.343382 
0.688247 1.777170 0.659115 0.617467 -0.512722 0.534820 
0.792124 0.524989 0.148180 0.731210 -0.223992 0.632606 
-0.391040 2.036916 0.544729 0.907930 -0.311650 0.098720 
-0.495788 0.616864 0.371832 0.246417 0.673316 -0.406931 
-0.296098 -0.513944 0.060717 -0.294616 -0.070698 -0.874775 
0.304641 0.438149 0.030508 0.632968 0.082461 -0.749446 
1.193481 1.803589 0.426330 0.363187 -0.545353 0.750039 
-0.522101 0.220605 -0.003316 0.044141 0.161569 -0.840492 
-1.050363 1.871957 -0.565764 0.537296 -0.739324 -0.379235 
0.554047 1.701554 0.638966 -0.026257 0.575511 -0.785090 
-1.143083 0.597626 -0.599696 0.783004 0.281091 -0.524079 
-0.476453 2.004442 0.369608 0.807526 -0.403432 -0.416038 
-1.321824 1.445880 -0.523844 0.789399 -0.159331 -0.548362 
-0.690291 2.397336 -0.662107 -0.788367 0.434565 0.414013 
-0.905495 0.949719 -0.115319 0.743600 0.118898 -0.606096 
0.335958 0.699764 0.511054 0.640691 0.342502 0.644013 
0.380900 1.547116 0.614354 -0.759761 0.096439 -0.635637 
0.092903 0.876039 0.055625 0.501438 0.416754 -0.739334 
-0.155924 2.905109 -0.259388 -0.880383 0.292156 0.364688 
-0.583634 0.590161 0.121297 0.230394 0.443052 -0.682528 
-0.571671 1.503674 0.634638 -0.229270 -0.382147 0.843339 
0.817481 1.778336 0.577371 -0.197485 0.576525 -0.760359 
-0.451064 2.757792 -0.583419 -0.678399 0.494695 0.514659 
-0.556490 0.467810 0.469122 -0.510865 -0.226564 0.827345 
-0.587375 1.264823 0.448045 0.891859 0.116780 -0.381324 
0.339946 -1.226564 0.081160 -0.343817 0.003767 -0.905490 
-1.136351 1.119346 -0.359678 -0.817831 0.034632 0.518257 
1.160480 2.024901 0.629806 0.322853 -0.524809 0.775433 
-0.481016 2.064299 0.315524 -0.655837 0.693240 0.254900 
2.043855 2.205421 0.564748 0.107261 -0.652873 0.735141 
-0.530235 2.109836 0.076915 -0.772619 0.565565 0.223636 
0.140640 -0.770533 0.091192 -0.093611 -0.223369 -0.962314 
-0.959105 2.099220 -0.728960 0.752752 -0.449521 -0.468592 
-0.953464 0.119213 -0.446835 0.648398 0.194434 -0.639116 
2.199528 2.319002 0.662807 -0.067347 0.739803 -0.668642 
-0.349412 0.215393 0.129034 -0.261487 0.174151 -0.944405 
0.464478 1.506303 0.563850 -0.281204 0.405451 -0.862624 
1.201034 0.546313 -0.310617 -0.636224 0.150651 -0.739483 
0.094151 1.294262 0.287816 0.696005 0.571583 -0.394377 
0.737491 -0.242683 -0.047103 -0.445410 0.083141 -0.848595 
-0.730381 0.999800 0.170044 0.682379 0.255254 -0.661256 
-0.749485 0.945159 0.124397 0.691420 0.256170 -0.655024 
-0.714004 2.096167 -0.351780 0.758875 -0.490128 -0.410499 
-0.343873 -0.734546 0.059635 -0.021568 -0.070865 -0.890594 
-0.023889 1.149681 0.579915 0.046460 0.498619 0.837899 
-1.441597 1.674003 -0.897979 0.737647 -0.451818 -0.486389 
-0.976460 1.823935 -0.340563 -0.856640 0.270337 0.434951 
1.277281 2.273211 0.772089 -0.256254 0.668163 -0.696017 
-0.667977 2.152666 -0.358669 0.736662 -0.538449 -0.403486 
-0.605942 2.273791 -0.368461 -0.763183 0.498014 0.385991 
1.369514 1.281387 -0.094290 -0.159222 0.583792 -0.719815 
-0.501892 2.178659 -0.023034 0.615663 -0.637564 -0.430974 
-0.593252 2.097826 -0.061370 -0.726555 0.608527 0.306819 
1.618189 2.128144 0.532236 -0.175638 0.400106 -0.898111 
0.549983 -0.631100 0.030856 0.589357 -0.073727 0.794090 
-0.811705 1.379777 0.243204 -0.918214 0.134852 0.314430 
-0.355899 0.371630 0.490297 -0.391270 -0.212400 0.884866 
0.319986 0.301800 0.040552 0.562258 0.059959 -0.795594 
0.335518 0.427773 0.101070 0.546926 0.192777 -0.765437 
1.059049 2.268633 0.898703 0.262766 -0.585446 0.764928 
0.421715 -0.088626 0.087585 0.221214 0.075015 -0.907551 
-1.271469 0.677345 -0.782594 0.795878 0.330099 -0.475825 
0.765947 -0.523923 -0.122657 0.536208 -0.007335 0.832147 
-0.887290 1.558269 0.116562 0.735020 -0.145092 -0.622782 
-0.351307 0.332802 0.154947 -0.345237 0.240301 -0.876108 
-1.029676 -0.025419 -0.507064 0.638559 0.068361 -0.656480 
0.326159 0.837860 0.375477 0.895174 0.350658 0.115579 
0.175736 -0.005310 -0.054809 0.579307 -0.041871 -0.804313 
-0.372705 0.578107 0.255068 -0.595255 0.445286 -0.624384 
-0.523314 0.146690 -0.009248 0.053498 0.141318 -0.837637 
0.902417 0.341540 -0.110659 -0.406669 0.161746 -0.769379 
1.116253 -0.047406 -0.328402 0.534764 0.020090 0.819052 
-0.545213 2.851700 -0.809204 -0.750538 0.416055 0.499018 
-0.712637 1.438475 0.359164 0.691094 0.017106 -0.679843 
0.690317 1.914967 0.794309 0.501452 -0.479567 0.684719 
-1.064646 1.676932 -0.293729 0.695407 -0.454610 -0.472083 
1.320292 2.424516 0.945752 0.178725 -0.600701 0.767453 
1.450081 1.690139 0.220041 0.394744 -0.325736 0.819127 
-0.514723 -0.863872 -0.012968 -0.626482 0.027435 0.769528 
-0.844587 2.264154 -0.754505 -0.664324 0.585832 0.409446 
-1.157582 1.448096 -0.318881 -0.812035 0.209306 0.510149 
0.878286 -0.415028 -0.183725 -0.416307 -0.044591 -0.885595 
-0.138268 3.094223 -0.325823 -0.809145 0.336878 0.464734 
1.753029 1.492057 -0.008422 0.321907 -0.390277 0.821922 
-0.079597 -0.619888 0.063627 -0.062267 -0.282716 -0.947756 
-1.279941 1.945689 -1.030849 0.687790 -0.573491 -0.438363 
-0.349049 0.150164 0.423369 -0.543133 -0.266344 0.778765 
-0.737408 -0.540081 -0.214914 0.496154 -0.035230 -0.803505 
-0.087360 -0.628419 0.320023 -0.229608 -0.302543 0.920206 
-0.564744 -0.340475 -0.040282 0.343837 0.055603 -0.826412 
0.860113 0.290288 -0.027899 0.712880 -0.209761 0.665881 
0.469226 -0.764042 0.058735 -0.234145 -0.002849 -0.938191 
-0.842543 0.224817 -0.211272 -0.798792 -0.166934 0.561741 
-0.211319 0.649850 -0.010878 -0.584125 0.214697 -0.753045 
-0.635517 0.003283 -0.095912 0.312854 0.106963 -0.773511 
0.208068 0.969343 0.167589 0.651667 0.408189 -0.633922 
0.702015 0.190400 -0.025882 -0.144962 0.132920 -0.829230 
-0.673942 2.259250 -0.492717 0.700324 -0.559430 -0.430904 
-0.857606 1.669335 0.237893 -0.900187 0.234971 0.312173 
1.158200 0.879268 -0.165273 -0.552425 0.336622 -0.736127 
0.551794 0.330824 0.056947 0.050529 0.177357 -0.894292 
0.121791 0.172689 -0.099921 0.568843 0.014620 -0.813966 
1.535241 1.284453 -0.099215 -0.094140 -0.819605 0.543225 
-0.394356 2.410272 -0.168569 0.831649 -0.425932 -0.343893 
-0.508626 0.589442 0.197875 -0.069319 0.494751 -0.661064 
-0.818523 1.798771 -0.088398 0.505760 -0.737333 -0.349987 
0.198783 0.284652 0.541096 0.266003 -0.216668 0.929381 
-0.897200 1.472804 0.067285 0.732757 -0.095700 -0.616288 
-0.505573 0.387462 0.395871 -0.601790 -0.301864 0.694752 
1.044247 -0.032114 -0.301053 -0.478318 0.011532 -0.841999 
-0.320513 0.647822 0.034184 -0.697500 0.206731 -0.679472 
0.028096 -0.110751 -0.117610 0.432479 -0.143899 -0.863473 
0.889601 -0.485355 -0.179091 0.454225 0.063262 0.873824 
-1.233518 0.820315 -0.570052 0.791437 0.211651 -0.566942 
0.234938 0.486132 -0.011945 0.627459 0.094551 -0.756328 
-0.822092 1.223258 0.095390 0.703663 0.099819 -0.633838 
-0.326389 0.706196 0.109427 -0.748740 0.364134 -0.491628 
-0.260333 2.296192 0.346775 0.894436 -0.382938 -0.034687 
0.151439 0.835634 0.062545 0.524306 0.451249 -0.704629 
2.165855 2.045514 0.379801 -0.101246 0.686066 -0.713503 
0.997928 0.329183 -0.127090 0.701522 -0.175189 0.682488 
0.221504 0.824387 0.088163 0.582907 0.490057 -0.636462 
1.872252 1.751248 0.140131 -0.141320 0.665287 -0.728914 
-0.418120 -0.016966 0.276648 -0.703915 -0.238083 0.651394 
-0.383550 2.569860 -0.340297 -0.647061 0.564975 0.494922 
-0.199232 1.070833 0.223706 -0.689044 0.400406 -0.560133 
-0.807973 0.440289 -0.075595 -0.804654 -0.270410 0.519778 
1.558821 2.543406 0.992640 0.054509 -0.524840 0.824804 
-1.417614 1.594335 -0.747165 0.722996 -0.448111 -0.487371 
-0.088863 -0.955136 0.128168 -0.018418 -0.230826 -0.957953 
-0.202678 2.919197 -0.341327 -0.859763 0.309781 0.392225 
1.545742 1.689107 0.174492 -0.129112 0.719991 -0.673890 
0.111054 0.474598 0.593821 0.162311 -0.144656 0.971578 
-0.222652 0.397538 -0.019289 -0.669159 0.062692 -0.724661 
-0.014262 -0.481227 -0.014104 -0.157341 -0.549206 -0.810366 
-0.772941 1.976408 -0.268146 0.825107 -0.371293 -0.398375 
-0.620740 2.708077 -0.813232 -0.803847 0.376053 0.452540 
-0.515860 1.841342 0.548109 0.680117 -0.557073 -0.458766 
-1.471114 1.525851 -0.747291 0.774228 -0.347168 -0.519307 
-0.684506 1.061630 0.260614 0.665594 0.270309 -0.676414 
-0.520821 2.235988 -0.181569 0.633126 -0.642891 -0.416873 
-0.573827 2.723302 -0.758605 0.809075 -0.354516 -0.461378 
-0.534686 1.809582 0.727355 -0.499598 0.670029 0.460530 
-0.851195 1.972340 -0.345660 -0.478399 0.801256 0.287263 
-0.521717 -0.142796 0.042576 -0.800499 -0.165213 0.571620 
-0.728254 1.890584 -0.019335 0.832713 -0.323681 -0.400988 
-0.277888 2.520669 -0.034442 -0.746934 0.523873 0.380638 
-0.701058 0.686690 0.100547 0.829889 0.370210 -0.266262 
-0.554523 -0.428840 -0.016411 -0.731583 -0.081498 0.656754 
0.726125 0.194844 0.075191 0.701027 -0.235221 0.667190 
-0.676170 0.432468 -0.088344 0.325964 0.217998 -0.746795 
0.057409 -0.342887 0.396169 0.073948 -0.162738 0.980370 
1.197887 1.451128 0.063090 -0.369132 0.469327 -0.798110 
0.016884 -0.407490 -0.074157 0.316225 -0.341328 -0.884066 
-0.885208 2.035113 -0.504264 -0.465830 0.788670 0.299846 
-0.116232 0.446326 0.590951 -0.173453 -0.158337 0.967196 
0.915474 1.473943 0.215647 -0.335825 0.477805 -0.805555 
0.635675 0.462412 0.332489 0.641410 -0.228965 0.685119 
-0.683726 2.347521 -0.591166 -0.771006 0.468507 0.409433 
0.705013 0.391733 -0.012110 -0.149256 0.185117 -0.844205 
1.009304 1.343500 0.098479 -0.376257 0.477453 -0.787720 
-1.311520 0.672138 -0.841556 -0.816734 -0.337002 0.431882 
1.885385 1.597625 0.031257 0.243126 -0.523833 0.785530 
0.268111 -0.519044 0.031868 0.341372 -0.150379 -0.849493 
-0.521844 2.371336 -0.336108 -0.817713 0.420127 0.364213 
0.438846 -0.230135 0.070709 0.181255 0.041864 -0.894724 
0.038865 1.326627 0.248941 0.504662 0.342021 -0.740426 
1.315632 1.030083 -0.317182 -0.490536 0.426473 -0.743746 
-1.146907 0.266056 -0.646568 -0.715164 -0.180142 0.554553 
-1.094683 0.622793 -0.508852 0.793810 0.260628 -0.539233 
-1.293150 0.884081 -0.599289 -0.820595 -0.199409 0.529107 
0.451995 1.585408 0.591158 -0.254245 0.423506 -0.865515 
-0.140889 2.597741 0.069884 0.851047 -0.429888 -0.277360 
-0.378372 3.087646 -0.723559 0.790919 -0.335228 -0.511489 
-0.147175 2.831169 -0.209452 0.770238 -0.407887 -0.489379 
-0.388357 2.918405 -0.617880 0.802130 -0.342219 -0.484186 
1.507288 1.019155 -0.547945 -0.518953 0.390683 -0.738049 
1.270963 0.799518 -0.332959 -0.574360 0.332400 -0.729355 
-1.382758 1.573805 -0.645348 -0.794742 0.346223 0.496404 
0.029087 0.136805 -0.152791 0.504719 0.004402 -0.851831 
0.840914 0.654442 0.153141 0.827869 -0.109230 0.547548 
-0.637396 1.518388 0.514300 0.678948 0.003454 -0.709066 
1.547030 1.994254 0.440680 0.220784 -0.708865 0.652326 
1.268598 0.946984 -0.283726 -0.522451 0.385736 -0.738992 
-0.449017 3.010874 -0.781478 0.786504 -0.350417 -0.507831 
0.084496 0.715439 -0.025175 0.390205 0.354412 -0.818188 
-0.124773 -0.377365 0.392579 -0.129000 -0.173906 0.973796 
1.011708 2.067662 0.779204 0.384311 -0.561644 0.683189 
0.293005 1.688660 0.779038 -0.621039 -0.478966 -0.608989 
1.876283 1.814131 0.185132 -0.148184 0.663744 -0.730435 
0.960090 0.610645 -0.004587 0.754440 -0.164977 0.632050 
2.190068 2.119681 0.459433 0.098600 -0.722334 0.681399 
-0.101348 2.749521 -0.012380 0.944255 -0.242024 -0.134991 
0.229609 -0.724511 0.083425 -0.024983 -0.140726 -0.974279 
1.786777 2.508339 0.919015 0.151070 -0.818944 0.542374 
-0.182531 -1.156348 0.168592 0.212996 -0.196532 -0.953313 
-0.366647 -0.124595 0.326409 -0.674319 -0.231918 0.693855 
0.176690 -0.119833 0.435907 0.277513 -0.223378 0.912674 
-0.629087 -0.636341 -0.133791 -0.658747 -0.031368 0.716851 
-0.891165 0.297139 -0.246373 -0.801074 -0.172264 0.556329 
0.194223 0.310939 -0.055104 0.616434 0.043232 -0.777659 
-0.227002 -0.729367 0.247995 -0.301480 -0.283798 0.897661 
-1.452716 1.128946 -0.697806 -0.811441 -0.143258 0.559247 
0.507030 1.613811 0.629314 0.730569 -0.365983 0.486885 
-0.808972 1.625594 0.332419 -0.916415 0.208030 0.282621 
-0.208918 1.122877 0.286622 -0.799856 0.457814 -0.323485 
-0.240052 -0.556413 0.073073 0.088657 -0.249880 -0.928159 
-0.859603 2.010266 -0.429771 -0.461978 0.799065 0.290978 
-1.190036 1.204060 -0.418434 0.789473 -0.042957 -0.562488 
-0.509103 2.675332 -0.611021 -0.662151 0.522092 0.513136 
0.601244 0.521687 0.125150 -0.125426 0.339368 -0.827594 
-1.193960 0.781718 -0.495304 -0.822876 -0.193850 0.531247 
0.740181 -0.041809 -0.047302 -0.321024 0.102731 -0.829624 
0.387860 -0.573532 0.160405 0.626578 -0.156717 0.755140 
0.260577 0.260167 -0.015418 0.652806 0.009831 -0.753374 
1.784330 1.744000 0.162208 0.274943 -0.475148 0.785932 
-0.566569 0.042475 -0.049537 0.140338 0.109396 -0.808576 
-0.371030 -0.914314 0.128541 -0.517847 -0.095679 0.841723 
0.246233 0.398347 -0.013843 0.644503 0.063616 -0.752554 
-0.677693 0.610810 0.230281 -0.481534 -0.108562 0.851880 
0.110721 -0.632536 0.313622 0.189674 -0.318352 0.928231 
-0.729253 1.269490 0.351198 -0.945048 0.077997 0.275441 
-0.549859 -0.570399 -0.023641 0.444021 0.025152 -0.845831 
-0.688616 0.288373 -0.126689 0.332724 0.166542 -0.742098 
-0.151352 2.711862 -0.062265 -0.826948 0.408158 0.353363 
-1.014167 1.948481 -0.593413 -0.420063 0.832569 0.282721 
0.583517 -0.695597 0.000820 0.563649 -0.049817 0.817955 
-0.351473 2.637383 -0.349648 -0.689260 0.520507 0.483430 
0.812984 2.054873 0.807770 -0.223122 0.711186 -0.661280 
-0.430764 2.351762 -0.184129 0.738011 -0.544079 -0.389544 
1.835708 2.587560 1.018881 0.048167 -0.609088 0.756464 
0.389630 -0.656742 0.155929 0.602177 -0.141231 0.776713 
-0.375976 -0.038402 0.091452 -0.189651 0.102801 -0.921103 
-1.486549 1.106161 -0.772493 -0.813805 -0.188234 0.541334 
0.081781 -0.645805 0.075937 0.058471 -0.261043 -0.953181 
-0.373867 0.469925 0.251682 -0.446736 0.434612 -0.743827 
1.029121 1.698990 0.393828 -0.177622 0.769677 -0.574431 
-0.708341 1.713766 0.346308 0.634905 -0.300578 -0.597542 
-0.296667 0.519186 0.017690 -0.708397 0.076607 -0.695083 
0.765592 0.995822 0.207640 -0.475749 0.323827 -0.808224 
0.938279 0.715684 -0.013741 -0.594794 0.243811 -0.756453 
-0.861159 -0.418076 -0.313667 -0.553426 0.073053 0.755110 
-0.359111 2.218559 0.322646 -0.702151 0.633657 0.270625 
-1.092174 0.523407 -0.541025 0.764244 0.259972 -0.548384 
-1.090088 0.760256 -0.406395 0.784177 0.155505 -0.583643 
-0.590548 1.287810 0.541935 -0.395945 -0.344038 0.784753 
-1.181284 1.827670 -0.708134 0.604908 -0.648215 -0.413287 
1.529117 1.166165 -0.187513 -0.120998 -0.796174 0.555472 
-1.002916 1.850448 -0.458934 0.526570 -0.741262 -0.377671 
-0.190791 3.164907 -0.458373 -0.845473 0.287571 0.439917 
-1.096536 2.041054 -0.868011 0.722973 -0.506485 -0.455189 
-1.038525 1.804842 -0.416701 -0.841964 0.272216 0.463991 
-0.599853 1.158540 0.411587 0.931448 -0.017973 -0.209629 
-0.376552 0.728706 0.367936 -0.910219 0.369076 0.040581 
-0.242903 2.834167 -0.347791 0.771425 -0.406073 -0.487410 
0.720834 0.270683 -0.028850 -0.169663 0.152812 -0.828878 
1.539620 1.835153 0.289337 -0.211807 0.660428 -0.713742 
0.333851 0.129414 0.076873 0.426962 0.063601 -0.869368 
0.833890 1.955128 0.765862 0.454228 -0.507770 0.684705 
0.145329 -0.212203 -0.055408 0.526243 -0.116992 -0.828261 
0.910259 0.404931 -0.022177 0.711341 -0.231040 0.659308 
-0.521669 2.303636 -0.249281 -0.784270 0.496698 0.349364 
-0.606598 1.667528 0.692696 -0.462162 -0.267348 0.752262 
-0.179585 1.198241 0.407604 -0.703543 0.674101 -0.055858 
-0.761524 1.078008 0.228769 -0.936617 0.028294 0.319338 
0.286348 -0.845600 0.180675 0.330086 -0.189573 0.898868 
0.489102 0.132684 0.311714 0.638637 -0.296109 0.700411 
-0.486174 -0.000395 0.009342 0.001997 0.104227 -0.855790 
-0.061492 0.852652 0.601962 -0.193649 -0.173062 0.955835 
-0.706876 0.919881 0.317420 -0.729484 -0.217456 0.629317 
0.050131 -1.127129 0.185232 0.401044 -0.149662 0.860270 
1.593023 1.195436 -0.178201 -0.116282 -0.797779 0.561854 
1.751803 1.269632 -0.170380 -0.087111 0.597250 -0.741881 
0.923852 0.492383 -0.109551 -0.434917 0.199850 -0.773714 
-0.838370 0.046622 -0.250119 -0.764502 -0.146482 0.593115 
0.597847 1.569361 0.473558 -0.271239 0.449103 -0.846101 
-0.570798 1.077788 0.499100 0.923706 0.039466 -0.282771 
-0.378511 -0.038208 0.340667 -0.658789 -0.241087 0.705294 
-0.110355 -1.209005 0.192077 -0.341068 -0.204665 0.695828 
1.301429 0.873829 -0.329413 0.589981 -0.348019 0.704390 
0.809620 -0.425042 -0.154348 -0.392407 -0.018910 -0.891881 
-0.262307 3.029773 -0.509781 0.786207 -0.353200 -0.504966 
0.004142 -0.339252 -0.094496 0.341638 -0.297960 -0.882051 
-0.272859 -0.191307 0.383475 -0.552612 -0.235746 0.761879 
1.411429 0.671400 -0.507155 -0.639958 0.092338 -0.744985 
-0.490951 2.171415 0.049522 -0.786475 0.547186 0.232728 
1.195147 0.688545 -0.271548 -0.618338 0.273769 -0.723147 
-0.718299 1.630805 0.494601 -0.944561 0.183568 0.224273 
-0.269130 2.948678 -0.470921 0.779602 -0.374017 -0.500516 
-0.902470 1.094099 -0.007302 -0.883419 0.046386 0.405768 
-1.048030 1.752185 -0.346377 -0.837697 0.279322 0.465858 
0.047935 -0.742386 0.293025 0.313215 -0.222039 0.915175 
-0.741747 1.503840 0.336202 0.700754 -0.038761 -0.671934 
0.668892 -0.302063 -0.005030 0.638379 -0.116514 0.746883 
1.360198 2.132038 0.622225 -0.251279 0.774273 -0.573799 
-0.121534 2.966514 -0.235685 -0.878672 0.286648 0.371404 
-0.674241 1.486404 0.441083 0.685264 0.005599 -0.695008 
-0.330989 -0.965495 0.088151 0.227981 -0.071338 -0.965020 
0.725250 -0.112069 -0.019264 0.670454 -0.144074 0.716434 
-0.610581 -0.029819 -0.036286 -0.808105 -0.164161 0.562987 
1.022400 1.108226 0.057241 0.582122 -0.306513 0.678844 
1.239456 1.124504 -0.191190 -0.461410 0.444134 -0.750961 
1.078944 0.776346 -0.081438 0.674983 -0.236962 0.663326 
-0.432538 2.593454 -0.437577 0.855570 -0.306314 -0.412528 
1.601825 1.890255 0.316723 -0.228393 0.633478 -0.735534 
-0.325877 -0.474257 0.115299 -0.161540 0.010205 -0.950956 
0.297183 0.916682 0.384665 0.916332 0.295676 0.098272 
-0.376909 0.672297 0.463153 -0.758762 0.374388 0.418964 
0.965264 1.790709 0.513634 -0.259272 0.618963 -0.710337 
0.040517 -0.082023 0.462544 0.098172 -0.219172 0.968402 
-0.737045 2.422587 -0.765156 0.672921 -0.541262 -0.484806 
-0.602629 2.399548 -0.513164 -0.812231 0.406274 0.392686 
-0.602339 0.380728 0.228782 -0.780880 -0.353170 0.506464 
2.144590 2.207956 0.553265 -0.082084 0.747902 -0.654517 
-0.193934 1.048529 0.503663 -0.418650 0.800555 0.130463 
-1.122216 0.348948 -0.646612 0.705365 0.263796 -0.560527 
-1.420572 1.324766 -0.646643 0.790398 -0.028163 -0.563541 
-0.844331 1.171600 0.044682 0.712396 0.100888 -0.626256 
-1.201716 1.891116 -0.830329 0.617275 -0.650345 -0.412814 
1.334953 1.874831 0.392293 -0.281505 0.646468 -0.702525 
1.905575 1.960086 0.317447 -0.148200 0.586369 -0.782201 
-1.095206 1.560687 -0.226203 0.780087 -0.249147 -0.549906 
0.464746 1.430352 0.638679 0.404465 -0.223871 0.793072 
-0.438109 -1.094001 0.060208 -0.693112 0.180009 0.676916 
-0.621969 0.250404 0.118355 -0.784407 -0.295695 0.532740 
-0.969958 0.737098 -0.228948 -0.842162 -0.113080 0.488953 
-0.946065 1.963700 -0.535093 0.791804 -0.372473 -0.478292 
0.923669 0.761727 0.057524 0.768274 -0.096796 0.613980 
0.058935 0.557004 0.604213 0.107385 -0.110235 0.983995 
2.018052 2.085396 0.439854 -0.119622 0.603388 -0.766314 
-0.613433 0.091484 -0.082235 0.218639 0.118958 -0.781744 
0.061908 -0.243209 0.421468 0.096253 -0.185017 0.974464 
0.390695 -0.041666 0.339676 0.595057 -0.247877 0.758535 
-0.507354 -0.091562 -0.011712 0.055403 0.079730 -0.841548 
2.118754 2.111411 0.456379 -0.102116 0.644036 -0.738636 
-0.267961 1.009858 0.413076 -0.915206 0.349764 0.106366 
-1.264305 1.634665 -0.535379 -0.808496 0.321256 0.489694 
-1.023766 2.030684 -0.741646 0.749315 -0.455410 -0.464746 
1.893244 1.366777 -0.129107 0.232655 -0.556057 0.791204 
0.061525 -1.036432 0.183281 0.289096 -0.093772 0.944211 
-0.603618 1.754441 0.684276 -0.732821 0.643518 0.099071 
0.789677 1.168985 0.233042 -0.416893 0.385651 -0.814172 
-0.073568 -0.692365 0.087743 -0.089615 -0.244993 -0.951445 
0.672934 -0.064510 -0.020964 -0.196183 0.090925 -0.842403 
-0.422868 -1.011720 0.069640 -0.606927 0.043937 0.767848 
-0.611948 1.878068 0.357307 -0.769014 0.590439 0.079675 
-0.630465 1.077436 0.424068 -0.501870 -0.346847 0.769129 
0.395019 -0.907869 0.087783 -0.174743 -0.026801 -0.963041 
0.022389 0.144363 0.521074 0.085257 -0.244311 0.964112 
1.434845 1.746462 0.267977 0.365894 -0.403460 0.796602 
-0.216870 0.798211 0.070296 -0.576083 0.495635 -0.626768 
1.137566 1.276116 -0.004807 0.453858 -0.466639 0.731040 
1.031796 1.183847 0.039796 -0.433950 0.429788 -0.776264 
-0.319378 2.465694 -0.009811 -0.739220 0.532805 0.367407 
1.556733 1.489428 0.031014 -0.272828 0.437191 -0.852162 
0.287820 -0.395085 0.084048 0.417582 -0.046451 -0.887965 
-0.567726 1.430690 0.616509 0.937349 -0.122827 0.024472 
1.828722 1.288019 -0.176668 -0.122175 0.584238 -0.762169 
-0.128748 1.104682 0.438547 -0.793822 0.041152 0.533031 
-1.137563 1.264452 -0.332903 -0.815434 0.116459 0.513613 
0.888336 0.462945 0.036026 0.703828 -0.263950 0.653848 
-0.516943 0.610388 0.288687 0.205035 0.562468 -0.391090 
-0.268187 0.156825 0.462719 -0.413191 -0.254059 0.847334 
0.697683 0.468691 0.038955 -0.213700 0.231417 -0.842454 
-0.717728 1.764341 0.206365 0.560181 -0.502984 -0.489160 
0.970407 0.395692 -0.137424 -0.511068 0.176238 -0.753318 
1.407386 2.243484 0.727806 0.244272 -0.638522 0.713440 
-0.010564 -1.243831 0.216399 -0.560927 -0.522357 0.622695 
-1.234256 0.758297 -0.622915 -0.828714 -0.259711 0.482990 
-0.606986 0.306473 0.178222 -0.776150 -0.333091 0.525958 
0.402068 0.152566 0.115237 0.246382 0.138760 -0.933828 
-0.128882 -0.831739 0.102428 0.089238 -0.229561 -0.964559 
0.472801 -1.351381 0.089859 0.857515 0.076352 0.331179 
-0.384719 -0.162748 0.260294 -0.708036 -0.204470 0.664160 
-0.963041 0.032356 -0.486258 0.621362 0.188563 -0.647680 
-0.811353 -0.555432 -0.250784 -0.512528 0.133831 0.800866 
0.590467 1.635875 0.615166 0.592054 -0.387397 0.550734 
1.263719 1.832338 0.392461 -0.275165 0.677888 -0.665294 
-0.481573 1.916529 0.522746 0.789672 -0.397173 -0.457295 
0.724431 -0.641519 -0.091550 -0.360341 -0.054283 -0.915836 
0.342166 -0.915771 0.148070 0.395119 -0.139904 0.894899 
-1.394437 0.973531 -0.725270 -0.819834 -0.219834 0.515932 
0.318491 -0.949744 0.089007 -0.184269 -0.069599 -0.973005 
-1.356473 0.962432 -0.664717 0.794243 0.198551 -0.567743 
0.153884 0.128869 0.505300 0.216439 -0.247978 0.943851 
-0.118104 0.297048 -0.102960 -0.609597 0.050333 -0.778901 
1.200930 2.116913 0.665905 -0.287459 0.733634 -0.610872 
-0.513954 2.812839 -0.732581 0.806425 -0.347100 -0.472596 
-0.171806 0.905115 0.116657 -0.610344 0.418309 -0.654098 
-1.410681 1.640821 -0.802348 0.720555 -0.463193 -0.481937 
-1.031136 1.984865 -0.672013 -0.477515 0.777724 0.312535 
1.497737 1.082438 -0.305160 -0.036704 0.675783 -0.637567 
-0.436038 2.123383 0.230889 0.806594 -0.432442 -0.386397 
0.982718 2.003752 0.716947 0.406088 -0.517350 0.718334 
-0.826515 -0.042399 -0.265123 -0.751133 -0.140984 0.603934 
0.157347 1.125551 0.206148 0.545296 0.437392 -0.703200 
0.168187 0.674024 0.574850 0.202431 0.209330 0.932620 
0.575268 0.976939 0.335763 -0.795860 0.005153 -0.601548 
-1.144894 1.561337 -0.282442 -0.810942 0.280145 0.504048 
0.216003 0.886301 0.547153 0.618292 -0.003178 0.767065 
1.395680 2.435193 0.922968 0.237593 -0.755195 0.588464 
-0.927833 2.019556 -0.578314 0.783389 -0.389370 -0.477193 
-0.004432 0.462308 0.594988 -0.041834 -0.157932 0.984239 
1.250593 0.358694 -0.419515 0.661629 -0.069659 0.738079 
0.391206 0.138987 0.413219 0.535766 -0.279334 0.794599 
-0.935338 1.831761 -0.282530 -0.867312 0.271107 0.411898 
0.632440 0.164442 0.005554 -0.054153 0.129806 -0.852123 
-0.149081 2.767787 -0.150917 0.770612 -0.427480 -0.468421 
0.980020 1.503341 0.245385 0.403976 -0.598987 0.579449 
-0.526669 2.197173 -0.118984 0.647060 -0.644041 -0.389519 
-0.296019 0.880609 0.265433 -0.859049 0.365597 -0.284692 
0.738840 1.919513 0.725591 -0.204409 0.730811 -0.644321 
1.184919 1.055182 -0.143921 -0.488875 0.406771 -0.747209 
-0.242372 0.878986 0.516294 -0.718629 0.063202 0.656145 
-0.131538 1.123785 0.193577 -0.490181 0.438147 -0.747051 
-0.614047 1.780326 0.571457 -0.777430 0.593204 -0.007685 
-1.076810 1.085907 -0.326920 0.786725 -0.038787 -0.562299 
0.467634 0.271375 0.396342 0.559300 -0.291864 0.758397 
0.654541 1.166624 0.397257 0.785961 -0.078577 0.560408 
0.762158 0.125769 -0.005719 0.711387 -0.191389 0.674140 
-0.697877 0.495449 -0.057402 0.425174 0.258831 -0.719705 
-0.602799 -0.854940 -0.065359 -0.554364 0.140754 0.804065 
-0.817175 2.090107 -0.502098 0.763111 -0.451869 -0.448177 
0.476873 1.800318 0.754304 -0.157823 0.735601 -0.656012 
-0.655588 1.449025 0.586463 -0.739140 -0.184363 0.632473 
-0.554603 1.986639 0.230681 0.633541 -0.522944 -0.510384 
-0.934259 1.696631 -0.005501 -0.872916 0.264280 0.377295 
-0.287082 0.266772 0.491617 -0.415100 -0.231492 0.853255 
-0.159058 -0.577143 0.058891 -0.149265 -0.252232 -0.938281 
-0.725398 0.979295 0.261108 -0.946159 -0.019949 0.308026 
-1.217136 1.707955 -0.591871 0.639395 -0.569847 -0.441235 
-0.644099 1.595262 0.532810 0.684358 -0.048674 -0.709427 
0.111346 1.192567 0.563834 -0.282734 0.704478 0.614638 
0.844980 1.251366 0.207647 -0.394023 0.418815 -0.808110 
0.781060 -0.271841 -0.105981 -0.426601 0.050047 -0.862737 
0.043870 0.558450 -0.086124 0.458384 0.221682 -0.848265 
-0.692590 2.580296 -0.821474 -0.780778 0.421487 0.448908 
0.949133 1.041451 0.068405 -0.477585 0.365649 -0.779675 
0.776069 1.349444 0.325914 0.658181 -0.288131 0.610189 
1.854192 2.353594 0.737301 -0.109553 0.735585 -0.663991 
-1.138012 0.421080 -0.638375 -0.797910 -0.273513 0.489359 
-0.852956 2.211934 -0.696044 -0.619594 0.631733 0.384548 
0.291469 -0.106440 0.396037 0.504682 -0.248753 0.797887 
-0.607513 1.015522 0.392486 0.970220 -0.046041 -0.186118 
-0.823506 0.784676 0.035485 -0.899804 -0.103428 0.392124 
1.005339 1.988419 0.638077 -0.284283 0.637260 -0.714236 
-0.445114 -0.295783 0.034135 0.024361 0.046789 -0.882910 
0.518302 -0.444204 0.039555 -0.125174 0.033658 -0.901423 
-0.998774 1.007382 -0.197702 -0.842841 0.013704 0.476023 
-0.732401 0.859244 0.123063 0.684333 0.299799 -0.660055 
-0.203474 3.058745 -0.421179 -0.851365 0.296490 0.420734 
1.476635 2.359166 0.807283 0.205863 -0.700403 0.678000 
1.214863 0.828117 -0.226654 0.616636 -0.316160 0.692133 
1.105217 1.331823 0.039023 0.451812 -0.460902 0.726221 
-0.149336 3.142873 -0.376814 -0.848319 0.289996 0.430027 
1.525985 1.044909 -0.431049 -0.195887 0.602439 -0.671847 
1.867928 1.425269 -0.086528 0.273294 -0.469023 0.809444 
0.468910 0.475310 0.481578 0.394386 -0.102215 0.898190 
-0.109082 -0.242230 -0.065095 -0.491287 -0.154088 -0.835879 
0.798679 0.493558 -0.018559 -0.326181 0.225830 -0.810951 
-0.073750 0.821367 0.020859 -0.455679 0.406132 -0.776882 
0.253089 -0.791633 0.084383 -0.052230 -0.112023 -0.977079 
-0.901588 1.211592 0.029193 -0.888841 0.100484 0.391750 
0.513275 -0.042838 0.190643 0.688712 -0.242071 0.675903 
-0.039494 0.293683 0.564565 -0.084907 -0.226211 0.966421 
1.582662 1.961820 0.387440 -0.218335 0.565208 -0.781734 
-0.305477 0.197111 0.056309 -0.531938 0.060948 -0.798961 
-1.184526 1.617490 -0.395085 0.755227 -0.363877 -0.511638 
2.152087 2.262325 0.609015 -0.076705 0.747185 -0.656930 
0.579813 1.524141 0.526968 0.736495 -0.311524 0.547021 
0.208727 -0.361661 -0.008172 0.549743 -0.158825 -0.813539 
-0.031471 -0.213238 -0.101218 -0.414798 -0.199010 -0.863124 
-0.835740 0.811199 -0.048422 0.726827 0.224105 -0.627376 
2.185879 2.384132 0.732062 -0.063046 0.742735 -0.666280 
-1.076418 0.990897 -0.320126 -0.821113 -0.003690 0.514683 
-0.807483 -0.185974 -0.289479 -0.729564 -0.132152 0.621364 
0.494053 0.328664 0.097526 0.102803 0.187899 -0.911554 
0.722245 1.256860 0.355390 0.717939 -0.186378 0.587716 
-1.431581 1.200806 -0.661188 -0.810682 -0.090138 0.554110 
0.232916 1.089021 0.651248 0.151927 -0.600724 0.680979 
-0.643905 0.169687 -0.100361 0.265034 0.137809 -0.765629 
0.422921 -1.069472 0.081442 0.615931 0.094308 0.741385 
2.166768 2.639228 1.048835 -0.070791 0.804661 -0.570377 
-1.030702 1.644100 -0.100201 -0.846000 0.276890 0.429333 
-0.165771 3.028899 -0.343116 -0.865853 0.288201 0.397629 
1.236768 2.400517 0.930976 -0.343673 0.793063 -0.472060 
-0.609751 1.976073 0.151516 -0.747078 0.601348 0.194957 
1.761918 2.559165 0.972453 -0.095274 0.738483 -0.665471 
-1.306863 1.671046 -0.682497 0.666814 -0.534303 -0.455337 
-0.576512 2.784128 -0.809320 0.798241 -0.362146 -0.475695 
-0.680573 1.827614 0.225679 0.750342 -0.312086 -0.525397 
-1.005663 1.166967 -0.205970 0.766805 -0.038064 -0.575619 
1.447416 1.856687 0.349161 0.298443 -0.564132 0.751240 
1.284991 1.287706 -0.079188 0.233655 -0.606303 0.691898 
-0.053010 -0.155244 0.444112 -0.098616 -0.203680 0.971131 
-0.643864 1.224229 0.390383 0.665187 0.187083 -0.696415 
-0.850466 0.669872 -0.115165 0.733310 0.257790 -0.622182 
0.370226 -0.263030 0.277526 0.652836 -0.216611 0.721339 
-0.315603 -0.505248 0.244668 -0.689762 -0.203238 0.690278 
0.779584 0.175599 -0.062707 -0.259518 0.128420 -0.803667 
1.822112 1.935864 0.309437 0.175416 -0.701352 0.679120 
-0.592492 1.707916 0.609238 0.714544 -0.105955 -0.652621 
1.281417 1.616946 0.202511 -0.142249 0.777926 -0.602189 
-0.647520 1.520200 0.620639 -0.720702 -0.181425 0.642755 
-0.559236 -0.985450 -0.025324 0.506771 -0.118358 -0.846950 
1.719664 2.093829 0.483245 -0.163478 0.457730 -0.861675 
-0.686667 1.761462 0.436830 -0.856245 0.369662 0.238156 
-0.573429 2.033493 0.125172 -0.759757 0.584430 0.203908 
-0.633386 0.905963 0.310975 0.965210 0.033685 -0.175885 
0.812577 1.041655 0.181555 -0.463757 0.347231 -0.803563 
2.059857 1.922978 0.259646 -0.128594 0.671337 -0.727782 
-0.471831 2.535491 -0.460983 0.803709 -0.380448 -0.435543 
-0.025129 -0.994684 0.141408 -0.307709 -0.203448 -0.928934 
0.168193 0.976617 0.589979 0.355123 -0.130261 0.882196 
0.694624 1.055307 0.282854 -0.447022 0.335947 -0.825025 
-1.402488 1.251328 -0.620146 -0.810429 -0.044543 0.548639 
-0.281066 3.173452 -0.610927 -0.816611 0.310737 0.480644 
0.083784 -0.986117 0.134082 0.045763 -0.228499 -0.955728 
1.309610 1.537412 0.125623 -0.333314 0.412640 -0.844594 
0.520198 -0.714250 0.038775 -0.307274 0.009096 -0.925557 
-0.305934 2.534171 -0.105625 -0.746766 0.509858 0.395776 
-0.918830 0.161654 -0.348448 -0.775824 -0.180685 0.563944 
0.181836 -0.372472 0.380018 0.273284 -0.180590 0.924699 
-0.260647 2.344866 0.214212 0.782689 -0.490066 -0.372858 
-0.287495 2.691717 -0.303912 -0.752074 0.466706 0.456326 
-1.318506 1.887259 -1.006348 -0.709704 0.545872 0.429021 
0.172291 1.200719 0.362558 0.748880 0.617581 -0.139574 
-0.020944 -0.254374 0.418188 -0.042462 -0.182068 0.979917 
-0.089305 1.203619 0.225626 -0.551479 0.361357 -0.745157 
-0.549177 -0.063391 0.045790 -0.798718 -0.186933 0.564073 
-0.484012 2.266897 -0.127558 -0.771776 0.548187 0.319288 
0.255219 0.710238 0.547693 0.430346 0.273162 0.840851 
2.265615 2.167754 0.498282 0.084796 -0.726085 0.681856 
-0.759195 -0.019798 -0.176055 0.623027 0.119550 -0.714364 
0.930660 0.920888 0.049965 -0.519718 0.318321 -0.773558 
0.227261 0.198344 -0.033342 0.628381 0.000461 -0.770596 
0.394503 -0.531731 0.088037 0.074478 0.007718 -0.929087 
0.226325 -0.448778 0.357580 0.377756 -0.219264 0.891827 
-0.565504 2.240416 -0.281269 0.658275 -0.611515 -0.422488 
0.273400 0.901678 0.479592 0.833583 0.120137 0.499202 
0.715058 0.981774 0.306825 0.803456 0.005799 0.571486 
1.781933 2.414613 0.812016 0.146241 -0.757641 0.625218 
-0.477080 -0.416434 0.017658 0.174327 0.035593 -0.873533 
1.327327 2.330143 0.835126 0.250161 -0.661911 0.701186 
0.572731 -0.127347 0.073681 0.703576 -0.181250 0.685099 
1.071258 2.207896 0.806050 -0.267700 0.681410 -0.678213 
0.461542 1.721560 0.746254 0.620189 -0.500077 0.567413 
0.473474 -0.608863 0.073013 0.618562 -0.096231 0.768975 
0.765151 0.533424 0.031256 -0.336870 0.257012 -0.818420 
-0.156274 -0.652122 0.080090 -0.066236 -0.161411 -0.979154 
-0.561527 0.092039 0.121455 -0.786802 -0.256018 0.547551 
-0.652122 1.332684 0.531504 -0.617758 -0.252426 0.676329 
-0.418118 -0.708870 0.064193 0.203734 -0.007949 -0.917923 
-0.172722 2.517610 0.101717 0.787594 -0.511192 -0.342175 
-0.442469 -0.255222 0.105667 -0.794799 -0.160366 0.580599 
0.499110 -1.089703 0.043992 -0.407332 -0.058099 -0.910260 
0.988759 0.875450 0.027376 0.688698 -0.194031 0.645350 
-0.155374 1.195580 0.286151 -0.727171 0.536598 -0.357438 
0.231899 -1.060516 0.148304 0.205674 -0.079370 0.969485 
-0.268193 -0.470000 0.321623 -0.551135 -0.221958 0.779813 
-0.531168 0.379382 0.027820 0.086931 0.220165 -0.829609 
0.812265 2.098323 0.868324 0.115500 -0.376737 0.872823 
-0.345605 -0.805088 0.069371 0.175151 -0.109749 -0.918748 
0.678815 0.298234 0.188550 0.686463 -0.297727 0.657087 
-0.748887 0.296883 -0.065494 -0.805936 -0.237275 0.533007 
-0.346221 3.026376 -0.638765 0.785757 -0.351658 -0.507967 
-0.673482 1.181092 0.324820 0.669367 0.199875 -0.684499 
-0.851297 1.276433 0.137696 -0.907014 0.115122 0.352270 
1.311671 2.375307 0.887900 0.257233 -0.693467 0.658200 
0.689648 0.008389 -0.027501 -0.182841 0.100045 -0.833141 
1.959924 2.023805 0.383323 0.140567 -0.728963 0.659833 
0.223112 -0.257346 -0.009653 0.578486 -0.116145 -0.802109 
-0.437674 2.928163 -0.700382 0.802838 -0.337793 -0.487175 
-0.594625 1.803210 0.493875 0.631828 -0.377280 -0.637763 
-0.288784 -0.072921 0.401045 -0.530258 -0.247243 0.777671 
-0.185578 3.349247 -0.550495 -0.830015 0.276482 0.480441 
-0.643572 1.815987 0.421874 -0.751932 0.611185 0.034686 
-0.960663 1.703989 -0.084363 -0.863696 0.273805 0.399024 
-0.326719 0.839940 0.323351 -0.903718 0.356077 -0.087547 
-0.569255 0.593353 0.380430 -0.258072 -0.246789 0.872609 
0.671132 1.658774 0.513710 -0.260376 0.587969 -0.721240 
-0.282643 0.329696 0.005953 -0.725335 0.017702 -0.686574 
0.333759 -0.325968 0.320493 0.657767 -0.226388 0.716236 
0.240069 -0.121180 -0.006589 0.601868 -0.084397 -0.786480 
0.589617 0.463369 0.405593 0.526194 -0.193682 0.786491 
-0.580332 0.994415 0.462145 -0.718693 -0.224493 0.634487 
-1.130804 2.095150 -0.989800 -0.695383 0.572598 0.424861 
0.614805 -0.941402 -0.016278 0.540709 0.166404 0.785187 
-1.289890 1.270795 -0.495375 -0.812329 0.031786 0.533292 
-0.871346 0.109738 -0.316351 0.653469 0.164731 -0.664943 
-0.882616 1.813306 -0.221956 0.510234 -0.758118 -0.343799 
-0.607390 1.198728 0.492020 -0.440453 -0.345405 0.778400 
1.130793 1.619093 0.333080 0.309494 -0.660098 0.661288 
0.050478 0.648816 -0.058368 0.389602 0.270536 -0.863744 
-0.170718 1.110130 0.569188 -0.832559 0.287769 -0.303395 
0.470273 -0.020243 0.249593 0.657503 -0.252937 0.699649 
-0.763204 -0.425387 -0.258817 0.514764 0.030804 -0.773788 
-0.031817 -0.758345 0.288486 -0.360150 -0.209268 0.903437 
-0.094287 0.678244 0.578243 -0.080959 0.099262 0.982134 
-1.472092 1.248952 -0.706307 -0.807257 -0.057664 0.552851 
-1.427884 1.527885 -0.686207 0.777024 -0.329752 -0.522741 
-0.960790 2.238320 -0.908614 -0.706802 0.547691 0.434394 
0.137302 -0.330666 -0.041640 0.483754 -0.193588 -0.836399 
-1.097277 0.908288 -0.358528 -0.822054 -0.062763 0.520140 
0.581345 1.174153 0.398385 -0.399314 0.343196 -0.841924 
-0.219497 -0.940244 0.170822 -0.204507 -0.176812 0.959242 
1.991322 1.867159 0.207238 -0.144082 0.654912 -0.740668 
-0.851849 1.782525 -0.024426 -0.892426 0.264958 0.346941 
-0.983632 1.686755 -0.171284 0.664271 -0.479172 -0.461271 
0.167186 1.726721 0.871871 -0.541890 -0.831838 0.105971 
0.632744 0.861118 0.306829 -0.901238 0.006499 -0.376914 
-0.302566 0.813995 0.217880 -0.795964 0.405210 -0.371878 
-0.729457 2.337141 -0.657828 -0.755022 0.489922 0.420007 
-0.975970 0.941520 -0.178345 -0.848710 -0.018386 0.469289 
-0.999048 0.165350 -0.505975 0.658684 0.212540 -0.619820 
0.129313 -0.509420 0.028814 0.246974 -0.390825 -0.883094 
0.763277 1.674635 0.481637 -0.174537 0.788353 -0.582105 
0.557209 -0.888827 0.008174 0.515258 0.032611 0.841652 
-1.379334 1.308577 -0.584186 -0.809949 0.001437 0.543721 
-0.818857 -0.475698 -0.275656 0.528947 -0.071278 -0.781634 
-0.886899 1.315246 0.088042 -0.895522 0.137021 0.370182 
-0.850863 0.592941 -0.144621 0.722977 0.285165 -0.621841 
-0.849243 -0.204102 -0.363072 0.562770 0.118606 -0.713643 
0.637367 0.579458 0.350518 0.280249 -0.093632 0.928662 
-0.165647 -0.052744 -0.056495 -0.591185 -0.044928 -0.794694 
1.208254 1.865090 0.465736 0.344916 -0.587861 0.730530 
0.455802 0.384186 0.438884 0.457895 -0.223593 0.835825 
0.484375 1.693549 0.666198 0.001172 0.564084 -0.800928 
-0.874997 2.277002 -0.826005 0.734456 -0.486886 -0.468297 
-1.370859 1.404319 -0.578428 -0.804857 0.118143 0.529501 
0.705147 0.550162 0.292311 0.679604 -0.155146 0.659919 
-0.746434 2.034587 -0.312478 0.792076 -0.429633 -0.405625 
-0.843676 1.890399 -0.143428 -0.800615 0.477463 0.345187 
0.155972 0.908500 0.111558 0.590536 0.419852 -0.666961 
0.145975 -1.053480 0.165945 0.169145 -0.097212 0.978862 
0.424955 1.345443 0.620321 0.032079 -0.390192 0.777086 
1.387652 1.495398 0.068612 -0.287808 0.431108 -0.840829 
-0.516737 0.520408 0.140622 0.057234 0.399708 -0.734308 
-1.426538 0.976785 -0.800833 0.805811 0.252565 -0.519992 
0.597460 1.285633 0.410303 -0.363891 0.375727 -0.841521 
-0.233005 1.073408 0.439549 -0.870987 0.448631 0.136227 
1.802626 1.816268 0.206021 -0.160726 0.664024 -0.726104 
-0.813035 1.724272 0.207005 -0.910017 0.237707 0.298675 
1.280119 1.256448 -0.198836 -0.408031 0.503348 -0.757833 
0.793880 0.205731 0.002077 0.709850 -0.207755 0.669409 
-0.925732 -0.011170 -0.444121 0.609349 0.179369 -0.663273 
0.681285 -0.406682 -0.020091 0.607418 -0.091265 0.774911 
-0.808943 1.363127 0.170963 0.708028 0.017472 -0.643388 
0.875179 -0.173989 -0.180070 -0.443171 0.039953 -0.855305 
1.252337 0.472136 -0.377370 0.684311 -0.104656 0.712238 
0.132620 0.747432 0.563150 0.163694 -0.008101 0.976494 
-0.070839 0.886659 0.050262 -0.487503 0.411617 -0.751637 
-0.646746 0.471030 0.232734 -0.814495 -0.292695 0.457800 
-0.094951 0.757841 0.572378 -0.127615 -0.076536 0.980778 
-0.419914 -0.094671 0.231120 -0.732067 -0.216474 0.628410 
1.391179 0.884114 -0.445843 -0.567289 0.327778 -0.731254 
-0.463791 0.628039 0.498504 0.062963 -0.396626 0.905849 
1.795021 1.450780 -0.048951 0.306246 -0.415096 0.819396 
1.054424 2.044341 0.718944 0.378738 -0.537911 0.717398 
0.455066 -0.145332 0.198583 0.673134 -0.217666 0.698833 
-0.405301 -0.327581 0.122184 -0.787466 -0.143593 0.596642 
-1.091279 2.100015 -0.931390 -0.665179 0.598959 0.409823 
-1.324219 1.604852 -0.608148 0.733593 -0.418210 -0.495767 
0.025095 -0.806260 0.271873 0.382384 -0.184346 0.899957 
0.489334 0.038314 0.064718 0.132766 0.104489 -0.893411 
1.432836 2.138583 0.603154 -0.217912 0.794676 -0.558283 
1.121465 0.675615 -0.182650 -0.626315 0.254130 -0.723378 
0.935672 1.538048 0.309118 0.399718 -0.622566 0.533964 
-1.038650 1.050289 -0.253069 -0.829450 0.036504 0.496079 
-0.420812 0.234113 0.403415 -0.592430 -0.277851 0.737452 
-0.343816 0.131349 0.127649 -0.263214 0.151691 -0.945362 
0.841701 -0.563430 -0.149598 -0.401880 -0.078047 -0.900272 
0.885821 0.146693 -0.082847 0.688469 -0.162166 0.696700 
-1.392588 1.726892 -0.894405 -0.748531 0.456480 0.460847 
0.530246 0.049962 0.222894 0.684103 -0.270353 0.669516 
-0.703550 0.552593 -0.013587 0.497989 0.299929 -0.701764 
-0.101751 1.142195 0.590782 0.309072 0.378193 0.850223 
-0.950014 0.872348 -0.154588 -0.855642 -0.052240 0.460961 
0.962165 0.494834 -0.032399 0.711926 -0.241839 0.654722 
-1.085776 1.270546 -0.268011 -0.820962 0.141612 0.500351 
-0.582716 2.200477 -0.222316 -0.737191 0.572347 0.354265 
1.104610 1.491404 0.163803 0.293364 -0.692380 0.577889 
0.530879 1.100060 0.440134 -0.871294 -0.152488 -0.356540 
-0.507527 2.044014 0.230014 0.582855 -0.546024 -0.555187 
-0.842718 1.940804 -0.269970 -0.500237 0.797880 0.286659 
0.825007 -0.654595 -0.130990 0.403351 0.096442 0.905301 
1.577377 2.196870 0.616926 0.176638 -0.537960 0.815409 
-0.689966 -0.040401 -0.129050 0.472133 0.108065 -0.749024 
-0.550020 2.454687 -0.502170 0.545873 -0.651300 -0.512989 
1.838476 2.183010 0.566986 0.133560 -0.573910 0.793705 
0.192385 0.516393 0.577855 0.234976 -0.127094 0.960940 
1.683127 1.769464 0.200930 -0.152933 0.685015 -0.705219 
0.747287 0.916547 0.260153 0.809767 0.001118 0.574950 
0.618361 -0.366503 0.000371 -0.281952 0.055264 -0.878434 
-1.408644 1.424590 -0.637407 -0.800018 0.166218 0.523627 
-0.728513 1.157685 0.224841 0.680056 0.187606 -0.664362 
0.915829 0.048042 -0.123238 0.656713 -0.128663 0.727580 
1.694152 1.550656 0.048917 0.343774 -0.355648 0.825375 
-1.232287 1.962821 -0.978744 0.698895 -0.552197 -0.443192 
1.124844 1.451525 0.086060 -0.386080 0.476674 -0.786754 
-0.605009 -0.132439 -0.040021 -0.786705 -0.139951 0.589281 
-0.707150 0.292083 0.001465 -0.797883 -0.261681 0.531769 
2.102803 1.974579 0.310717 0.133183 -0.687549 0.710166 
1.819519 2.459444 0.857023 0.143446 -0.796216 0.574529 
1.764484 2.365326 0.759732 -0.123722 0.717321 -0.683508 
-0.223702 2.517950 0.051734 -0.745635 0.547572 0.365690 
-0.374600 2.133325 0.346316 0.774924 -0.457457 -0.421055 
1.611144 1.534510 0.059596 0.386933 -0.283640 0.842159 
-0.239614 3.271580 -0.598672 0.807951 -0.294291 -0.507760 
0.714763 0.062820 0.014360 0.709404 -0.189001 0.676852 
-1.435262 1.050245 -0.722652 -0.815295 -0.188285 0.540262 
0.128447 0.760334 0.016825 0.494936 0.435277 -0.708907 
1.242713 2.356420 0.874939 -0.260712 0.694078 -0.667788 
2.039790 2.619354 1.029660 -0.087406 0.806032 -0.574909 
1.340364 2.228906 0.760736 0.264179 -0.641009 0.690986 
1.114441 1.200518 -0.023983 -0.436190 0.447179 -0.763109 
-0.851754 1.801099 -0.157698 0.506096 -0.762440 -0.334242 
1.445657 1.533471 0.123911 0.247160 -0.578988 0.727105 
-0.444031 0.271071 0.060090 -0.099177 0.181658 -0.888987 
-1.328253 0.974713 -0.593895 -0.816417 -0.158846 0.548101 
0.836980 0.571389 0.111772 0.747109 -0.190037 0.627607 
1.819655 2.259381 0.647888 0.130533 -0.595432 0.775942 
1.603464 1.288574 -0.120388 -0.075569 0.582923 -0.735780 
0.109450 -0.907300 0.118606 -0.064994 -0.243106 -0.967338 
0.312239 -0.557504 0.072759 0.260816 -0.059767 -0.897067 
0.115485 0.875124 0.598976 0.250440 -0.155135 0.950394 
-1.086256 0.116010 -0.574611 -0.677442 -0.121956 0.600006 
0.942600 0.266981 -0.126550 -0.538167 0.160382 -0.769400 
1.294421 1.936430 0.482702 0.319981 -0.616775 0.717367 
1.072730 -0.137199 -0.299131 -0.486939 -0.035114 -0.848041 
1.218199 0.906018 -0.232803 -0.539682 0.359643 -0.737029 
-0.622975 2.143505 -0.208665 -0.719585 0.594647 0.354790 
0.352901 0.011534 0.128005 0.310938 0.104453 -0.940042 
1.246385 1.965114 0.530263 0.334486 -0.621421 0.706686 
0.017116 0.250381 0.553002 0.063939 -0.233113 0.968547 
0.399001 0.511069 0.256884 0.459552 0.487780 -0.698505 
-0.951542 1.861424 -0.396223 0.503383 -0.776296 -0.357946 
-0.805870 1.863271 -0.197350 0.812029 -0.416484 -0.393453 
1.115011 2.338026 0.911219 -0.380826 0.751843 -0.530891 
-0.073772 1.264819 0.455479 -0.211705 0.812932 0.526808 
1.482342 2.463445 0.921672 0.214123 -0.790224 0.555817 
-0.466426 -0.068039 0.181567 -0.782299 -0.237736 0.561086 
-1.127281 1.792547 -0.554510 -0.834824 0.292226 0.461110 
1.647303 1.941859 0.364593 0.214406 -0.681960 0.685974 
0.685583 0.217154 0.135120 0.693565 -0.262908 0.663641 
0.153276 0.541444 -0.035515 0.531080 0.161174 -0.802724 
0.763141 -0.716530 -0.097695 -0.372860 -0.095336 -0.918679 
1.909708 1.890108 0.241400 -0.154142 0.608985 -0.769974 
1.786426 1.131455 -0.275107 -0.043031 -0.704046 0.653063 
1.468854 1.606689 0.130658 -0.094819 0.754862 -0.646033 
1.504376 2.165091 0.604046 -0.184363 0.802238 -0.559086 
-0.443446 2.200534 0.126528 -0.665307 0.660035 0.312925 
-0.309640 -0.602550 0.237642 -0.658879 -0.194510 0.722734 
0.838174 -0.227293 -0.133925 0.614390 -0.078174 0.772218 
-0.017165 1.365404 0.227885 -0.515543 0.147772 -0.805000 
-0.419709 -0.161546 0.194262 -0.753740 -0.197069 0.611931 
-0.946853 0.517215 -0.260613 -0.825793 -0.219398 0.517212 
0.500150 0.611028 0.335759 -0.150696 0.589852 -0.506139 
-0.696545 -0.420618 -0.204480 0.500753 0.081310 -0.781831 
-0.467420 2.824219 -0.667877 0.814198 -0.334785 -0.468011 
0.939517 -0.029469 -0.183072 0.636904 -0.093077 0.751363 
-1.148241 0.724918 -0.500488 0.789016 0.217813 -0.568680 
0.432375 0.068415 0.094333 0.207009 0.115294 -0.916246 
0.463084 0.581553 0.486659 -0.014272 -0.243934 0.877194 
1.594851 0.932670 -0.636049 -0.659976 0.134967 -0.723624 
0.797893 1.595529 0.397263 -0.328288 0.424449 -0.837456 
0.868976 -0.245763 -0.196754 -0.418846 0.015682 -0.871220 
-1.135239 0.916400 -0.420811 0.786194 0.091290 -0.576872 
1.084599 1.738897 0.431802 0.423281 -0.493730 0.742211 
-0.560317 0.303640 -0.027066 0.103793 0.181109 -0.819849 
-1.194353 1.685854 -0.519086 0.671577 -0.510991 -0.461075 
-0.110015 3.032787 -0.264414 0.913525 -0.207975 -0.297669 
0.602497 -0.292563 0.030755 0.661179 -0.133947 0.727412 
-0.330338 -0.566365 0.098387 -0.114909 -0.017184 -0.932496 
-0.586179 0.412691 0.305131 -0.742087 -0.321125 0.544080 
-0.358641 2.374250 0.072605 -0.724631 0.561857 0.338867 
-1.337672 1.339911 -0.533350 -0.810257 0.043404 0.537244 
-0.005639 -0.997613 0.218956 -0.591373 -0.083632 0.787361 
0.651778 0.370672 0.260390 0.677700 -0.337300 0.650133 
1.176136 1.905762 0.515593 0.356570 -0.597419 0.714986 
-0.037739 1.276201 0.252884 -0.594894 0.288917 -0.748733 
-1.032810 0.260434 -0.514001 -0.781444 -0.228728 0.528427 
0.321131 -0.739292 0.066433 -0.036261 -0.125975 -0.924083 
-0.747046 2.003374 -0.195290 -0.624479 0.697031 0.331219 
-1.152035 1.373534 -0.345376 0.790319 -0.161537 -0.549291 
0.292529 -0.177149 0.379848 0.538285 -0.242092 0.778937 
1.602327 2.069331 0.493117 0.183314 -0.774788 0.591075 
0.092575 0.956976 0.104188 0.486032 0.466032 -0.717319 
-0.407022 0.660180 0.368844 -0.440177 0.778928 -0.005866 
-1.022348 0.484604 -0.403367 -0.818793 -0.225804 0.510582 
-0.766724 0.226818 -0.186074 0.501287 0.150604 -0.697206 
0.318309 0.626570 0.549540 0.556527 0.013060 0.808447 
1.150336 1.139206 -0.073817 -0.461128 0.429820 -0.753165 
-0.444306 -0.371404 0.075998 -0.779180 -0.122350 0.607149 
-0.870358 1.691801 0.056100 0.661111 -0.382553 -0.529566 
0.168085 -0.855041 0.102118 -0.140455 -0.206270 -0.957124 
2.113173 2.161004 0.507843 -0.089090 0.752697 -0.646645 
-0.496240 0.545411 0.455198 -0.468033 -0.029367 0.833695 
0.264092 -0.438316 0.033506 0.479082 -0.120901 -0.835865 
-0.394560 2.979555 -0.670732 -0.762923 0.386180 0.504144 
0.992546 -0.202571 -0.257383 0.543514 0.004244 0.818994 
