-0.625492 0.409102 0.074865 -0.860831 -0.312377 0.390988 
-0.396143 2.251575 0.541818 0.782331 -0.357425 -0.496265 
-1.238416 1.202158 -0.834822 -0.878219 -0.404281 0.248418 
-0.548031 2.719367 -0.110735 0.634618 -0.504467 -0.556581 
-0.004226 -1.033364 0.043221 -0.583976 -0.043921 -0.797229 
-0.140978 1.141346 0.500616 -0.975668 -0.088466 -0.059304 
0.046513 -0.142166 0.464621 0.079212 -0.270753 0.957031 
1.307255 2.049094 0.933629 -0.424030 0.784946 -0.447245 
-0.583942 1.523932 0.907807 -0.798522 -0.269297 0.527199 
0.430589 0.210203 0.402686 0.653617 -0.262462 0.697649 
1.155150 1.739924 0.531736 -0.317740 0.910051 -0.229126 
-0.326692 -0.778792 0.148960 -0.610895 -0.210100 0.747903 
1.273361 1.501496 0.005302 0.296479 -0.837206 0.337830 
0.487571 -0.018818 0.043495 0.048866 0.108018 -0.879529 
0.280823 -0.922759 0.106272 0.246559 -0.266155 0.914450 
1.868054 2.453509 1.260521 0.373709 -0.866681 0.317964 
0.403502 -0.100147 0.277929 0.703053 -0.222809 0.669870 
1.156473 1.091763 -0.219365 0.692894 -0.399547 0.567006 
-0.591853 0.924709 0.296399 0.918380 0.198360 -0.237111 
-0.356431 -0.999505 0.054737 -0.463811 -0.162153 0.850713 
-1.194225 1.149310 -0.770952 0.862545 0.389639 -0.306237 
-0.489908 1.880505 0.840156 -0.726526 0.509100 0.455479 
-0.030743 -0.416088 0.377211 -0.003138 -0.170751 0.984594 
1.343028 0.975001 -0.499572 0.704722 -0.083924 0.699817 
1.667695 1.780229 0.134468 0.497042 -0.643315 0.528512 
-0.656879 2.217823 0.219381 -0.668458 0.552325 0.485059 
0.358166 -0.407836 0.217998 0.715328 -0.239522 0.652466 
1.230107 0.644157 -0.449562 -0.600380 0.056145 -0.780801 
-0.574904 -0.841416 -0.127612 -0.619823 0.127279 0.752906 
-0.880006 0.974114 -0.137821 -0.889706 -0.140499 0.397083 
-0.650817 -0.002653 -0.146007 -0.816458 -0.154040 0.527257 
0.675161 0.116233 -0.004335 0.775752 -0.211347 0.592438 
-0.201977 1.204154 0.618508 -0.841897 -0.351236 -0.374768 
-0.326799 2.645743 0.298281 -0.623197 0.509347 0.584664 
-1.281139 1.823902 -0.369870 -0.845765 0.163292 0.486853 
-1.191729 1.497207 -0.345770 -0.857850 -0.124206 0.450537 
1.437557 1.743910 0.287746 0.588273 -0.461191 0.626503 
1.743120 2.029228 0.486811 -0.398866 0.779278 -0.468605 
-0.416065 1.892609 0.845140 0.769914 -0.258034 -0.571111 
0.425261 1.233113 0.699303 -0.799234 0.201822 -0.542511 
-1.122785 1.001487 -0.701618 -0.872355 -0.359586 0.293710 
-0.676884 -0.250540 -0.273285 0.573880 0.159081 -0.690658 
-0.052294 -0.489386 0.353199 -0.067783 -0.258262 0.955740 
-0.349663 0.660319 0.121162 -0.818406 0.125894 -0.498885 
1.424782 1.508251 -0.093762 -0.248821 0.815754 -0.423730 
0.322748 -0.721077 0.019103 0.040539 -0.035750 -0.892946 
-0.880996 1.299469 0.019087 0.797188 0.137684 -0.524950 
-0.500162 1.892960 0.767667 -0.805283 0.519104 0.213165 
-0.569633 -0.771129 -0.122498 0.495585 -0.042734 -0.854733 
-0.318802 2.114364 0.766803 0.746790 -0.328454 -0.562001 
0.345918 -0.527437 0.185061 0.686557 -0.238477 0.680508 
-0.381484 0.552514 0.317033 -0.401740 0.598144 -0.643633 
-0.790057 -0.088093 -0.372101 0.622665 0.131057 -0.647525 
-0.514928 2.525882 0.108362 0.638455 -0.515861 -0.546153 
-0.435996 2.030908 0.732816 -0.621209 0.617064 0.463858 
0.039173 -0.389270 0.381292 0.003762 -0.171913 0.982083 
-1.033217 0.728492 -0.631933 0.781603 0.326972 -0.410418 
1.640227 1.546601 -0.223183 0.248201 -0.868122 0.364851 
-0.172703 0.505855 -0.028475 -0.573428 0.055776 -0.795113 
-0.217756 0.335971 -0.011187 -0.601861 0.020608 -0.791489 
-0.093376 0.207602 0.567602 -0.196815 -0.194071 0.952307 
-0.734672 1.139666 0.290046 -0.944861 -0.022759 0.290091 
0.430027 0.436981 0.469114 0.446585 -0.148543 0.880095 
0.773377 1.735364 1.009478 0.535840 -0.721697 0.420794 
-1.097864 1.434261 -0.261290 0.837571 0.088033 -0.495226 
1.670113 2.000548 0.510011 0.422215 -0.803310 0.415285 
0.586497 1.374219 0.612479 -0.463964 0.590588 -0.645411 
1.712671 1.724084 -0.002228 0.485491 -0.668824 0.518551 
-0.650476 0.646773 -0.039631 0.558578 0.313657 -0.614995 
-0.118345 2.698218 0.526547 0.731739 -0.424871 -0.531291 
-1.198404 1.562284 -0.319107 -0.856067 -0.095564 0.457031 
0.793731 1.311224 0.351402 -0.536525 0.576261 -0.602495 
-0.069805 0.707665 0.552238 -0.070214 0.067736 0.989559 
0.679687 0.710735 0.138001 -0.499166 0.471706 -0.516922 
0.652442 -0.258412 -0.056646 0.693521 -0.149400 0.689007 
0.580925 1.657043 1.061752 0.640000 -0.581878 0.475860 
-0.676243 0.917677 0.159802 0.744499 0.402461 -0.524137 
-0.250273 0.645727 0.549261 -0.362167 0.327948 0.835678 
1.461729 1.587967 0.009621 0.197856 -0.926875 0.255961 
0.726485 -0.301000 -0.164945 -0.431201 0.053192 -0.879055 
-0.615944 2.866209 -0.336814 0.762023 -0.414513 -0.489909 
0.557878 0.473441 0.074437 -0.150242 0.271285 -0.839945 
0.957504 1.237221 0.165677 0.690205 -0.415742 0.508887 
-1.120397 1.874542 -0.152930 0.785098 -0.251697 -0.518644 
1.120833 1.818397 0.750766 0.473921 -0.754474 0.453434 
-0.783340 0.854589 -0.006572 -0.919709 -0.162353 0.330383 
-0.560317 0.166298 0.058406 -0.861313 -0.249497 0.427415 
-0.699891 0.606098 0.036297 -0.890705 -0.279912 0.343312 
-0.953121 1.227092 -0.123651 -0.873235 -0.056584 0.438537 
-0.422761 2.541621 0.245387 0.550685 -0.561317 -0.612402 
-0.024767 3.039197 0.395268 0.714895 -0.385393 -0.581788 
-1.175520 1.292395 -0.436869 -0.863478 -0.218954 0.429258 
-0.875580 0.558879 -0.357879 -0.850777 -0.234977 0.433081 
-0.543764 1.385794 0.721432 0.754529 0.307729 -0.540483 
0.374984 1.581467 1.128052 0.142744 -0.482873 0.827099 
0.603997 1.521900 0.804535 0.657977 -0.563046 0.230084 
0.547570 1.587281 0.961658 0.741486 -0.570439 0.264993 
-0.153334 0.252781 0.574681 -0.274658 -0.163906 0.943430 
0.247607 -0.560698 0.283795 0.474095 -0.310487 0.798876 
0.020778 -0.005038 -0.121912 0.439207 -0.072978 -0.872957 
0.329375 -0.169826 0.117663 0.269183 0.078894 -0.954247 
-0.635998 1.427611 0.686835 -0.961188 0.072722 0.238713 
0.767589 0.326721 -0.088014 -0.347720 0.172200 -0.755167 
1.736228 1.626765 -0.184175 -0.342861 0.804923 -0.443556 
0.899378 0.608708 -0.149571 -0.538463 0.220719 -0.707551 
-1.341512 1.449807 -0.605899 -0.860124 -0.296354 0.412978 
1.190123 1.503070 0.047795 -0.432723 0.715044 -0.477771 
0.671651 -0.312748 -0.102784 -0.460544 0.095658 -0.847340 
-1.352099 1.639357 -0.540272 -0.852923 -0.110185 0.445438 
-0.235993 2.616372 0.433431 0.739414 -0.421243 -0.521987 
-1.211732 1.238890 -0.550431 -0.866477 -0.291363 0.398240 
0.140242 1.021669 0.601579 0.141278 -0.174865 0.955898 
-0.710083 1.373057 0.495217 -0.946360 0.052331 0.279543 
-0.541006 0.395743 0.316955 -0.781473 -0.370204 0.459087 
-0.183476 0.471807 0.582769 -0.289766 -0.067832 0.948112 
1.226356 1.043182 -0.367543 -0.676673 0.306813 -0.643241 
-0.637174 0.322432 -0.141083 0.402370 0.175695 -0.687327 
0.402262 -0.061232 0.083492 0.165376 0.098452 -0.923571 
-0.941252 0.865934 -0.326253 -0.874494 -0.223638 0.420086 
1.007403 1.623957 0.590382 0.420270 -0.838644 0.296000 
-0.578798 2.066928 0.476783 -0.722092 0.525792 0.410024 
-0.723229 0.213685 -0.222346 0.708707 0.182929 -0.616052 
0.006695 -0.529802 0.016475 0.406992 -0.388175 -0.789580 
-1.145189 1.526091 -0.275835 0.838201 0.081455 -0.492639 
0.353750 0.562329 0.181126 0.569406 0.410436 -0.666008 
0.490086 0.421018 0.425721 0.527073 -0.241170 0.783180 
-0.711968 1.591190 0.632902 -0.938889 0.113584 0.287342 
-0.594743 -0.056893 -0.118218 0.480594 0.136475 -0.726753 
-0.316917 -0.137911 0.120447 -0.195511 0.090746 -0.974065 
1.433722 1.321036 -0.539260 0.666967 -0.270987 0.652875 
-0.646630 1.386784 0.540810 0.719107 0.231438 -0.610959 
0.785084 0.685349 0.021309 -0.530000 0.382041 -0.692693 
0.053797 3.412079 0.287878 0.796079 -0.322366 -0.507007 
-0.353038 0.554310 0.211630 -0.532843 0.423167 -0.680298 
-0.966870 1.715064 0.135767 0.804979 -0.054683 -0.556651 
-0.087323 2.974451 0.366828 -0.797536 0.373887 0.464757 
0.211948 1.218043 0.620486 -0.498609 0.679111 0.443647 
-0.807517 1.434479 0.329687 -0.922555 0.062988 0.337342 
-0.572109 2.993874 -0.361376 0.778652 -0.393883 -0.487088 
-0.315276 3.030445 0.022339 -0.672816 0.451270 0.565702 
0.901697 0.950262 0.051084 -0.644437 0.387848 -0.632098 
0.484157 0.467368 0.129591 0.016765 0.343561 -0.815474 
0.721003 0.850875 0.206204 -0.592165 0.443261 -0.667522 
0.043382 -0.004497 0.512723 0.114583 -0.275084 0.952667 
-0.018027 0.066613 0.537932 -0.105649 -0.279485 0.952147 
-0.136568 1.254376 0.408283 -0.611562 0.748416 0.143517 
-0.493582 2.502482 0.184870 -0.806790 0.391300 0.427231 
-0.688560 1.743588 0.638270 -0.939022 0.134844 0.293071 
-0.901735 1.381442 0.034278 0.798921 0.102600 -0.528005 
0.453644 1.494251 0.818152 -0.398364 0.623107 -0.666070 
0.161128 0.612100 -0.029088 0.498244 0.151369 -0.820633 
1.595071 1.493431 -0.267013 0.195363 -0.892416 0.344977 
-0.935744 2.385934 -0.428347 0.777115 -0.409068 -0.462729 
-0.183304 2.697976 0.457291 -0.724312 0.449060 0.516871 
2.120147 2.584204 1.342380 -0.329521 0.870015 -0.365975 
-0.512423 1.459857 0.878813 0.926710 -0.275184 0.131683 
-1.177801 1.224624 -0.478461 -0.865367 -0.257648 0.420878 
2.059296 2.285199 0.721482 0.380874 -0.818192 0.420951 
1.319393 1.429977 -0.150535 0.256892 -0.841473 0.362230 
0.698819 1.273791 0.440163 -0.519289 0.562994 -0.628202 
0.703834 0.135293 -0.066293 -0.322961 0.151383 -0.786241 
0.625188 -0.041023 -0.034442 -0.251539 0.128018 -0.821958 
0.418978 1.630124 1.097069 -0.415879 0.830104 -0.359668 
-0.856213 1.875983 0.258766 -0.897054 0.142502 0.404686 
-0.484275 0.412009 0.392236 -0.636194 -0.287508 0.657694 
-0.565114 1.122500 0.484436 0.820883 0.305153 -0.430780 
-1.062402 1.748658 -0.004594 -0.853428 0.129907 0.495217 
0.779412 -0.350356 -0.191259 -0.457654 0.027170 -0.873338 
1.236405 1.149824 -0.367741 -0.644363 0.429112 -0.613190 
0.045105 3.219333 0.403679 -0.606942 0.390051 0.653342 
-0.549476 1.848004 0.739874 -0.773067 0.546221 0.238253 
-0.207121 0.585687 0.569609 -0.330655 -0.011340 0.927997 
-0.728928 0.524601 -0.216019 0.574145 0.211730 -0.610283 
-0.178998 1.075756 0.180576 -0.595669 0.405169 -0.691068 
-1.100422 1.083316 -0.442177 -0.869018 -0.259437 0.417795 
1.572531 1.584248 -0.099443 0.242946 -0.887151 0.320906 
0.901043 1.445132 0.293618 -0.533910 0.618659 -0.565066 
1.658554 1.861226 0.279694 0.492482 -0.649224 0.520425 
-0.065863 0.006873 0.513995 -0.148372 -0.270896 0.946975 
-0.657916 1.093758 0.423818 -0.967067 -0.022713 0.241007 
-0.193993 1.129672 0.654298 0.414224 0.007476 0.844791 
-0.989174 2.152778 -0.243562 -0.861313 0.239534 0.418874 
0.989665 0.457878 -0.243127 -0.626544 0.163093 -0.728218 
0.737289 1.202626 0.422135 0.781852 -0.258444 0.468777 
-0.299722 2.922944 0.124330 -0.649708 0.471818 0.578156 
-0.224033 -0.344790 -0.004898 -0.580436 -0.093383 -0.807512 
-0.022621 -0.824154 0.218280 -0.392841 -0.266648 0.874782 
-0.609811 0.697878 0.065056 0.605248 0.436553 -0.554772 
0.308992 -0.629665 0.024920 0.178203 -0.036586 -0.880630 
-0.093585 0.774467 0.560907 -0.154354 -0.111086 0.968414 
-0.364580 2.057353 0.758905 0.756816 -0.309308 -0.559350 
-0.398228 -0.429432 0.042763 0.107425 0.068511 -0.895352 
-0.838634 1.441239 0.197585 0.769881 0.145800 -0.543661 
0.203148 -0.512407 0.332393 0.299419 -0.319675 0.894672 
0.299543 0.747628 0.488308 0.618425 0.308749 0.667429 
0.837900 0.035546 -0.170939 0.688565 -0.136176 0.697193 
0.707716 0.517318 -0.048713 -0.290042 0.214204 -0.798744 
-0.300398 3.169835 -0.066006 -0.732816 0.404927 0.533630 
-0.665669 0.224741 -0.169936 0.529707 0.171925 -0.663260 
1.064828 0.931403 -0.162906 -0.684289 0.343810 -0.615597 
-0.633065 0.072186 -0.116890 -0.842414 -0.171390 0.491352 
1.251337 1.582096 0.162487 0.299296 -0.861459 0.285429 
-0.755485 1.103199 0.220067 -0.936535 -0.045051 0.305882 
1.888630 2.528339 1.429731 0.351987 -0.855607 0.368297 
0.902121 1.959114 1.242261 0.523728 -0.716387 0.428907 
-0.482450 2.759799 -0.032084 0.592579 -0.526867 -0.583399 
0.380836 0.355007 0.144771 0.256255 0.268303 -0.880999 
0.306080 0.392091 0.527562 0.370665 -0.126558 0.913561 
-0.231850 0.956483 0.522390 -0.734755 -0.060820 0.652875 
0.170041 1.095708 0.632409 -0.193797 -0.053607 0.902896 
-0.505545 0.185277 -0.033394 0.157267 0.149615 -0.809222 
-0.728248 0.686754 -0.138539 0.662522 0.295972 -0.566074 
0.986419 1.862135 0.990017 0.483741 -0.685086 0.533241 
0.807508 1.104530 0.236077 -0.587258 0.487730 -0.625308 
-0.755826 0.138251 -0.272546 -0.807466 -0.179032 0.511372 
-0.069225 0.632778 0.580191 -0.046739 0.225400 0.961197 
1.033518 0.657284 -0.233289 -0.694007 0.213987 -0.671610 
0.320899 -0.570857 0.067783 0.154885 0.011142 -0.919251 
-0.391047 0.057207 0.359862 -0.731726 -0.226498 0.636997 
1.487861 1.257915 -0.593687 -0.681445 0.098367 -0.718414 
0.478254 0.608696 0.308111 -0.066971 0.573222 -0.444312 
1.191294 2.189809 1.359714 0.408273 -0.782621 0.465808 
-0.188688 -0.755555 0.056876 0.099444 -0.076383 -0.977936 
0.487902 1.203955 0.759480 0.691834 -0.281169 0.651401 
-0.685921 1.797947 0.585848 -0.937736 0.135169 0.302672 
1.436039 1.104296 -0.567747 0.690142 -0.059720 0.716861 
0.752314 0.078596 -0.076956 0.740608 -0.184329 0.633757 
-0.360511 2.568701 0.317108 -0.607002 0.526757 0.589962 
0.657104 1.170959 0.504601 0.821747 -0.202332 0.452915 
0.749293 0.452214 -0.079206 -0.328663 0.191007 -0.777167 
0.526031 1.288276 0.640162 -0.467969 0.563560 -0.667458 
-0.326887 0.832178 0.384986 -0.873408 0.374652 0.231024 
-1.093793 2.368876 -0.672241 -0.739617 0.508281 0.439490 
-0.364257 1.869155 0.953309 0.879327 -0.361357 -0.089757 
1.767695 2.286439 1.001152 0.382615 -0.763420 0.498076 
-1.310349 2.023684 -0.612854 0.798128 -0.328242 -0.485003 
-0.028626 0.528298 0.602092 -0.079557 -0.000377 0.990911 
-0.776094 2.613844 -0.396538 0.768597 -0.430152 -0.471227 
-0.709550 2.620290 -0.293224 -0.759404 0.453437 0.458893 
1.072517 2.026219 1.193038 0.494087 -0.736006 0.427833 
0.591255 1.263506 0.620854 0.830480 -0.256759 0.416437 
-0.234989 1.061551 0.269222 -0.828338 0.422262 -0.303408 
-0.457569 2.253616 0.457066 0.617794 -0.469498 -0.602531 
1.797898 2.444830 1.304523 0.380988 -0.870985 0.296055 
-0.722973 1.805616 0.524313 -0.929206 0.136691 0.322995 
-0.836907 0.146579 -0.439164 -0.792739 -0.222836 0.472811 
-0.825611 0.489696 -0.280411 -0.849647 -0.209353 0.460193 
-0.939718 1.341683 -0.016426 -0.881652 -0.003444 0.425015 
-1.058318 0.889086 -0.610785 -0.867210 -0.327025 0.329898 
0.984141 1.546799 0.304110 -0.538465 0.629382 -0.554674 
0.613391 1.196986 0.567279 0.834721 -0.208444 0.435704 
-0.004131 2.825633 0.576759 0.844236 -0.357480 -0.394277 
1.078118 1.943049 0.996886 -0.412360 0.854653 -0.308051 
-0.570072 2.868972 -0.262244 0.721277 -0.439208 -0.513927 
-1.067807 1.186519 -0.335196 -0.866039 -0.172521 0.435663 
0.453819 -1.075218 -0.015282 -0.470081 0.027620 -0.879370 
0.029291 -0.244969 0.425505 0.024685 -0.270389 0.958938 
-0.104909 1.280439 0.342153 -0.678070 0.644078 0.155068 
-0.600071 0.156075 -0.042918 -0.865520 -0.208399 0.446930 
1.326397 2.080413 0.997160 -0.404614 0.860998 -0.295424 
-0.885329 1.940166 0.150128 -0.889346 0.144791 0.428995 
0.994856 2.023005 1.256207 0.496385 -0.741938 0.425025 
-0.567974 1.995697 0.539659 0.704381 -0.329772 -0.570117 
-0.757179 2.463665 -0.216637 0.796993 -0.367396 -0.469344 
0.820202 1.242990 0.290008 -0.560266 0.555941 -0.602638 
1.614396 1.928728 0.436723 0.472603 -0.697819 0.487149 
-0.281572 2.334252 0.609642 0.736855 -0.394606 -0.537308 
-0.387948 0.094374 0.062855 -0.061433 0.131615 -0.920474 
-0.235656 -0.116807 -0.000908 -0.597397 -0.061646 -0.796405 
-0.279823 2.317632 0.684564 -0.689898 0.536248 0.462293 
1.519833 2.109159 0.856892 -0.408844 0.599867 -0.684631 
-0.163498 0.673566 0.562696 -0.191961 0.232025 0.928567 
-1.112276 1.564011 -0.206906 0.836840 0.030138 -0.503633 
0.243120 -0.741987 0.205792 0.340500 -0.325212 0.858092 
-0.201968 0.306436 0.565537 -0.354692 -0.135046 0.903274 
-0.368315 1.945358 0.859870 0.760009 -0.275796 -0.574409 
0.870424 1.633258 0.614305 -0.482448 0.655560 -0.544654 
0.689489 0.599538 0.302700 0.695093 -0.226437 0.602487 
-0.434937 1.952970 0.754995 0.738840 -0.325075 -0.573211 
-0.454888 2.204237 0.507868 0.604736 -0.438513 -0.629695 
1.174185 1.390818 -0.128016 -0.591179 0.561731 -0.563108 
-0.127027 -0.884308 0.055650 0.064535 -0.111505 -0.987623 
-1.228087 1.348895 -0.483768 -0.862094 -0.239014 0.426701 
-0.641652 1.135972 0.485522 -0.969345 -0.009728 0.232975 
-1.202104 2.011414 -0.427919 0.723460 -0.418000 -0.489918 
-0.125074 -0.531317 0.336178 -0.125528 -0.336557 0.928145 
0.421619 -1.146492 0.000140 0.743539 0.181615 0.618851 
1.475474 1.400317 -0.307271 -0.100731 0.929568 -0.317904 
-0.337374 1.964824 0.927238 -0.369134 0.462406 0.747387 
0.279530 0.204872 0.016059 0.573520 -0.027901 -0.817689 
-0.997521 0.398757 -0.582258 -0.735041 -0.190144 0.486524 
0.439841 -0.366443 0.048241 -0.021636 0.076440 -0.902196 
0.465651 1.261363 0.795892 0.745825 -0.186829 0.607056 
-0.570928 1.049254 0.545729 -0.617115 -0.453202 0.599181 
1.253531 2.193971 1.293621 0.432731 -0.810096 0.386618 
-0.141916 3.351940 0.038004 0.767698 -0.355041 -0.532496 
1.119936 1.559869 0.188286 -0.545222 0.636082 -0.543921 
0.796506 1.002195 0.198084 -0.606803 0.437673 -0.642339 
0.502450 1.346904 0.760683 0.850652 -0.295051 0.375435 
-0.099841 -0.201485 -0.069296 -0.480215 -0.114297 -0.849013 
0.762689 1.046490 0.259009 -0.588691 0.467846 -0.641543 
-0.101632 -0.825780 0.202369 -0.169456 -0.318009 0.924793 
0.568630 0.411438 0.005722 -0.085084 0.178762 -0.874982 
0.326213 0.592206 0.070833 0.645152 0.234070 -0.693009 
-0.487398 -0.375565 -0.011725 -0.806575 -0.120082 0.557686 
1.259218 1.672549 0.382686 0.536778 -0.619804 0.517293 
0.441570 1.405317 0.789036 -0.416346 0.596730 -0.676606 
-0.646570 0.732956 0.213191 -0.561319 -0.250166 0.758727 
-0.029185 3.145545 0.335961 -0.819829 0.346951 0.450044 
-0.482520 0.361407 -0.014310 0.116125 0.178585 -0.845424 
-0.585085 0.081993 -0.059542 -0.866150 -0.184781 0.460117 
0.189156 0.523025 0.577143 0.273644 -0.038203 0.955555 
0.180367 -1.098054 0.081199 0.145457 -0.138597 0.972956 
-0.816142 0.626869 -0.223392 -0.873424 -0.249169 0.414249 
-0.584306 0.484044 0.336688 -0.730373 -0.333844 0.526471 
-0.992369 1.276973 -0.171263 -0.863264 -0.051340 0.459534 
-1.015272 1.104561 -0.333811 0.838008 0.192555 -0.484434 
-0.317761 0.638327 0.022348 -0.691808 0.161342 -0.694031 
-0.587827 1.484048 0.837353 -0.925634 -0.005914 0.295580 
-1.024863 0.793367 -0.598084 0.804839 0.323560 -0.407040 
0.589216 0.009009 0.056998 0.772730 -0.219476 0.591453 
-1.016330 1.616841 -0.028960 0.825939 -0.050044 -0.528767 
-0.989723 0.558688 -0.602681 0.740174 0.306116 -0.450344 
1.479162 1.633560 0.067008 0.234051 -0.913782 0.260611 
-0.983677 1.129573 -0.241279 -0.867325 -0.122386 0.443698 
0.313101 1.468625 0.933968 -0.810104 0.212144 -0.524098 
0.521211 1.507746 0.909452 0.740707 -0.418515 0.431053 
-0.453906 2.418648 0.315064 -0.793300 0.423734 0.433181 
-1.144432 1.704987 -0.157891 -0.851917 0.033140 0.483293 
-0.532427 0.712709 0.431601 0.805309 0.415854 -0.272512 
0.165936 -0.613104 0.296240 0.254261 -0.381133 0.883185 
-0.018441 -0.438044 -0.042807 -0.206622 -0.403304 -0.877864 
-0.274167 2.248029 0.701647 0.738514 -0.368689 -0.550094 
1.455353 1.179422 -0.576176 -0.674894 0.080115 -0.729331 
1.458998 2.305124 1.291417 -0.364200 0.817924 -0.444448 
0.581865 1.063540 0.550170 0.874931 -0.083805 0.453402 
0.530743 -0.228502 0.036941 0.752829 -0.177990 0.626987 
-1.380103 1.516302 -0.618106 -0.857937 -0.292255 0.419957 
-1.030951 1.852991 0.029671 -0.859776 0.149789 0.485562 
-0.109648 3.125300 0.229864 -0.802433 0.361071 0.468988 
-0.340536 -0.023943 0.397633 -0.660326 -0.249244 0.687679 
0.677622 0.795228 0.212289 -0.797349 0.304256 -0.394444 
-0.149588 -0.752724 0.228828 -0.189347 -0.354933 0.912180 
0.792149 -0.211513 -0.202056 0.635306 -0.076736 0.765086 
-0.695314 1.110676 0.355549 -0.957322 -0.022301 0.263832 
0.928074 -0.177197 -0.272662 0.528907 -0.007230 0.836974 
-0.727118 1.190918 0.341018 -0.948430 -0.000080 0.283708 
0.298532 0.926155 0.303276 0.918226 0.357765 -0.133559 
-0.818195 1.567793 0.393751 -0.915856 0.099775 0.347575 
-0.786202 0.131041 -0.359786 0.663600 0.211073 -0.595484 
-0.667384 2.638244 -0.239206 -0.783819 0.423066 0.448402 
-0.576644 1.871526 0.641057 0.688796 -0.213529 -0.630840 
0.038990 0.411622 -0.106671 0.474528 0.105926 -0.869548 
-0.777093 2.399167 -0.164465 -0.580259 0.625408 0.437944 
0.008652 1.148430 0.153817 0.341428 0.361481 -0.862289 
-0.973556 0.762004 -0.483208 -0.863743 -0.283770 0.376396 
0.966552 1.591200 0.419930 -0.531068 0.613381 -0.579489 
-0.528635 3.006414 -0.298309 0.744446 -0.413777 -0.507805 
-0.814629 1.771330 0.370331 0.709717 -0.160388 -0.595542 
0.543699 1.206482 0.582379 -0.492600 0.539477 -0.670777 
0.739530 1.545648 0.590538 -0.472488 0.618590 -0.616603 
-0.364958 0.482397 0.241224 -0.390565 0.456083 -0.744476 
1.853899 2.331602 1.012043 -0.353155 0.871839 -0.326184 
0.524001 1.022615 0.490772 -0.783894 0.193044 -0.559237 
1.804991 2.419996 1.238011 0.382012 -0.866878 0.306059 
1.370532 1.074449 -0.507224 -0.678745 0.107041 -0.717717 
-0.500520 2.277109 0.372366 0.675975 -0.501740 -0.528396 
0.327824 -0.431590 0.279838 0.693260 -0.264455 0.668884 
0.664642 -0.591375 -0.126410 0.566635 -0.047806 0.814851 
-0.281977 0.448001 0.533242 -0.375722 -0.123929 0.904991 
0.211543 -0.211910 0.414615 0.381490 -0.262802 0.844091 
-0.591983 2.698020 -0.162082 -0.816471 0.376027 0.426651 
0.763135 0.015703 -0.111664 -0.549398 0.159229 -0.770347 
0.285888 -0.843863 0.137003 0.344002 -0.267506 0.863741 
0.616146 1.701416 1.009906 -0.394687 0.808623 -0.429709 
-0.425858 0.053489 0.281562 -0.786792 -0.240725 0.544066 
0.319029 0.459447 0.078311 0.567243 0.148072 -0.755417 
-0.384263 -0.289232 0.169537 -0.816507 -0.181162 0.537098 
0.608008 1.111864 0.466468 -0.533234 0.512575 -0.664314 
0.374783 0.269808 0.461950 0.531111 -0.193045 0.805889 
0.504281 1.643494 1.150163 0.475261 -0.709871 0.517334 
-0.076154 2.760258 0.551444 -0.779502 0.410499 0.463235 
0.648640 0.367099 -0.032017 -0.189132 0.174203 -0.825760 
0.089355 0.013645 -0.097757 0.523530 -0.009850 -0.844663 
-0.348284 -0.093761 0.376533 -0.693730 -0.251486 0.664889 
0.359640 -0.804688 0.039938 -0.110914 0.024532 -0.930788 
1.262369 1.662459 0.311553 0.220789 -0.947031 0.169486 
0.778763 1.630025 0.705253 -0.308321 0.909163 -0.256978 
0.905565 1.736747 0.822195 -0.394287 0.778312 -0.449814 
0.775713 0.930885 0.186743 -0.617138 0.405686 -0.656444 
0.002307 -1.245778 0.111385 0.554661 -0.584787 0.571327 
0.444335 1.419521 0.859574 0.860196 -0.335404 0.345033 
0.638716 0.637799 0.108573 -0.338482 0.460004 -0.714475 
-0.005035 0.769578 0.568156 -0.074869 -0.152066 0.972921 
0.218990 1.061408 0.238644 0.759841 0.411906 -0.429167 
-0.638119 1.704914 0.672334 0.661931 -0.073894 -0.652702 
-0.211973 3.292804 -0.027117 0.768330 -0.362544 -0.526829 
0.834994 1.587119 0.566566 -0.495790 0.608762 -0.611211 
-0.788093 0.932152 0.032710 -0.919669 -0.128471 0.334814 
1.089906 1.064916 -0.102714 0.698251 -0.400375 0.550790 
0.352287 -0.710829 0.148865 0.622375 -0.212034 0.743999 
0.833913 0.639118 0.054112 0.799514 -0.261452 0.535347 
-0.497569 0.638867 0.242775 0.184994 0.460913 -0.326362 
-0.315488 2.387304 0.567456 -0.672277 0.529470 0.494029 
0.567680 0.148159 0.167462 0.766598 -0.287508 0.565680 
-0.652246 0.456428 -0.153268 0.431459 0.198502 -0.682166 
0.247834 0.310537 0.543855 0.381850 -0.141813 0.890723 
0.690537 1.361752 0.490313 -0.495769 0.589127 -0.622116 
1.520191 1.843796 0.358366 -0.324456 0.873727 -0.344591 
-0.897623 1.619250 0.259711 -0.896405 0.108852 0.394736 
0.048527 1.361152 0.308497 0.598202 0.697151 -0.010522 
0.192459 0.396949 -0.021655 0.532081 0.048525 -0.836619 
0.450313 1.530294 0.884065 -0.362406 0.712545 -0.550733 
0.749245 -0.463717 -0.172806 -0.450881 0.016968 -0.880946 
1.754009 2.459066 1.366042 -0.338370 0.839809 -0.420848 
1.689653 2.248152 0.985608 -0.358226 0.882141 -0.288177 
0.527359 1.515409 0.776384 -0.417005 0.619237 -0.656933 
1.682554 2.415537 1.340601 0.393985 -0.875915 0.264587 
0.082981 0.915038 0.059681 0.486495 0.450351 -0.723564 
-0.627182 1.634123 0.839535 -0.956490 0.131432 0.240014 
0.928604 1.378182 0.266314 0.666396 -0.477101 0.486843 
1.109170 1.579382 0.275296 0.417008 -0.790088 0.321670 
1.388349 2.080883 0.909857 -0.415243 0.758353 -0.494234 
-0.733842 2.219947 0.054297 0.822232 -0.314342 -0.455686 
-0.466666 -1.389473 -0.028299 -0.656899 -0.540959 0.098843 
0.629893 0.539642 0.056710 -0.269495 0.305079 -0.793835 
0.247198 0.873679 0.134100 0.676156 0.441275 -0.562345 
-0.172440 1.211343 0.530972 -0.898805 -0.376378 -0.152339 
0.649636 1.706581 1.079801 0.623111 -0.602789 0.463903 
0.250436 -0.767495 0.050593 -0.130505 -0.059221 -0.972512 
0.086120 1.251932 0.249637 0.619947 0.394076 -0.610613 
-0.825132 0.062040 -0.420831 -0.762695 -0.185527 0.512067 
1.919385 2.343422 0.976388 -0.354063 0.866323 -0.341274 
1.369685 1.467316 -0.115090 0.173496 -0.911604 0.287488 
1.006402 0.007473 -0.317813 0.547501 -0.011822 0.822813 
1.136172 1.938942 0.931763 -0.415668 0.678316 -0.597207 
0.028091 -0.460653 0.366944 0.068816 -0.224296 0.962686 
1.015455 1.613974 0.479482 0.310938 -0.903903 0.136156 
-0.289569 0.587469 0.538573 -0.448055 -0.013457 0.872698 
0.562428 0.072484 0.008400 -0.056555 0.124922 -0.846080 
-0.786058 -0.337411 -0.329813 -0.590025 0.029269 0.732279 
-0.813793 1.175786 0.065889 0.780192 0.224478 -0.525568 
1.177544 0.862420 -0.341941 -0.700337 0.180276 -0.679729 
-1.156241 1.142984 -0.598486 0.850019 0.325098 -0.397316 
-0.359157 3.035504 -0.054969 0.808539 -0.337753 -0.475035 
-0.512991 2.219011 0.422613 -0.752650 0.478048 0.431279 
-0.649845 2.274370 0.125563 0.797987 -0.368044 -0.455749 
0.249712 0.137068 -0.001129 0.566758 -0.030816 -0.821045 
0.673333 0.218439 0.056820 0.772304 -0.253056 0.576351 
1.044116 1.893259 0.946856 -0.375213 0.684574 -0.608471 
0.233885 -0.185791 -0.003905 0.566370 -0.081847 -0.817529 
-0.986187 2.371561 -0.489209 -0.660062 0.570601 0.435601 
-0.560347 2.194923 0.374515 -0.720206 0.497137 0.475353 
1.796751 1.822230 0.085026 0.443734 -0.748894 0.470418 
-0.071280 0.194920 -0.112956 -0.542513 0.034201 -0.835331 
-0.888842 1.359082 0.105686 -0.899600 0.020509 0.389053 
0.335310 1.415322 0.891417 -0.842708 0.107495 -0.455033 
-0.098916 3.341238 0.109973 -0.784786 0.353885 0.505856 
0.465972 -0.132801 0.151800 0.767935 -0.235778 0.588340 
0.169144 1.167138 0.587276 0.911984 -0.157510 -0.346036 
0.650996 -0.431091 -0.115072 -0.417081 0.060780 -0.884538 
1.668169 2.121085 0.754893 0.387515 -0.869236 0.291363 
-1.139597 1.139719 -0.524386 0.844646 0.297407 -0.436373 
-0.643393 2.705998 -0.256866 -0.796307 0.403798 0.442521 
-0.145226 2.788021 0.427423 -0.743422 0.423363 0.513958 
0.733413 0.321109 0.029821 0.773519 -0.258391 0.572779 
0.887084 0.082640 -0.237554 -0.512385 0.084777 -0.821284 
-0.403089 -0.072595 0.050242 -0.034822 0.103995 -0.892864 
-0.269896 -0.105658 0.417620 -0.552614 -0.257927 0.751111 
0.502436 0.171433 0.036529 0.017790 0.138459 -0.889424 
-0.301459 2.604418 0.362605 0.779532 -0.389458 -0.483899 
-0.079566 -0.604121 0.046760 -0.046685 -0.210404 -0.965383 
0.745712 1.668082 0.863133 -0.294501 0.783923 -0.486263 
1.931636 2.489774 1.289191 0.365168 -0.866836 0.329217 
-0.417334 1.978329 0.821054 -0.642965 0.621977 0.423406 
0.437075 0.146244 0.361200 0.684946 -0.267314 0.668232 
1.013598 1.840201 0.906308 0.531250 -0.740502 0.362268 
-0.662427 0.526082 -0.161525 0.450928 0.210413 -0.677128 
0.768432 0.172158 -0.101584 -0.455405 0.166397 -0.761622 
0.065389 0.095226 -0.115724 0.520746 0.016248 -0.848753 
0.210275 -0.850427 0.165184 0.183488 -0.313859 0.928493 
-0.726267 1.018962 0.129728 0.757715 0.336713 -0.526688 
-1.069756 2.084177 -0.306558 0.643881 -0.541014 -0.485725 
0.293565 -0.264702 0.077833 0.384487 0.004112 -0.902971 
0.265184 0.959955 0.468301 0.852142 0.103050 0.438106 
0.445300 1.338784 0.825373 0.876157 -0.267310 0.361271 
-0.288488 2.052541 0.896476 0.894656 -0.363621 -0.055922 
-0.084956 -0.897181 0.169192 -0.183549 -0.277780 0.931835 
-0.690301 -0.583544 -0.230190 -0.572660 0.070926 0.785683 
1.302608 1.236928 -0.416518 0.663100 -0.413232 0.598618 
-1.197585 2.162004 -0.597736 -0.787740 0.388994 0.448458 
-0.915851 2.356633 -0.351016 -0.590362 0.627630 0.431238 
1.404267 1.437942 -0.193993 -0.183917 0.868478 -0.368390 
0.086575 -0.673178 0.286264 0.236432 -0.370388 0.892697 
-0.380386 1.576213 1.228037 0.490570 -0.666185 -0.151629 
1.562698 1.992463 0.602860 0.425574 -0.809366 0.394103 
-0.658567 -0.091278 -0.165768 -0.792014 -0.136259 0.561952 
-0.350074 0.246144 0.094077 -0.130303 0.156154 -0.969767 
0.310667 0.524616 0.050550 0.641923 0.137918 -0.722398 
-0.602568 1.799743 0.722939 -0.723823 0.594922 0.257972 
-1.011648 1.674720 0.019286 0.819424 -0.056594 -0.533738 
1.340728 2.024481 0.873466 -0.420340 0.653908 -0.617715 
0.601933 0.884760 0.342176 -0.872838 0.163949 -0.405142 
0.827853 0.675463 -0.034439 -0.544041 0.335331 -0.694001 
0.219447 -0.565015 0.065065 -0.173840 -0.198926 -0.957070 
-0.432412 1.573607 1.172749 -0.706388 -0.416076 0.429875 
-1.124471 1.069353 -0.658481 0.855589 0.353018 -0.355216 
0.173058 -0.926972 0.133343 0.145017 -0.281135 0.944457 
0.126923 1.109607 0.425930 0.825954 -0.026736 0.520926 
-0.247920 2.405387 0.643525 -0.699805 0.514786 0.474805 
-0.065009 3.175273 0.255573 0.737095 -0.371579 -0.561635 
-0.734599 -0.058506 -0.305530 -0.780318 -0.171735 0.531635 
1.171829 1.273247 -0.184400 -0.615937 0.502039 -0.581373 
0.307622 -0.526980 0.258817 0.670468 -0.273716 0.688900 
-0.484871 0.072378 0.170988 -0.856550 -0.270624 0.420251 
-0.002399 0.455401 0.605007 -0.052924 -0.048856 0.993917 
1.317852 2.287946 1.387208 -0.425179 0.863432 -0.256952 
1.664578 1.676437 -0.036241 0.340447 -0.840030 0.363371 
1.016082 1.517486 0.203636 -0.548837 0.640876 -0.533100 
-0.286760 -0.612693 0.232020 -0.640644 -0.273317 0.696327 
-0.117193 0.262141 -0.084086 -0.565915 0.031196 -0.819303 
-0.153061 -0.146197 0.455526 -0.221515 -0.255368 0.934196 
-0.193602 -0.907737 0.053482 0.158668 -0.074601 -0.973349 
0.024648 3.268266 0.332101 0.743810 -0.355507 -0.561992 
0.808988 1.713584 0.903258 0.617635 -0.663442 0.337181 
-0.977302 2.004939 -0.051551 -0.879127 0.156994 0.446657 
-1.047949 0.573213 -0.642274 -0.769015 -0.241741 0.428647 
-0.835972 1.003233 -0.022540 -0.905712 -0.113782 0.365440 
0.520611 -0.763659 -0.047913 0.613514 -0.084656 0.784495 
0.796805 1.526355 0.553256 0.605739 -0.616218 0.317651 
-0.483797 3.049509 -0.256548 -0.738556 0.418540 0.512451 
0.330092 -0.509128 0.101429 0.148670 0.047834 -0.947521 
1.222337 0.562645 -0.443536 0.621086 -0.036954 0.768244 
-1.268859 1.402389 -0.514695 -0.860752 -0.249362 0.425856 
1.240215 1.327226 -0.283133 -0.607014 0.519142 -0.585678 
-0.442132 1.675976 1.025476 0.891966 -0.334901 -0.073485 
1.325597 1.351639 -0.428611 -0.604955 0.518543 -0.597892 
-0.921801 0.721529 -0.433139 0.812387 0.276263 -0.464158 
-0.887845 0.064509 -0.458805 0.666193 0.113654 -0.606436 
1.827185 1.791218 0.004308 0.435224 -0.767269 0.462663 
-0.158397 -0.976509 0.109463 -0.139109 -0.261204 0.951614 
0.545985 0.653587 0.340985 -0.504694 0.585005 -0.298251 
0.831273 0.973275 0.143676 -0.621803 0.415176 -0.640695 
-0.519846 0.510104 0.039625 0.283571 0.267133 -0.756422 
0.481263 1.615383 1.013847 -0.287162 0.761868 -0.546949 
1.917393 2.177500 0.629154 -0.385233 0.778901 -0.471120 
0.548978 1.081590 0.638600 0.691954 -0.307755 0.642228 
0.913708 1.595921 0.571921 0.383304 -0.832599 0.143348 
-1.143246 1.767994 -0.126102 -0.849918 0.082793 0.491918 
-0.336478 -0.469513 0.189264 -0.761537 -0.220843 0.595857 
-0.168327 1.051841 0.450573 -0.471029 0.755676 0.341552 
0.486821 1.205350 0.645472 -0.477130 0.537898 -0.684238 
-0.603661 0.720700 0.147527 0.653106 0.355978 -0.139170 
0.057895 1.324793 0.247192 0.555622 0.441013 -0.622489 
-0.544528 -0.703923 -0.121370 -0.687056 -0.033887 0.698222 
0.598571 1.526683 0.716415 -0.435560 0.618635 -0.643912 
-0.355622 2.307795 0.581134 -0.650234 0.551924 0.500388 
0.450308 -0.782284 0.014867 0.633928 -0.111169 0.758814 
0.896400 1.267945 0.257342 0.704042 -0.383997 0.496249 
0.982360 1.388516 0.175114 -0.569129 0.594824 -0.553443 
0.194132 1.148359 0.279585 0.793450 0.492808 -0.297260 
0.150555 1.226632 0.521484 -0.172756 0.886691 0.351941 
1.007621 1.143064 0.058147 0.696356 -0.406286 0.526227 
0.639461 0.227922 -0.027714 -0.168663 0.151991 -0.817566 
0.344356 -0.342797 0.295154 0.700602 -0.257089 0.663692 
0.725153 0.505416 0.142352 0.776622 -0.314914 0.539732 
1.725131 2.407694 1.282252 0.390464 -0.871431 0.281854 
-0.875439 1.054890 -0.135588 0.814570 0.189256 -0.507635 
-0.574974 0.310603 -0.090130 0.287007 0.172249 -0.748867 
-0.152982 -0.358296 -0.031341 -0.492589 -0.157492 -0.838709 
0.308549 -0.202366 0.375787 0.608609 -0.264865 0.723914 
0.207803 1.119847 0.404332 0.430365 0.184465 0.802544 
0.902749 0.742642 -0.057209 -0.659300 0.352134 -0.651895 
-0.758912 1.919925 0.354061 -0.917246 0.139011 0.364212 
1.820671 2.369375 1.115670 -0.360172 0.838814 -0.407055 
0.690429 1.625734 0.880433 0.678965 -0.600983 0.333882 
-0.476717 2.337952 0.344549 0.652586 -0.509992 -0.549356 
-0.677313 2.564022 -0.196148 0.766739 -0.433390 -0.472899 
-0.391634 0.023799 0.059748 -0.055215 0.119877 -0.911527 
0.334053 0.156804 0.064938 0.329302 0.068717 -0.912570 
0.860496 -0.009573 -0.234528 -0.485211 0.066731 -0.843229 
-0.154623 0.183144 -0.058446 -0.577994 0.008137 -0.810707 
0.922765 0.694008 -0.120944 -0.621921 0.286624 -0.673296 
0.584295 1.723212 1.108292 -0.302512 0.867801 -0.380356 
-0.418741 -1.335123 -0.039620 0.134982 0.169990 -0.972626 
-1.290507 1.589450 -0.446823 0.842116 0.181309 -0.464944 
0.319153 0.665357 0.010240 0.699981 0.186688 -0.688932 
-0.390432 -0.154036 0.060512 -0.058980 0.090051 -0.899509 
1.007422 0.803726 -0.100789 0.782547 -0.231471 0.560517 
-0.307677 0.489568 0.079827 -0.633629 0.123004 -0.713827 
-0.930581 0.927179 -0.275772 -0.872756 -0.180401 0.429168 
1.404354 2.157733 1.071857 0.412326 -0.755585 0.496135 
-0.390933 0.550206 0.490076 -0.546970 -0.052618 0.824573 
0.195134 -0.445658 0.360684 0.251106 -0.281818 0.918917 
-0.896076 0.783712 -0.361455 0.838407 0.261675 -0.474333 
1.283116 1.068954 -0.403494 0.719746 -0.233990 0.625760 
-0.074630 3.289572 0.178442 -0.795108 0.351239 0.489880 
-0.649698 2.390228 0.039666 -0.694394 0.518493 0.464347 
0.550489 0.976631 0.442708 -0.757011 0.221047 -0.575418 
0.117750 -0.089250 0.477983 0.178240 -0.262889 0.945370 
0.329938 -1.227128 0.000946 -0.315420 0.120212 -0.917237 
0.954426 0.861922 -0.006487 0.786542 -0.220177 0.546365 
0.030947 1.221441 0.205045 0.459563 0.275277 -0.831566 
-1.097450 1.358984 -0.282438 -0.861356 -0.108099 0.450779 
-0.362860 2.892326 0.050400 0.833871 -0.312454 -0.447906 
1.978130 2.535168 1.350366 -0.333026 0.858245 -0.387324 
0.020672 -0.760754 0.255103 0.400890 -0.287881 0.864106 
0.400158 0.175630 0.084481 0.154231 0.135653 -0.947515 
0.045389 3.094600 0.474112 0.911595 -0.273189 -0.258474 
-0.345974 -0.932281 0.029092 0.310609 0.004451 -0.944600 
1.097565 1.868782 0.866494 0.486913 -0.768532 0.399020 
-0.401160 -0.881560 0.030447 -0.646624 -0.103284 0.745534 
1.155960 0.562793 -0.403659 0.678842 -0.077296 0.726226 
-0.510850 -0.435718 -0.059026 0.449073 0.091154 -0.802674 
-1.079129 2.011477 -0.220434 -0.875131 0.183274 0.443553 
-0.149948 2.632435 0.534012 0.732965 -0.433036 -0.523713 
-0.901310 2.237031 -0.192843 -0.452331 0.753232 0.417626 
-0.006348 0.907730 0.013088 -0.383286 0.466174 -0.790534 
-1.215497 1.870287 -0.278560 -0.849874 0.193311 0.487414 
0.303460 0.792038 0.187293 0.788833 0.392014 -0.390348 
-1.264783 1.734150 -0.367095 0.837219 -0.026702 -0.493400 
-0.855813 0.873025 -0.154369 -0.894573 -0.175664 0.384006 
1.280683 1.341625 -0.341373 0.631122 -0.503685 0.576691 
-0.003692 0.234250 -0.154796 -0.507171 0.048000 -0.855662 
1.087383 0.864367 -0.193835 0.750169 -0.294848 0.570724 
-0.862444 2.394296 -0.300585 -0.589425 0.623073 0.433271 
-0.019661 0.120553 -0.136021 -0.489278 -0.001832 -0.857819 
0.239994 -0.674918 0.236303 0.403842 -0.334795 0.824003 
-0.093144 1.075229 0.153255 -0.421163 0.450413 -0.766898 
-0.721854 1.048940 0.255920 -0.946193 -0.057213 0.284530 
1.067486 1.380131 0.064025 -0.589563 0.572604 -0.544691 
0.953846 1.539462 0.372837 0.536147 -0.685633 0.356734 
0.040209 0.897543 0.598307 0.178257 -0.116732 0.965846 
-0.794733 2.326060 -0.114724 -0.525406 0.678160 0.432000 
0.356496 -0.612651 0.160808 0.663019 -0.218748 0.707650 
0.239341 0.033321 -0.005333 0.565300 -0.045657 -0.820732 
0.663273 1.052493 0.448763 0.843183 -0.104151 0.478051 
-0.613890 2.586914 -0.097402 -0.788872 0.413983 0.443425 
0.850434 1.319164 0.291670 -0.550304 0.579873 -0.588453 
0.073829 1.264777 0.441344 0.219960 0.804565 0.535902 
-0.456904 0.323148 0.372036 -0.697426 -0.279187 0.605042 
0.129320 -0.178332 0.448554 0.169220 -0.258678 0.948974 
0.455103 0.591104 0.502358 -0.041530 -0.440202 0.868050 
-1.255409 2.030063 -0.530259 -0.823336 0.298119 0.460318 
-0.732091 1.977883 0.384328 -0.704822 0.507923 0.460806 
-0.230463 -0.426758 0.017096 -0.418718 -0.141326 -0.837153 
1.411474 1.198213 -0.522081 0.706264 -0.155208 0.668252 
0.362598 1.358829 0.847583 -0.846584 0.009539 -0.378716 
-0.605094 1.366860 0.609318 0.708082 0.254879 -0.623531 
-0.744221 1.088850 0.142151 0.759302 0.306545 -0.529253 
-0.156212 1.215282 0.310393 -0.771558 0.583072 -0.170521 
1.403453 1.401294 -0.256182 -0.151282 0.898359 -0.336885 
-0.603472 0.497589 -0.113251 0.341435 0.204251 -0.734172 
0.612608 0.790759 0.342626 -0.880544 0.150333 -0.383378 
0.213106 0.410023 0.573652 0.299343 -0.092382 0.945048 
0.743050 -0.083973 -0.116818 -0.524496 0.135698 -0.796541 
-0.133221 2.591416 0.588937 0.738459 -0.436955 -0.512850 
-1.388493 1.783401 -0.577359 -0.846194 0.101921 0.467623 
0.087774 -0.563084 0.030193 0.026663 -0.272537 -0.956257 
0.160527 1.229739 0.434845 0.584110 0.789284 0.092376 
1.218376 1.248042 -0.283609 -0.622953 0.482040 -0.594161 
1.158337 1.783880 0.605033 -0.353819 0.883261 -0.258721 
1.748148 2.371501 1.185066 0.383820 -0.850906 0.346502 
1.107358 1.699199 0.465772 -0.353780 0.874683 -0.321202 
0.084961 0.326189 -0.098121 0.511558 0.059081 -0.853478 
0.816487 0.286729 -0.120468 -0.494374 0.180938 -0.739499 
-1.170525 1.994290 -0.357800 0.699868 -0.442139 -0.492927 
-0.788370 0.562249 -0.203084 -0.872525 -0.241868 0.419532 
0.409984 0.522222 0.459094 0.512381 0.016030 0.833282 
0.006697 3.370486 0.245187 0.759600 -0.344436 -0.548334 
-0.408216 -0.340207 0.037630 0.085522 0.077180 -0.885522 
-1.193941 1.927176 -0.320398 0.753524 -0.337716 -0.503504 
-0.683810 2.063872 0.291206 0.854899 -0.242238 -0.426756 
-0.353093 2.516613 0.364936 0.801688 -0.380141 -0.456516 
0.408253 0.602140 0.434865 0.566501 0.186057 0.787015 
0.376952 1.473120 0.892829 -0.382098 0.615604 -0.685591 
2.032410 2.307828 0.793859 -0.364029 0.851083 -0.371804 
0.602767 -0.568008 -0.094300 -0.391490 0.046207 -0.904408 
-0.653646 -0.326087 -0.247139 0.559799 0.139549 -0.713332 
0.359249 -0.678530 0.069770 -0.038249 0.047413 -0.944540 
0.434363 -0.989867 -0.002162 0.664309 0.008405 0.721375 
-1.072148 1.509947 -0.159505 -0.857077 -0.002484 0.472990 
1.053371 1.137110 -0.002486 0.681669 -0.438830 0.533965 
-0.267092 0.551839 0.004060 -0.650471 0.064972 -0.737725 
0.277846 -0.544779 0.012154 0.316760 -0.082586 -0.851378 
0.946774 1.497906 0.266998 -0.533831 0.635443 -0.549508 
-0.066886 -0.130587 0.470302 -0.108253 -0.268090 0.956609 
-0.692534 2.368867 -0.029981 0.786286 -0.389013 -0.469092 
-0.095683 0.969007 0.601430 -0.193033 -0.133973 0.965645 
-0.736005 0.382369 -0.191993 -0.866280 -0.206512 0.446594 
-0.473006 0.619690 0.306312 0.174488 0.537844 -0.356652 
0.902643 0.241417 -0.178779 0.717081 -0.164010 0.661135 
-1.050187 0.653844 -0.657215 -0.810886 -0.292247 0.377711 
-0.213209 1.020797 0.550007 -0.650808 -0.179032 0.685980 
1.548818 2.027997 0.668248 -0.414934 0.720857 -0.528811 
-0.978557 0.688018 -0.545140 0.784846 0.301874 -0.440980 
0.017667 -0.594942 0.051082 0.350520 -0.264484 -0.881512 
0.364766 -0.258033 0.289754 0.701237 -0.245335 0.666021 
0.366150 0.657886 0.467554 0.730033 0.345397 0.492280 
-0.665186 0.138309 -0.144187 -0.842675 -0.176756 0.487810 
-0.705428 1.505423 0.507591 0.735165 0.143686 -0.615228 
0.092807 0.498109 0.600570 0.167425 -0.025313 0.977774 
-0.312621 0.763617 0.465354 -0.686137 0.340806 0.571445 
0.855996 1.183673 0.268891 0.739735 -0.309174 0.498470 
-0.264423 -0.277708 0.036540 -0.467224 -0.041823 -0.853490 
2.062346 2.452014 1.077010 -0.347301 0.853117 -0.389218 
-0.592367 2.323280 0.165779 0.764660 -0.436549 -0.466272 
0.155242 0.745069 0.538392 0.212320 0.077023 0.952234 
-0.528153 1.074135 0.632876 -0.677549 -0.363971 0.547008 
1.114531 1.996949 1.045892 -0.419703 0.835275 -0.345330 
-0.698938 0.697381 0.169740 -0.815650 -0.212079 0.420901 
0.170855 -0.695647 0.061389 -0.018999 -0.083599 -0.985819 
-0.452951 -0.957493 -0.034901 -0.710923 0.052421 0.683952 
0.086935 -0.599973 0.312725 0.166656 -0.348233 0.913693 
-0.383862 3.205444 -0.225083 -0.777580 0.379585 0.500436 
0.261329 -0.358891 0.038116 0.493018 -0.068588 -0.851716 
0.270990 -0.113653 0.417818 0.519539 -0.263912 0.777095 
0.654625 0.696573 0.202742 -0.705682 0.357308 -0.210864 
-0.848545 1.540714 0.248021 0.772985 0.083050 -0.563773 
-0.622932 0.560829 0.327323 -0.710193 -0.298160 0.554378 
0.791374 1.156893 0.280609 -0.571813 0.518142 -0.620303 
1.908109 2.105995 0.491115 0.401969 -0.815833 0.413396 
-0.100392 -0.055546 -0.085237 -0.528244 -0.033061 -0.837262 
0.291013 -0.883356 0.040742 -0.190563 -0.007435 -0.969624 
-0.174021 0.103755 -0.044553 -0.582241 -0.009737 -0.807537 
1.779684 1.748316 -0.028159 -0.398315 0.794181 -0.449003 
-0.220403 3.122831 0.082173 0.767607 -0.366632 -0.521378 
-0.652373 0.584530 -0.121051 0.469792 0.243902 -0.667690 
-0.491669 1.824839 0.887065 -0.699546 0.552422 0.439312 
1.619099 2.034920 0.628309 0.409468 -0.832885 0.355145 
-0.990386 1.544760 -0.027353 0.821328 -0.011926 -0.527202 
0.612505 -0.486033 -0.086071 -0.415333 0.069737 -0.882419 
-0.351136 2.009602 0.821957 0.754330 -0.296236 -0.570320 
0.459241 0.293969 0.392424 0.632414 -0.262682 0.699596 
0.818944 0.834330 0.087909 -0.640551 0.366197 -0.660406 
1.102159 0.871526 -0.262967 -0.698297 0.307512 -0.632165 
0.062442 0.977099 0.609294 0.177715 -0.083008 0.973705 
-0.647482 -0.266309 -0.204798 -0.764456 -0.128933 0.583459 
-0.776386 2.143157 0.067329 0.855791 -0.246683 -0.441277 
-0.942728 1.520742 0.048928 0.804169 0.037559 -0.532360 
-0.486769 0.639079 0.482984 0.670755 0.654804 -0.225929 
0.293730 1.526205 1.019560 -0.664021 0.459996 -0.557021 
-0.812534 1.485915 0.280959 0.763239 0.126016 -0.565516 
0.673892 1.075773 0.375889 -0.560094 0.502440 -0.652343 
1.820258 1.867825 0.140063 0.430257 -0.774175 0.454322 
-0.501352 0.149479 0.186196 -0.855982 -0.294405 0.406901 
2.040168 2.531978 1.290585 0.351937 -0.864287 0.354391 
0.692881 0.928594 0.281110 -0.596913 0.422772 -0.670904 
0.532780 -0.957078 -0.055952 -0.464369 0.016135 -0.882892 
-0.537905 0.309983 0.212541 -0.855020 -0.341880 0.380057 
-0.467304 2.654082 0.091485 -0.858598 0.317351 0.392697 
1.177174 1.453475 -0.086441 0.599642 -0.586230 0.535657 
-1.241693 1.273113 -0.612549 -0.867367 -0.312727 0.374031 
-1.060515 0.821650 -0.654148 0.803326 0.339942 -0.386893 
0.963273 0.463388 -0.174415 0.752816 -0.201866 0.614941 
-1.033448 1.234004 -0.284981 0.837396 0.138315 -0.491948 
-0.402524 2.933173 -0.042757 0.824599 -0.326216 -0.455207 
-0.610596 2.194307 0.276993 0.783761 -0.398382 -0.454304 
0.113885 -0.361379 0.388106 0.101588 -0.239547 0.961670 
0.032321 -0.775281 0.069109 0.257887 -0.120842 -0.952507 
-0.516463 1.316800 0.793313 -0.406358 -0.502370 0.650358 
-0.740781 0.746785 0.036916 -0.934825 -0.213233 0.280874 
0.749741 -0.639524 -0.168691 -0.461545 -0.014236 -0.886187 
1.103220 1.743125 0.654317 0.516370 -0.681503 0.508455 
-0.506920 1.758919 0.855967 0.582774 -0.193615 -0.760743 
-1.140964 1.424692 -0.328391 0.838989 0.133222 -0.484450 
-0.681319 1.526673 0.570490 0.728930 0.137490 -0.630532 
-0.528256 2.324309 0.293319 -0.749454 0.466325 0.465647 
-0.628045 2.514127 -0.070905 0.743212 -0.452639 -0.484276 
-0.581369 1.043324 0.407137 0.795732 0.325208 -0.457789 
-0.558482 2.142580 0.429612 -0.728509 0.503792 0.440580 
-0.128513 3.269361 0.106604 0.755021 -0.364048 -0.543397 
-0.231637 0.086136 -0.006721 -0.606273 -0.029215 -0.790831 
-0.350489 3.180774 -0.153124 -0.754815 0.393358 0.516427 
1.482114 1.971112 0.618379 -0.426342 0.778735 -0.447556 
0.225265 1.045703 0.583692 0.497820 -0.440267 0.647965 
-0.596309 0.810408 0.324530 0.947434 0.163459 -0.169313 
-0.464302 0.101560 0.234557 -0.830692 -0.277549 0.455153 
-1.184047 1.825199 -0.189658 -0.846917 0.166639 0.497817 
-0.516285 0.628704 0.149152 0.217141 0.480229 -0.610489 
-0.362009 2.837465 0.103764 -0.598566 0.511386 0.602617 
0.362569 -0.174079 0.339513 0.682180 -0.253405 0.683629 
1.113707 1.634353 0.360067 -0.530352 0.611794 -0.584992 
0.526106 -0.581574 -0.014837 0.661276 -0.121874 0.728615 
0.101698 0.685562 0.561191 0.083454 0.123996 0.978315 
-0.300707 -0.650997 0.021592 -0.041535 -0.072000 -0.870710 
-0.646012 1.695964 0.749091 -0.950157 0.132789 0.261923 
-0.629263 1.276228 0.602725 -0.967588 0.030581 0.230186 
1.156107 1.978530 0.989884 0.455821 -0.691397 0.554154 
0.609323 0.620480 0.350421 0.258471 -0.299008 0.879999 
0.218068 0.127487 0.508047 0.364099 -0.245265 0.876135 
-0.188645 1.175781 0.369259 -0.795127 0.567882 -0.074199 
-0.231856 0.184450 0.512573 -0.417726 -0.208322 0.849693 
0.841698 0.447967 -0.052171 0.777593 -0.244876 0.575286 
0.057841 -0.942484 0.059398 0.178480 -0.090496 -0.964123 
-0.199965 -0.820165 0.181196 -0.201554 -0.326582 0.920148 
-0.514597 1.681046 1.005747 -0.717406 0.553563 0.412714 
-0.522423 2.120951 0.506141 -0.758483 0.494813 0.382241 
-0.512405 1.396184 0.845917 0.927015 -0.216444 0.071030 
2.069292 2.423728 1.008084 -0.351358 0.850424 -0.391375 
-0.895156 0.629385 -0.411806 0.790795 0.263596 -0.487258 
0.835880 -0.407267 -0.219108 -0.486318 -0.001250 -0.867227 
-0.210468 -0.447876 0.358262 -0.301472 -0.287313 0.907377 
1.618447 2.084188 0.714033 -0.403445 0.665640 -0.606766 
-0.271917 -0.201662 0.037332 -0.443333 -0.023083 -0.860411 
1.322289 1.176159 -0.446701 -0.660281 0.303786 -0.652315 
1.807220 2.006581 0.386408 0.421447 -0.786308 0.439412 
2.000411 2.182453 0.562848 0.392678 -0.824621 0.405194 
0.587575 0.320968 -0.003387 -0.104804 0.164874 -0.855771 
-0.950822 0.801887 -0.419869 -0.874600 -0.270583 0.385001 
0.281105 0.784423 0.108195 0.682363 0.478980 -0.507948 
-0.160925 -0.884892 0.156832 -0.163192 -0.299563 0.934966 
0.165130 -0.719399 0.244000 0.213887 -0.366358 0.901874 
-0.456855 2.869106 -0.058561 -0.754721 0.412595 0.497023 
-0.720824 0.143364 -0.205263 -0.817472 -0.166081 0.518890 
-0.226192 -0.213873 0.409546 -0.454830 -0.260802 0.800632 
0.886875 0.704057 0.011078 0.810606 -0.235490 0.533257 
-0.477702 -0.701207 -0.041992 -0.734865 -0.062705 0.662666 
0.629112 0.299471 0.166395 0.766340 -0.311381 0.554903 
