2.060270 2.171814 0.491523 -0.086149 0.738922 -0.661574 
-1.433858 0.979506 -0.738964 0.793182 0.197586 -0.566037 
-0.519375 -0.064650 -0.016382 0.053127 0.082569 -0.838544 
-0.898906 2.176841 -0.789992 0.753901 -0.459269 -0.462507 
1.357671 0.491397 -0.472818 0.672141 -0.078796 0.728841 
1.452816 2.290755 0.692266 -0.196675 0.684799 -0.695900 
-1.049856 0.946030 -0.317482 0.780119 0.001125 -0.572486 
1.192316 2.131077 0.687023 0.321731 -0.548732 0.738718 
-0.233835 0.952860 0.198169 -0.712617 0.393624 -0.537290 
0.379511 0.131011 0.127112 0.284803 0.134801 -0.938509 
1.899160 2.475137 0.804236 0.123069 -0.773365 0.609870 
0.089725 0.311998 0.565233 0.131295 -0.222826 0.961672 
-0.044321 1.356235 0.279005 -0.608392 0.622667 -0.435788 
0.097873 0.884519 0.065728 0.516115 0.411312 -0.730379 
1.787414 1.188309 -0.209963 -0.009844 -0.678212 0.681475 
-0.002776 -0.637682 0.062541 -0.664174 -0.243592 -0.685047 
-1.137714 1.000745 -0.395149 0.782285 0.015174 -0.575050 
-0.058031 1.116270 0.170047 -0.382722 0.408365 -0.816892 
0.212579 0.930374 0.154945 0.658399 0.423503 -0.614423 
-1.519213 1.342177 -0.789056 0.779759 -0.174290 -0.540749 
0.670282 0.480365 0.298839 0.684769 -0.222316 0.651845 
0.808678 0.647652 0.079267 -0.478797 0.313575 -0.808719 
0.511395 -0.448927 0.070821 0.640511 -0.119408 0.748305 
1.217185 1.559403 0.199491 0.103688 -0.840469 0.500051 
-0.732321 2.411108 -0.786080 0.664797 -0.554364 -0.477081 
-1.020240 0.571442 -0.358018 0.773933 0.203499 -0.598707 
-0.226619 2.481045 0.021855 0.782914 -0.521389 -0.337629 
-0.502678 -1.071322 0.025645 -0.647196 0.247309 0.696151 
-0.444533 -0.161092 0.032885 -0.068071 0.061959 -0.878490 
-0.427967 2.104481 0.386278 -0.693530 0.663301 0.218047 
-0.330353 3.207839 -0.738811 0.806145 -0.304363 -0.505435 
1.730394 1.100673 -0.253596 -0.098496 -0.716609 0.641500 
-0.151176 -0.529956 0.043290 -0.170939 -0.346864 -0.902173 
0.710215 1.935267 0.758125 0.490541 -0.456347 0.706741 
1.472866 1.324235 -0.049530 -0.049854 -0.787006 0.577426 
0.563375 -0.159113 0.073560 0.695033 -0.173128 0.696570 
1.801245 1.475519 -0.024732 0.296575 -0.387498 0.833884 
0.311450 -0.540382 0.077556 0.278317 -0.059263 -0.898000 
0.018488 -0.566689 0.046868 0.354325 -0.406439 -0.837569 
1.505789 2.328403 0.720506 0.197236 -0.657589 0.717736 
1.229409 1.213149 -0.117229 0.441049 -0.462246 0.755175 
0.409749 0.123700 0.386752 0.546869 -0.279481 0.785884 
-0.508292 -0.038331 0.137859 -0.778177 -0.227598 0.572095 
-0.743349 2.291769 -0.670916 -0.757781 0.496984 0.406556 
-0.557834 -0.420558 -0.026971 0.353962 0.039764 -0.840461 
-0.943165 2.237703 -0.941758 -0.724527 0.534456 0.429979 
0.430565 -1.077130 0.082537 -0.325553 -0.049230 -0.939623 
0.824734 0.784456 0.105538 -0.524908 0.270627 -0.799113 
0.993820 2.018638 0.682904 0.397717 -0.491204 0.740659 
1.775933 2.141613 0.485742 -0.137855 0.515212 -0.828387 
0.970170 1.274086 0.146352 0.548424 -0.324641 0.689162 
-1.174321 1.207687 -0.376341 -0.812895 0.093143 0.519636 
-0.450627 0.002997 0.248306 -0.733192 -0.259702 0.608860 
-0.688665 1.045672 0.249152 0.656617 0.265847 -0.689519 
0.729272 0.287288 0.133855 0.683534 -0.271487 0.670736 
-0.390541 -1.212469 0.089165 -0.343915 0.199823 -0.824066 
1.558281 1.000968 -0.435286 0.174769 -0.590240 0.675529 
0.325043 -0.182374 0.118571 0.362310 0.043667 -0.923387 
-0.214921 -0.250204 0.391364 -0.403174 -0.205319 0.844987 
0.683744 1.709283 0.550381 -0.053045 0.598281 -0.754382 
0.475762 -0.363697 0.095193 0.673341 -0.146267 0.719767 
1.615669 2.063952 0.442884 -0.184051 0.432884 -0.870849 
1.355483 0.711773 -0.405834 -0.667771 0.151578 -0.725685 
-0.701469 1.068406 0.331433 -0.955069 0.009203 0.287015 
-1.045578 1.497878 -0.123948 -0.846906 0.247768 0.436724 
-1.002020 1.629388 -0.037883 -0.858889 0.272161 0.397256 
-0.459222 -0.173441 0.134413 -0.781294 -0.191343 0.584219 
-0.636777 2.048859 -0.117308 0.752351 -0.586902 -0.297251 
0.449239 -0.900581 0.069238 -0.258307 -0.028098 -0.957820 
1.678587 2.206420 0.567979 0.146024 -0.500317 0.844717 
0.363555 0.643376 0.511333 0.641247 0.117032 0.737723 
-0.825983 -0.304262 -0.320410 -0.683553 -0.096912 0.657951 
0.893207 2.108668 0.762735 -0.225819 0.676378 -0.695990 
0.448023 0.560975 0.260429 0.284734 0.491519 -0.598104 
-0.732107 1.384642 0.379841 -0.944042 0.112334 0.261891 
1.120481 0.233167 -0.302370 -0.541019 0.082837 -0.798878 
1.224857 1.753089 0.357463 0.367182 -0.473770 0.792128 
-0.439505 -0.943374 0.059439 -0.577410 -0.011952 0.809060 
1.628155 1.001871 -0.294259 0.201648 0.747955 -0.604217 
2.116951 2.433919 0.741350 0.079782 -0.733867 0.669333 
0.357613 -1.084932 0.095338 0.058569 0.047758 -0.908196 
-0.499949 -0.213737 0.044671 -0.793338 -0.146389 0.589535 
-0.510110 0.538616 0.166320 -0.017219 0.428816 -0.715291 
-0.322735 0.700609 0.524757 -0.569615 0.334358 0.722180 
-1.127143 1.362214 -0.320551 0.788236 -0.199239 -0.543925 
-0.207677 -0.769631 0.239698 -0.237378 -0.262309 0.929930 
0.242712 0.090823 -0.019022 0.628451 -0.029914 -0.768546 
-0.951060 1.259677 -0.034910 -0.874391 0.138244 0.411827 
-0.469568 0.070055 0.031102 -0.047764 0.124387 -0.870206 
-0.322530 0.720346 0.118557 -0.739318 0.433324 -0.462232 
-0.169584 1.105003 0.208242 -0.582946 0.421336 -0.674733 
-0.700524 -0.606402 -0.171390 0.468226 -0.042817 -0.826215 
-0.687583 1.329447 0.352961 0.672447 0.087744 -0.694843 
-0.775386 -0.184483 -0.235412 0.564470 0.111076 -0.739180 
1.760292 1.599355 0.057729 -0.122383 0.654364 -0.737182 
-0.004525 -0.709149 0.082427 -0.630865 -0.209866 -0.719307 
0.510817 -0.734419 0.049754 0.566554 -0.057303 0.814174 
0.274274 -0.290407 0.360225 0.548919 -0.222740 0.772481 
0.631153 1.719096 0.611072 0.651631 -0.453034 0.555778 
-0.823464 -0.226024 -0.325028 0.547511 0.126011 -0.730345 
0.597081 1.842178 0.740583 0.538612 -0.420212 0.700761 
0.821982 -0.592316 -0.130009 -0.384497 -0.079799 -0.906497 
-0.318660 2.221886 0.364409 -0.435398 0.656997 0.557645 
0.300071 0.784449 0.192562 0.771717 0.407566 -0.408696 
0.310902 0.264117 0.028046 0.598819 0.038156 -0.776194 
1.233688 0.940000 -0.198180 0.552669 -0.360293 0.721041 
-0.963402 0.436534 -0.287593 -0.812631 -0.193603 0.541820 
-0.937509 0.169969 -0.377985 0.664516 0.182670 -0.650201 
0.922831 1.068000 0.101374 -0.449207 0.357908 -0.803299 
-0.693959 0.511530 0.188143 -0.852194 -0.266956 0.419868 
-0.561934 0.335230 0.280002 -0.752385 -0.378948 0.536418 
0.767958 1.526272 0.330120 -0.288725 0.440095 -0.843571 
0.171369 1.065302 0.529914 0.705771 0.584091 -0.115983 
1.353485 2.143296 0.596696 0.272321 -0.520397 0.803309 
-0.142890 2.836866 -0.238423 0.774271 -0.406637 -0.484570 
0.140495 0.985919 0.610428 0.206931 -0.184225 0.957473 
0.764742 0.786787 0.156038 -0.489928 0.298889 -0.816634 
-0.100530 -0.188003 0.433419 -0.148573 -0.190368 0.967944 
0.608859 0.799338 0.335803 -0.809451 0.060478 -0.546645 
0.206584 -0.370401 -0.008014 0.545252 -0.168995 -0.813800 
0.202386 1.127508 0.282404 0.778986 0.461160 -0.349824 
-1.031326 1.778420 -0.410794 -0.846973 0.275274 0.452034 
-0.264986 2.682919 -0.294254 -0.789101 0.440255 0.421004 
0.243592 1.058591 0.299314 0.861788 0.422375 -0.247865 
1.517459 0.712972 -0.581829 0.691697 -0.078190 0.714377 
-0.685047 1.312863 0.437944 -0.958900 0.075865 0.243221 
-0.588508 1.806487 0.504049 0.614220 -0.401901 -0.645201 
1.402815 1.751125 0.273284 0.355584 -0.402650 0.808397 
0.087373 -0.125637 -0.092692 0.491170 -0.110627 -0.843083 
-1.497591 1.534038 -0.855245 0.759966 -0.415027 -0.492343 
1.438779 0.909852 -0.469529 -0.530096 0.365727 -0.743480 
-0.857754 2.134636 -0.670717 0.757385 -0.464553 -0.448355 
2.045812 2.271704 0.588942 -0.079245 0.742281 -0.659569 
0.727414 1.057705 0.311981 0.766706 -0.025282 0.589780 
-0.700621 2.747433 -1.015252 0.766972 -0.408801 -0.489502 
1.621027 0.894342 -0.642978 0.694314 -0.106614 0.703784 
0.565916 1.225328 0.500120 0.658859 -0.080027 0.723292 
2.012474 1.287664 -0.199946 0.186488 -0.549242 0.807147 
-0.001484 0.217175 -0.178186 -0.512853 0.032123 -0.849039 
1.457639 1.220049 -0.130837 -0.061898 0.590949 -0.718409 
-0.819338 0.621025 -0.073001 0.694256 0.299258 -0.648350 
-0.535656 1.881250 0.584575 -0.661608 0.723641 0.146459 
1.298805 0.588020 -0.364237 0.698950 -0.132346 0.696427 
1.441270 0.979915 -0.460064 -0.480452 0.438532 -0.751006 
-0.300039 0.129626 0.436227 -0.457246 -0.266459 0.823880 
-1.236663 1.728394 -0.701165 -0.805984 0.356716 0.453015 
-0.718085 0.673105 0.166490 -0.559146 -0.061144 0.809565 
-0.569916 2.098694 -0.050714 0.676319 -0.609700 -0.373399 
1.380870 1.278502 -0.086212 -0.158909 0.549121 -0.749061 
-1.202689 1.495669 -0.357514 -0.809663 0.243038 0.508164 
-0.656404 1.391807 0.425524 0.668880 0.064674 -0.707318 
0.513959 0.351899 0.104122 0.070066 0.198252 -0.905853 
-0.038866 0.346801 0.576991 -0.077296 -0.221623 0.968402 
0.498685 1.258070 0.530938 0.059592 -0.396997 0.827691 
-0.470964 0.466779 0.472423 -0.440585 -0.159767 0.868617 
-0.364093 -0.122160 0.333488 -0.662418 -0.234822 0.704546 
-0.123660 -1.197833 0.197837 -0.322858 -0.058353 0.884933 
0.149297 0.371754 0.579676 0.194086 -0.197238 0.959301 
-1.133206 1.745050 -0.544650 -0.836022 0.293758 0.459037 
-0.777912 2.185204 -0.591040 -0.686237 0.592292 0.382546 
-0.728956 1.857128 0.118784 -0.675604 0.678129 0.152289 
0.206568 -0.594670 0.082809 -0.048519 -0.228349 -0.958915 
-0.401395 2.163039 0.216119 0.783462 -0.464908 -0.395716 
0.003413 0.508264 -0.123468 0.470206 0.218640 -0.852879 
1.314185 1.795410 0.316550 -0.215174 0.700086 -0.661204 
-0.668581 1.765754 0.274660 0.780126 -0.244937 -0.514855 
-0.158332 1.060168 0.462915 -0.538863 0.648290 0.349181 
-0.378551 2.364261 0.034051 -0.731698 0.560799 0.323730 
-0.237620 -0.933955 0.108805 0.237369 -0.173354 -0.944797 
2.298289 2.116115 0.415882 0.078613 -0.696520 0.713052 
-0.604213 0.028259 0.023587 -0.791657 -0.200771 0.568006 
0.427296 0.238572 0.113357 0.223069 0.160982 -0.930894 
-0.688936 1.728171 0.339695 0.611607 -0.345051 -0.578184 
-0.395955 2.947880 -0.690177 -0.787523 0.375998 0.483869 
-1.320565 1.108870 -0.546426 -0.810485 -0.041854 0.546267 
-0.341607 -0.793226 0.181675 -0.559601 -0.135254 0.804948 
1.108028 0.680523 -0.118745 0.685837 -0.220189 0.673024 
1.965768 2.117041 0.454270 0.116654 -0.746070 0.648253 
2.277919 2.164798 0.464652 0.076522 -0.698350 0.711000 
-0.276191 0.879547 0.221013 -0.789686 0.387716 -0.419009 
-0.241210 2.771585 -0.330586 0.771375 -0.422298 -0.474349 
-0.672843 -0.390466 -0.139355 0.506980 0.066575 -0.793281 
1.635447 1.900618 0.311726 0.224033 -0.621628 0.743267 
-0.568400 0.590239 0.144432 0.141212 0.455490 -0.681119 
0.930100 0.470701 -0.104933 -0.425482 0.194575 -0.779679 
1.521819 1.454071 0.030206 -0.002943 -0.795326 0.583051 
-0.314730 0.791172 0.226220 -0.814960 0.397072 -0.349300 
1.710033 1.275383 -0.133645 -0.001825 -0.711450 0.654055 
-0.538923 -0.110142 0.044346 -0.791705 -0.172994 0.580030 
0.765909 0.348459 0.126273 0.683970 -0.278580 0.667750 
-0.754200 0.579465 0.124611 -0.883910 -0.224787 0.392404 
0.156811 1.129379 0.209594 0.546858 0.440075 -0.696096 
1.067621 -0.117568 -0.291966 0.542636 0.005434 0.816305 
-0.626065 1.265739 0.410525 0.707856 0.254808 -0.636878 
-0.852008 1.172006 0.105963 -0.907341 0.086215 0.364047 
-0.008610 -1.037219 0.140378 -0.526959 -0.173291 -0.812566 
1.168043 0.526983 -0.259084 -0.633644 0.168851 -0.741754 
1.147173 0.834621 -0.115995 0.605718 -0.303284 0.701884 
-0.345855 -0.193878 0.342570 -0.667702 -0.234028 0.702452 
-0.084960 -1.104468 0.185935 -0.303358 -0.013357 0.945053 
-0.336013 2.482296 -0.183069 0.790564 -0.473718 -0.376949 
0.712875 -0.734931 -0.066426 0.447561 0.053546 0.883835 
1.607897 2.444763 0.802241 0.172663 -0.746770 0.630124 
-0.553519 0.213147 -0.021582 0.084634 0.157254 -0.826290 
-1.134927 0.452609 -0.599686 0.738975 0.263453 -0.559679 
-1.366274 1.519833 -0.605366 0.779888 -0.353679 -0.513618 
0.041841 0.846087 0.603822 0.166052 -0.190921 0.957929 
0.773282 0.844114 0.224740 0.797558 -0.027482 0.592809 
-0.786707 1.865175 -0.022445 -0.613900 0.733579 0.271904 
-0.110282 1.172531 0.585580 0.322112 0.549718 0.733554 
-0.464897 2.513653 -0.456913 0.866881 -0.299356 -0.396096 
0.165918 -0.092591 0.443387 0.246185 -0.220966 0.929296 
0.911862 1.601828 0.331046 -0.344396 0.388792 -0.848770 
-0.465372 -0.048846 0.200804 -0.770234 -0.249139 0.572011 
-0.426099 2.879070 -0.677992 -0.744560 0.422271 0.495214 
0.916244 0.367699 -0.106816 -0.407499 0.167675 -0.776212 
-1.243100 1.165690 -0.470703 0.786559 -0.025373 -0.569810 
-0.533071 2.180378 -0.100107 -0.768608 0.564659 0.281460 
-0.063691 0.478627 -0.092539 -0.535866 0.180089 -0.809728 
-0.843590 0.378058 -0.227966 0.575622 0.178811 -0.666138 
0.231244 0.672215 -0.002117 0.596454 0.258446 -0.731370 
-0.078118 0.997547 0.120529 -0.446962 0.457833 -0.747413 
-0.227803 2.915896 -0.407197 -0.867414 0.299818 0.384714 
-1.525742 1.180739 -0.768381 0.787296 0.063940 -0.582099 
0.803644 0.624867 0.205150 0.792115 -0.110649 0.574187 
-0.151370 -0.335319 -0.034744 -0.510398 -0.178468 -0.824344 
1.101248 2.168828 0.764888 0.339447 -0.563815 0.716355 
-0.286299 0.782450 0.142492 -0.693864 0.475900 -0.491443 
1.595478 1.818001 0.260499 0.274425 -0.514592 0.783676 
-0.177282 1.027478 0.177069 -0.606906 0.395415 -0.681978 
1.376386 1.140097 -0.332838 -0.427752 0.475899 -0.765417 
1.322629 2.262846 0.699521 -0.241777 0.660140 -0.706100 
0.461981 1.408556 0.515258 -0.591512 0.195238 -0.741930 
0.522050 0.281952 0.072190 0.100849 0.167215 -0.902369 
0.833884 1.477492 0.294038 0.582548 -0.398607 0.650145 
-1.400455 0.915742 -0.743583 0.795749 0.226501 -0.548351 
0.228319 -0.869337 0.196513 0.197305 -0.206508 0.954655 
-0.450478 2.418005 -0.312645 0.857357 -0.364267 -0.350792 
-0.129328 -0.881919 0.228095 -0.184645 -0.187617 0.958326 
-0.578060 1.308602 0.546805 0.936952 -0.072724 -0.074959 
1.511917 1.695171 0.196551 0.366759 -0.323176 0.828712 
-1.198041 1.928922 -0.944401 0.718142 -0.527921 -0.437425 
0.938779 -0.067675 -0.178671 0.625032 -0.086906 0.762146 
0.383031 0.634610 0.275684 0.804312 0.298438 -0.303429 
0.573257 -0.506267 0.024031 -0.263217 0.030349 -0.901939 
-1.108312 1.214094 -0.328085 0.785470 -0.123420 -0.554795 
1.570122 1.072204 -0.237727 -0.164045 -0.769488 0.584659 
-1.136312 0.925315 -0.384110 -0.816294 -0.048372 0.529402 
0.166919 0.275730 -0.079414 0.607008 0.033508 -0.786601 
-0.669634 0.183528 0.012950 -0.789965 -0.236809 0.554311 
0.995684 2.106723 0.706977 -0.238382 0.664497 -0.702582 
-0.390074 0.026543 0.087786 -0.182490 0.118949 -0.914138 
-0.948334 0.586225 -0.213625 -0.841224 -0.174375 0.497957 
1.525694 2.531829 0.925983 0.136310 -0.656972 0.737952 
-1.333316 1.887609 -1.107744 -0.694014 0.596023 0.403138 
0.313001 -0.436436 0.110757 0.320843 -0.009514 -0.922106 
-0.058691 -0.981644 0.210180 -0.300346 -0.108494 0.938327 
1.313353 2.431812 0.863261 -0.251858 0.733520 -0.615719 
1.200710 0.463488 -0.315867 -0.607050 0.130806 -0.759512 
1.126739 0.049955 -0.338052 0.599968 -0.034467 0.782050 
-0.109749 0.008513 -0.098900 -0.562735 -0.020538 -0.817694 
1.221708 1.066830 -0.167059 -0.464950 0.410447 -0.763837 
-1.479198 1.373014 -0.737774 0.780811 -0.197637 -0.537860 
-1.330239 0.655940 -0.842398 -0.818375 -0.343577 0.442217 
1.293107 1.721410 0.304291 0.374318 -0.417222 0.808510 
2.035194 1.960198 0.287369 0.135182 -0.668096 0.725266 
0.735149 0.989482 0.289057 0.786779 -0.004569 0.585540 
-0.944907 2.176538 -0.863870 0.738903 -0.489305 -0.455772 
-0.273448 2.460192 -0.051517 0.765623 -0.529256 -0.362088 
1.504957 2.247139 0.638540 -0.178852 0.729392 -0.650485 
1.127114 2.229944 0.791605 0.321778 -0.578412 0.724936 
-0.976122 0.271781 -0.376361 -0.784970 -0.197237 0.554245 
-0.337356 2.781605 -0.477506 0.777083 -0.410440 -0.472729 
1.189229 0.709404 -0.235597 -0.595132 0.280571 -0.736498 
-0.858613 2.012407 -0.477903 -0.506696 0.767617 0.287247 
-0.457038 -0.005244 0.034979 -0.062037 0.104420 -0.875383 
0.159050 -0.889282 0.215355 0.182609 -0.185962 0.959860 
0.641934 0.984355 0.406321 0.564855 -0.200510 0.786841 
0.259407 -0.535697 0.303311 0.494333 -0.226700 0.823568 
0.434971 -0.827458 0.077517 -0.191639 -0.020142 -0.951535 
0.281882 -1.086435 0.133837 -0.010871 -0.191762 0.801115 
0.232294 0.863509 0.528435 0.676024 0.054726 0.712403 
-0.684340 1.443856 0.481077 -0.958460 0.114222 0.224672 
0.601717 1.090155 0.452953 0.423422 -0.243579 0.782422 
0.727443 0.899486 0.277901 0.808390 0.002060 0.581509 
1.409521 1.024112 -0.408138 -0.466895 0.445210 -0.755358 
0.409513 -0.774246 0.135215 0.562441 -0.102166 0.812725 
1.556346 1.331021 -0.067284 -0.115321 0.509418 -0.785663 
-1.047983 0.275290 -0.519103 0.689382 0.225607 -0.605869 
-0.262790 -0.536338 0.298831 -0.543893 -0.218152 0.791293 
-0.317874 0.062711 0.414607 -0.513668 -0.262468 0.792483 
0.154637 1.184665 0.623049 -0.433124 0.524870 0.680885 
0.047332 0.449294 -0.111894 0.507381 0.169785 -0.834822 
0.022279 0.488362 0.597007 0.060042 -0.154223 0.982976 
0.024602 0.271717 0.554934 0.064808 -0.237782 0.966837 
0.318608 0.454466 0.524530 0.295771 -0.156489 0.939227 
0.711829 0.215670 0.113728 0.686706 -0.251494 0.675246 
-0.408838 0.644861 0.446329 -0.539999 0.270567 0.761022 
0.030575 0.873696 0.023412 0.439625 0.399583 -0.794888 
-0.384950 2.586989 -0.397204 0.821007 -0.366795 -0.425476 
-0.642262 0.004815 -0.052287 -0.801946 -0.165468 0.571334 
-0.201556 3.055803 -0.453339 0.792819 -0.348331 -0.495425 
-0.363845 0.431466 0.217369 -0.440129 0.362983 -0.776930 
0.945674 -0.270203 -0.223117 -0.431928 -0.020297 -0.870541 
-0.831415 1.825162 -0.124939 -0.899387 0.271961 0.340679 
-0.658603 2.387010 -0.636680 -0.814594 0.402510 0.394196 
-0.241656 -0.724509 0.084101 0.049953 -0.148712 -0.971417 
-1.025761 0.135511 -0.518386 -0.758921 -0.216022 0.556056 
0.097213 -0.591865 0.050400 0.043647 -0.300650 -0.947930 
0.738371 -0.459308 -0.106181 -0.364074 0.002451 -0.899471 
-1.020230 0.000983 -0.503467 0.627997 0.123176 -0.657770 
-0.982045 1.642624 -0.108381 0.702767 -0.380133 -0.512632 
0.929961 1.220731 0.170837 0.589346 -0.262009 0.671797 
0.820515 0.592519 0.140135 0.750812 -0.164312 0.631005 
-0.458878 2.189541 0.107623 -0.676892 0.655585 0.290866 
-0.594489 -0.953882 -0.042311 -0.571948 0.240865 0.760131 
0.776492 1.259495 0.305105 0.679562 -0.203542 0.618034 
-1.072052 1.820541 -0.580784 0.548016 -0.736483 -0.361842 
-0.608196 1.818611 0.426208 0.643752 -0.394942 -0.608937 
-1.091222 0.552141 -0.498282 0.774031 0.252529 -0.560319 
-0.770230 0.408908 -0.170409 0.444067 0.193619 -0.708493 
0.487431 1.261829 0.458214 -0.783699 0.011776 -0.585629 
1.916482 2.622579 0.975173 0.024952 -0.571159 0.781970 
-0.484345 0.397223 0.098811 0.041215 0.260661 -0.845859 
0.410040 -0.216352 0.221885 0.644363 -0.200828 0.731299 
-0.737410 -0.446590 -0.233874 0.494298 0.051701 -0.786240 
-0.020581 0.575437 -0.093685 -0.445476 0.238044 -0.853593 
1.427220 0.496342 -0.519049 -0.608958 0.041610 -0.770608 
1.556823 1.879981 0.315210 0.249518 -0.593103 0.763362 
1.275043 2.228434 0.742466 0.279721 -0.604330 0.712938 
0.648634 0.879278 0.338333 0.367189 -0.217243 0.888957 
2.048230 1.901371 0.226058 -0.124863 0.634217 -0.760223 
-0.412308 -0.800613 0.106124 -0.642155 -0.057487 0.755943 
-0.785728 0.453743 -0.013040 -0.801265 -0.277128 0.518624 
0.968006 1.558535 0.304644 0.339230 -0.666462 0.526575 
0.482257 -0.563591 0.076958 0.619486 -0.101180 0.767597 
-0.014191 0.925064 0.049997 -0.377004 0.507258 -0.767939 
-0.922352 0.683200 -0.144028 -0.855959 -0.132387 0.469790 
0.109395 0.365551 -0.095648 0.559995 0.100476 -0.809307 
-0.943120 -0.259123 -0.392879 -0.587548 0.013653 0.711605 
-0.489626 0.183605 0.297720 -0.729907 -0.330167 0.582469 
-0.325555 0.204169 0.093971 -0.408322 0.116469 -0.869344 
-0.244661 1.066248 0.364367 -0.886563 0.402875 -0.058192 
1.209711 1.992196 0.538657 0.347590 -0.597214 0.714421 
-0.763813 1.051871 0.219947 -0.934543 0.020377 0.326986 
0.859730 1.041100 0.144565 -0.453566 0.339012 -0.811223 
-0.849132 1.684469 0.197564 -0.904573 0.238362 0.304346 
-1.212173 0.595141 -0.659875 -0.818113 -0.295397 0.473370 
2.134265 2.350257 0.657512 0.076332 -0.680599 0.720044 
1.564015 1.141558 -0.186637 -0.163869 -0.795222 0.568326 
-0.903233 2.241398 -0.878433 -0.690583 0.565011 0.411568 
-0.642598 0.596625 0.286232 -0.405552 -0.139937 0.863765 
0.044082 0.686921 0.576237 0.051501 0.064117 0.988875 
0.006108 1.380112 0.233698 0.317757 0.422566 -0.807071 
-0.427745 -1.082802 0.075014 -0.669067 0.147881 0.701272 
0.990332 -0.034848 -0.228682 0.623964 -0.075145 0.765665 
-0.194638 2.764795 -0.256939 0.770629 -0.425589 -0.473245 
-0.609165 0.560581 0.083956 0.338680 0.391320 -0.723546 
-0.722312 2.682817 -0.995229 -0.775784 0.417768 0.468794 
0.587148 1.764459 0.643245 -0.052594 0.490673 -0.849435 
-0.544303 1.982820 0.302372 -0.813566 0.537602 0.072174 
-0.753971 0.796606 0.199097 -0.920451 -0.123991 0.346683 
1.989222 1.860920 0.191461 -0.137371 0.617022 -0.772153 
-0.096231 -0.218885 -0.074712 -0.485244 -0.152878 -0.838188 
-0.170907 0.821405 0.067732 -0.537656 0.455841 -0.691134 
-1.129267 0.609283 -0.538501 0.788332 0.266291 -0.544104 
-0.394888 2.413321 -0.198506 0.823668 -0.442949 -0.342805 
-1.390049 1.196203 -0.604582 -0.808132 -0.029012 0.551646 
0.122311 -0.818513 0.251284 0.181562 -0.219100 0.952015 
-0.741137 0.620532 0.019418 0.615099 0.340349 -0.680236 
1.491110 1.269240 -0.090495 -0.070266 -0.780168 0.581073 
-0.459189 -0.704311 0.043593 0.286097 -0.008113 -0.901736 
-0.266524 -1.235938 0.133830 0.423084 -0.158347 -0.862619 
-0.362417 0.563345 0.523801 -0.492910 -0.073934 0.849467 
-0.445601 0.319003 0.079714 -0.095626 0.202687 -0.886153 
0.217745 1.127911 0.411554 0.883081 0.464625 0.017516 
1.724526 1.356672 -0.083728 0.057469 -0.696284 0.671901 
-0.737062 -0.182571 -0.140415 -0.730897 -0.096672 0.647839 
0.246479 -0.517482 0.052464 0.140745 -0.217982 -0.885578 
0.350313 -0.449059 0.225550 0.652705 -0.197808 0.729391 
-1.416211 1.580160 -0.789964 0.719234 -0.474477 -0.468143 
-0.530721 2.043305 0.255403 -0.780577 0.566376 0.252951 
-0.044086 -0.467998 0.374077 -0.075094 -0.231814 0.964644 
-0.179343 0.125536 -0.058329 -0.631146 -0.006149 -0.761981 
0.712397 1.294824 0.315274 -0.355017 0.381374 -0.842732 
-0.140267 -0.809062 0.247168 -0.193274 -0.228365 0.948183 
-0.548830 2.010283 0.185362 0.618695 -0.541687 -0.512377 
-0.187129 1.229537 0.567336 -0.864734 -0.442872 -0.204304 
-0.779248 -0.278332 -0.271826 0.534330 0.108390 -0.749303 
0.887571 0.681078 0.088650 0.769725 -0.110942 0.623269 
-0.409400 -0.501732 0.107897 -0.739330 -0.109188 0.652427 
0.772089 0.254010 0.066471 0.692375 -0.238811 0.674861 
1.146317 0.910632 -0.122662 -0.526186 0.337637 -0.753553 
-1.080625 1.918839 -0.718456 -0.485524 0.784004 0.290217 
1.006630 -0.175390 -0.260275 -0.454303 -0.013233 -0.858073 
1.271510 0.204192 -0.417313 -0.551021 0.006172 -0.806560 
-0.718282 0.588695 0.211677 -0.725687 -0.166087 0.578577 
-0.304151 2.292032 0.209669 0.787694 -0.478520 -0.374758 
0.057069 0.619177 -0.059703 0.407673 0.253368 -0.857634 
-0.216767 -0.943790 0.175617 -0.203736 -0.165423 0.961410 
-0.584477 1.528819 0.546383 0.787016 0.242863 -0.546336 
-0.325765 -0.983882 0.127000 -0.306382 -0.128252 0.933126 
-0.524218 2.644083 -0.643611 -0.661522 0.532763 0.502779 
-1.138407 1.278778 -0.346544 0.786987 -0.145160 -0.551827 
-0.476474 2.595199 -0.538247 0.854670 -0.306028 -0.414376 
-0.549531 2.188848 -0.184938 0.655458 -0.641427 -0.380255 
1.065049 1.616068 0.346723 0.285050 -0.695000 0.609456 
0.264872 1.719269 0.774755 -0.608567 -0.489441 -0.622054 
0.292656 -0.822817 0.188633 0.365379 -0.178686 0.884456 
0.911630 1.819040 0.549056 0.492887 -0.520530 0.648860 
-0.244966 1.050299 0.440713 -0.886170 0.415167 0.151795 
-0.251293 0.984217 0.508751 -0.818857 0.022651 0.505293 
0.731165 0.355678 -0.020461 -0.168856 0.175052 -0.837676 
0.268733 0.793070 0.092959 0.631954 0.531322 -0.550230 
-0.440623 -1.277982 0.094558 -0.823375 0.448735 0.074987 
0.097075 -0.604209 0.325181 0.173043 -0.297055 0.935734 
1.277321 1.499438 0.115200 0.134774 -0.758635 0.580512 
0.280551 -0.687194 0.084717 -0.187526 -0.213778 -0.951626 
-0.655625 1.762538 0.550896 -0.735426 0.595890 0.222190 
-0.369675 -0.205780 0.277116 -0.697381 -0.208370 0.676307 
-0.006202 -0.601173 0.353652 -0.405609 -0.217834 0.868271 
-0.237624 3.313999 -0.646551 0.815329 -0.281997 -0.503277 
1.799834 2.386997 0.723687 -0.110744 0.690675 -0.712868 
1.534845 1.511926 0.070804 0.402039 -0.236664 0.861190 
0.775490 1.904554 0.635422 -0.283490 0.602006 -0.744931 
0.932315 0.138386 -0.097816 0.666629 -0.149660 0.716818 
1.715983 1.176559 -0.200126 -0.059832 -0.717333 0.644165 
0.578248 -0.303668 0.047926 0.658156 -0.135545 0.731285 
0.805377 0.724683 0.204637 0.829821 -0.067055 0.549849 
-1.135171 1.498052 -0.301590 0.788821 -0.265850 -0.535539 
-1.009932 1.461520 -0.074173 -0.858070 0.225450 0.420091 
1.057835 0.790946 -0.046728 0.673403 -0.213983 0.668708 
1.386213 0.622821 -0.457036 0.693160 -0.106165 0.706810 
-0.409844 0.386076 0.160183 -0.205716 0.302648 -0.838363 
-0.267884 0.266657 -0.006292 -0.716913 0.010287 -0.692119 
-0.318353 2.897768 -0.539255 0.780697 -0.384773 -0.489754 
0.064395 0.980998 0.625465 0.177793 -0.074771 0.974362 
-0.888882 0.546998 -0.200138 0.716743 0.249690 -0.628554 
-1.008661 0.835590 -0.246099 -0.831107 -0.051807 0.501520 
1.930460 2.070724 0.406659 -0.127177 0.528081 -0.818247 
-0.630617 2.779913 -0.929822 0.790707 -0.374889 -0.480390 
-1.329103 0.746900 -0.781117 -0.826208 -0.316726 0.454952 
-0.414051 -0.194364 0.186671 -0.745620 -0.185315 0.626719 
-1.107614 0.497239 -0.541985 0.755296 0.255872 -0.562182 
1.853233 1.443631 -0.064295 -0.147368 0.605184 -0.771886 
-0.138695 3.015370 -0.318131 0.939608 -0.155747 -0.227890 
-0.280388 3.135394 -0.620992 0.799802 -0.324793 -0.501236 
-0.842153 0.770495 0.013100 -0.890674 -0.101113 0.410478 
-0.942769 1.138582 -0.108775 0.738504 0.018104 -0.603249 
-1.244304 0.842738 -0.529157 0.781126 0.161909 -0.596948 
0.863468 1.550699 0.349470 0.460126 -0.551775 0.554602 
-0.213151 2.430929 0.193776 -0.543650 0.639269 0.519732 
-0.568707 0.712031 0.382593 0.692634 0.398077 -0.440752 
-0.659186 2.801090 -0.992205 0.781049 -0.386101 -0.489670 
0.185666 -0.710150 0.088230 0.013509 -0.160427 -0.969738 
0.385855 0.247847 0.445010 0.453004 -0.242509 0.846988 
0.330353 -0.145554 0.371421 0.572073 -0.246368 0.766476 
-0.051607 -1.238302 0.211402 -0.432896 -0.720345 0.000396 
-0.621872 0.908848 0.378506 -0.668721 -0.260468 0.680383 
-1.435205 0.916862 -0.813673 0.801802 0.256613 -0.523730 
0.323408 0.073567 0.421975 0.459330 -0.269540 0.828273 
1.885005 1.517786 -0.022411 -0.147306 0.606232 -0.773299 
0.666650 0.139141 -0.007721 -0.085426 0.120528 -0.842320 
-0.171103 0.214558 0.523982 -0.246338 -0.232233 0.935496 
-0.403023 -0.583283 0.073070 0.079280 0.001261 -0.920662 
0.132006 1.006040 0.145413 0.542293 0.424603 -0.708418 
0.185043 0.871093 0.100355 0.583363 0.452736 -0.659464 
0.126616 0.051431 -0.091660 0.559900 -0.018535 -0.818824 
1.492699 0.921423 -0.519721 -0.555359 0.317931 -0.740120 
-0.749909 2.085886 -0.439493 0.755167 -0.499284 -0.411316 
0.073944 0.817300 0.022324 0.454433 0.404934 -0.777214 
-0.006748 0.028368 -0.148170 -0.461921 -0.076511 -0.857459 
-0.984099 1.690582 -0.233324 0.630956 -0.571946 -0.403691 
0.817440 0.302153 0.041680 0.695107 -0.236807 0.673170 
-1.254912 1.672007 -0.646780 -0.821329 0.321320 0.465471 
0.038979 -0.361295 0.395279 0.047583 -0.136947 0.987048 
-0.893644 1.874426 -0.252259 -0.760360 0.530450 0.334096 
-0.627145 0.958964 0.328046 0.969354 -0.015296 -0.205431 
0.833449 1.692976 0.498807 0.559633 -0.429353 0.659021 
2.016458 2.634604 0.983435 0.045813 -0.656059 0.725736 
-0.173911 2.714879 -0.127627 -0.836268 0.396877 0.344522 
0.003459 -1.020550 0.220116 0.624049 -0.065127 0.767447 
-0.957445 -0.049511 -0.456780 0.602476 0.148350 -0.675104 
1.198180 0.084130 -0.371793 -0.524011 -0.004416 -0.822051 
0.644863 1.048694 0.316173 -0.432722 0.306146 -0.845140 
-0.393718 -0.652778 0.081345 0.098307 -0.008795 -0.928856 
0.487300 1.421156 0.609076 0.579560 -0.128857 0.800188 
-0.329543 -0.598165 0.086726 -0.123251 -0.040181 -0.916108 
0.147096 0.192914 0.523152 0.200661 -0.237061 0.949266 
0.965398 2.113655 0.777478 0.387575 -0.530738 0.717533 
-1.214820 0.525547 -0.692591 -0.806649 -0.295832 0.479208 
-0.988574 -0.166060 -0.441818 -0.604443 -0.014863 0.688288 
0.906007 2.183788 0.826511 -0.402001 0.737513 -0.484483 
1.340463 0.559926 -0.438762 -0.618438 0.102793 -0.756412 
-0.255075 0.708409 0.027081 -0.611211 0.356558 -0.664004 
0.546546 1.781404 0.717719 0.509751 -0.431375 0.730121 
0.600226 0.932067 0.338957 -0.876627 -0.056457 -0.444400 
1.617161 2.159490 0.534067 0.158453 -0.473239 0.864494 
0.560672 0.444457 0.438264 0.474586 -0.193188 0.828706 
-0.816091 0.424127 -0.076414 -0.796780 -0.264565 0.534274 
-0.704865 0.329804 -0.127001 0.337695 0.177050 -0.743511 
-0.291091 0.646861 0.012974 -0.678017 0.195107 -0.696618 
0.161908 -0.861654 0.108002 -0.133671 -0.220360 -0.955759 
-0.560196 1.882546 0.478617 -0.828309 0.531722 -0.017828 
0.602461 0.442567 0.373370 0.577651 -0.227027 0.740023 
0.669699 1.331145 0.406059 0.730181 -0.196139 0.582929 
-0.304597 -0.855296 0.172204 -0.384594 -0.164743 0.878424 
-0.719163 1.791122 0.083931 0.786693 -0.347196 -0.450462 
-1.364568 1.599158 -0.725253 -0.804993 0.350110 0.473031 
-0.086047 -0.661237 0.311548 -0.248157 -0.285389 0.920436 
0.060435 0.021544 -0.125352 0.505180 -0.042332 -0.845728 
-1.221546 1.226886 -0.438419 0.787287 -0.071948 -0.562933 
-0.678805 -0.701525 -0.134323 0.452787 -0.099329 -0.849987 
-0.554305 2.844184 -0.855287 -0.757857 0.411499 0.492186 
0.033222 0.092213 0.500270 0.101885 -0.248373 0.961411 
1.059373 1.298618 0.052759 -0.376411 0.457139 -0.800582 
-1.091232 0.313945 -0.561219 -0.782459 -0.244055 0.525449 
0.045352 0.769788 0.582509 0.100259 -0.137478 0.976085 
1.251416 0.520425 -0.332629 0.692791 -0.131963 0.701116 
0.264095 -1.237243 0.137206 -0.398478 -0.287473 0.492142 
-0.322929 0.277343 0.078579 -0.474913 0.112515 -0.827547 
0.529706 0.242769 0.333024 0.640531 -0.332955 0.685834 
-0.741741 1.112432 0.276143 -0.942442 0.035285 0.305398 
1.154420 0.587403 -0.224335 -0.656276 0.197143 -0.727057 
0.099837 -0.148025 0.441797 0.150812 -0.199434 0.965501 
0.059741 -0.362836 -0.069048 0.394712 -0.273403 -0.862577 
2.207231 2.196974 0.503008 0.081878 -0.678141 0.724251 
1.381820 0.835966 -0.420977 -0.565292 0.316350 -0.738796 
2.241668 2.598650 0.922314 -0.039946 0.747574 -0.662062 
-1.010211 0.504473 -0.385256 0.765197 0.222313 -0.589289 
-0.441366 -0.117745 0.194016 -0.759987 -0.219870 0.595942 
1.559778 0.809402 -0.599621 -0.669679 0.094759 -0.730464 
-0.088216 0.133369 0.507448 -0.155865 -0.247481 0.952183 
-1.224502 1.949763 -1.014754 0.704237 -0.556022 -0.431951 
1.333256 2.199507 0.647124 -0.252352 0.702602 -0.658591 
-0.295990 -1.049693 0.116744 0.348257 -0.138097 -0.919325 
-1.335658 0.798663 -0.732686 -0.822014 -0.272804 0.484827 
-0.631751 -0.521204 -0.092340 -0.684693 -0.051113 0.701826 
0.607193 0.255059 0.254976 0.668437 -0.314950 0.668212 
-0.349574 0.350206 0.486220 -0.393697 -0.220837 0.879278 
0.820824 0.520426 0.127464 0.720232 -0.221652 0.646087 
-0.823315 -0.160458 -0.282755 -0.727483 -0.131667 0.627135 
-0.358208 3.120228 -0.735953 -0.808189 0.325183 0.487552 
1.814795 2.517126 0.848405 -0.085565 0.705742 -0.702271 
2.196970 2.443863 0.747198 0.063853 -0.724058 0.685633 
1.075835 0.750313 -0.105420 -0.580877 0.270060 -0.749369 
-0.774602 2.319969 -0.768999 0.688002 -0.549389 -0.458619 
0.135346 -1.136196 0.188328 0.216846 0.023100 0.970863 
-0.102138 -0.041760 0.464419 -0.165512 -0.223091 0.957372 
0.291664 0.702708 0.542033 0.500133 0.292809 0.804379 
-0.385595 0.707429 0.382576 -0.910522 0.372169 0.087068 
-0.067281 0.024462 0.481358 -0.137661 -0.237765 0.958303 
1.217172 0.256966 -0.401395 -0.534302 0.047741 -0.805953 
0.186659 1.189961 0.426029 0.707056 0.671952 -0.016642 
1.706336 2.362419 0.709011 -0.124904 0.693171 -0.706804 
0.629879 0.398526 0.293350 0.681007 -0.311861 0.653093 
0.143486 -0.279777 -0.047102 0.505513 -0.161450 -0.830982 
-0.933644 1.558539 0.088293 -0.881083 0.229187 0.360311 
-0.236889 0.415573 0.551993 -0.269453 -0.190619 0.939702 
-0.672659 2.707894 -0.936032 -0.795514 0.388176 0.459447 
-0.085467 0.628152 0.593461 -0.058005 0.188897 0.971704 
-0.863300 0.645156 -0.124737 0.726021 0.250152 -0.633978 
-0.085493 1.306252 0.369466 -0.638283 0.675760 0.276701 
-0.210097 2.699697 -0.190606 -0.816631 0.416099 0.374534 
1.959299 1.973454 0.306732 -0.131664 0.570095 -0.796405 
0.690101 0.816030 0.201035 -0.535725 0.272808 -0.765089 
-0.576593 0.354559 -0.028519 0.110639 0.194791 -0.816826 
0.652801 0.652261 0.243853 -0.636299 0.429174 -0.375396 
2.004024 1.484247 -0.069422 0.194407 -0.557400 0.802147 
-0.403287 0.477702 0.492996 -0.426513 -0.160355 0.880689 
-0.522491 0.160510 0.236726 -0.761443 -0.317103 0.552727 
-0.435230 2.590173 -0.472595 0.844431 -0.325523 -0.416720 
-0.647976 2.196900 -0.416602 0.706928 -0.573187 -0.402089 
-0.204528 2.837300 -0.314593 -0.860767 0.325743 0.374503 
0.337898 0.381789 0.505188 0.326276 -0.186414 0.919859 
-1.296215 1.178315 -0.521283 0.787524 -0.005058 -0.573072 
-0.994364 1.379563 -0.073578 -0.863278 0.196238 0.421966 
-1.167730 0.770441 -0.465829 0.778823 0.163887 -0.596774 
0.116598 -0.325399 0.400681 0.149472 -0.158506 0.973814 
-0.474037 2.109030 0.258537 -0.679106 0.665775 0.246586 
-0.687407 0.120973 -0.054105 -0.799884 -0.194795 0.560988 
0.495325 1.848792 0.738739 -0.223947 0.690946 -0.678974 
-0.601799 0.576399 0.350042 -0.356462 -0.186688 0.866111 
0.979537 1.469913 0.205427 0.447395 -0.516799 0.647583 
-1.484530 1.200175 -0.713278 0.788987 0.058366 -0.582344 
1.010908 0.845438 -0.028245 -0.539744 0.293485 -0.768656 
0.607048 -0.013197 0.105297 0.689748 -0.210126 0.687704 
-0.625468 2.700349 -0.854837 -0.721514 0.467469 0.490611 
-1.422680 1.617494 -0.855652 0.723413 -0.479332 -0.466483 
-0.648265 2.121572 -0.295895 0.738026 -0.569756 -0.357090 
0.003173 0.815017 -0.011050 0.394028 0.368644 -0.839575 
-0.312643 3.156005 -0.683310 0.801619 -0.318158 -0.503334 
0.248103 -0.472882 0.334878 0.452127 -0.215051 0.850145 
0.031230 1.117290 0.162394 0.346055 0.394576 -0.842846 
-0.779066 0.279399 -0.105226 -0.803372 -0.216047 0.547669 
-0.856070 0.698722 -0.029858 -0.879441 -0.138737 0.430273 
-0.197707 3.206939 -0.526589 0.805979 -0.310641 -0.498771 
-0.755847 1.322553 0.319076 -0.937041 0.101775 0.284906 
-0.376010 2.175070 0.374395 -0.714660 0.610736 0.335786 
-1.507072 1.424852 -0.787110 0.776465 -0.291262 -0.520710 
-1.254775 1.875363 -0.954453 -0.734286 0.512959 0.414028 
-0.903770 1.389373 0.085629 -0.891136 0.169627 0.365556 
0.990772 0.122180 -0.168942 0.653866 -0.121938 0.732505 
-1.068602 0.707640 -0.378390 0.776361 0.148653 -0.593971 
1.710930 2.152132 0.517359 0.146646 -0.521016 0.833706 
1.104844 0.408668 -0.227869 -0.603092 0.154171 -0.759205 
0.793244 1.413431 0.278187 -0.320726 0.428043 -0.835691 
-0.073439 -0.546706 0.345936 -0.135077 -0.269274 0.947033 
0.307738 -0.681018 0.231787 0.537189 -0.193878 0.805068 
0.056534 1.216339 0.223901 0.490974 0.281482 -0.810844 
1.002659 1.622245 0.388983 0.359738 -0.605730 0.649982 
-0.662281 0.416056 0.161113 -0.787470 -0.322728 0.511933 
0.530660 0.618478 0.316976 -0.240206 0.553915 -0.488640 
2.238089 2.539581 0.854734 -0.043091 0.738389 -0.672069 
-0.949310 0.547555 -0.277783 0.765374 0.207161 -0.606136 
-0.171501 0.014408 0.464704 -0.285993 -0.244705 0.908633 
0.204507 0.328393 -0.046675 0.622532 0.054657 -0.769932 
0.659316 -0.323146 0.005527 0.628757 -0.112465 0.755879 
-1.401118 1.021997 -0.653314 0.786370 0.139823 -0.594692 
-1.111138 2.086715 -1.012899 -0.709877 0.562865 0.417553 
0.287835 -0.199334 0.052208 0.476544 -0.054439 -0.851071 
-0.519464 0.310657 0.011284 0.015101 0.187356 -0.848076 
1.515525 1.822563 0.285938 0.293281 -0.503123 0.784482 
0.916024 1.626988 0.430128 0.397145 -0.569987 0.619824 
0.564464 0.120903 0.228733 0.672924 -0.282118 0.676260 
-0.622469 0.808311 0.345733 -0.723384 -0.230407 0.633788 
0.553645 -0.678258 0.026432 -0.317915 0.005990 -0.923221 
-0.701085 -0.512637 -0.198982 -0.671064 -0.063312 0.694361 
-0.894842 1.556408 0.154456 -0.893047 0.215924 0.337026 
-1.291667 1.473442 -0.473967 -0.805074 0.232333 0.511652 
-0.457856 0.148914 0.045754 -0.076288 0.147395 -0.878855 
-0.809246 -0.001016 -0.229864 0.620160 0.130728 -0.707499 
0.520920 0.054757 0.241408 0.671884 -0.276251 0.679332 
-0.082567 0.213839 0.532627 -0.138134 -0.241153 0.955449 
1.461571 2.495409 0.905394 0.176804 -0.677009 0.700785 
-0.574195 1.049861 0.480668 -0.685518 -0.211726 0.650458 
-0.371737 -0.230135 0.082635 -0.188475 0.048826 -0.917975 
0.340656 0.395091 0.095689 0.510780 0.171356 -0.796949 
-1.396170 0.856247 -0.798061 -0.821023 -0.276638 0.482602 
1.017542 1.533882 0.253520 0.320456 -0.669356 0.552631 
-0.050358 1.002042 0.631088 -0.160304 -0.051301 0.979522 
-0.707777 1.250456 0.378819 -0.952211 0.064884 0.265666 
0.655426 0.551803 0.364609 0.501422 -0.101252 0.810451 
0.113430 -0.411076 0.389261 0.090387 -0.194763 0.974573 
2.180295 2.569049 0.891182 -0.047351 0.738854 -0.670804 
-0.360345 -1.032626 0.087059 0.119388 -0.007551 -0.952485 
-0.529311 2.796015 -0.779788 0.809612 -0.345954 -0.468120 
0.498111 -0.144222 0.049134 0.128571 0.054947 -0.877724 
0.434358 1.356785 0.599092 0.014114 -0.373541 0.787233 
-1.249221 1.610319 -0.525610 -0.812244 0.323910 0.481536 
-0.474768 2.874234 -0.753295 0.808088 -0.338631 -0.477254 
0.582603 1.201263 0.394624 -0.377754 0.330322 -0.856323 
2.171801 2.503459 0.816349 -0.051285 0.728344 -0.682199 
-0.301987 2.987753 -0.577913 0.786959 -0.360798 -0.498861 
0.350024 -1.164766 0.132338 0.062374 -0.094602 0.977827 
-0.194883 0.746137 0.550164 -0.314701 0.149692 0.909621 
1.024560 1.251688 0.097309 0.518807 -0.338911 0.707769 
-0.781556 2.415009 -0.864326 -0.766047 0.463142 0.433518 
1.283130 0.280302 -0.432319 -0.556195 0.027727 -0.799415 
-0.353144 0.772407 0.418279 -0.876185 0.383454 0.265615 
-0.779655 0.364527 -0.054024 -0.795059 -0.257787 0.539233 
-0.395791 -0.134127 0.248351 -0.700571 -0.201656 0.670812 
0.812172 -0.688774 -0.112903 0.392888 0.102548 0.909998 
-0.747535 2.616633 -0.980021 -0.768862 0.435061 0.463111 
1.163751 0.435239 -0.258858 0.689004 -0.143179 0.701349 
-0.977330 1.485118 -0.010458 -0.867995 0.221785 0.397014 
1.823084 1.648868 0.076823 -0.128814 0.642831 -0.747935 
-0.843583 2.366327 -0.923779 0.733271 -0.496194 -0.461675 
-0.254996 3.229272 -0.629773 0.807962 -0.302432 -0.502163 
-0.743261 1.242090 0.315013 -0.941322 0.073974 0.288387 
-0.217982 1.116871 0.423747 -0.869944 0.475483 0.059622 
-0.785174 2.217514 -0.666846 0.737401 -0.519804 -0.426627 
0.729218 0.174168 -0.034383 -0.166137 0.126359 -0.823988 
-0.019430 1.241483 0.497672 -0.031052 0.750875 0.645222 
-0.322716 2.494175 -0.092600 -0.750264 0.522935 0.367493 
0.159799 0.473406 0.587197 0.211730 -0.154628 0.963464 
-0.159586 -0.608399 0.315267 -0.240598 -0.321428 0.912253 
0.800888 -0.497340 -0.133484 0.525333 -0.000031 0.837041 
-0.161056 1.101357 0.640504 0.235026 0.017185 0.887375 
0.337185 -0.306670 0.321569 0.649065 -0.224338 0.723907 
0.891529 -0.314126 -0.194461 0.565974 -0.024888 0.810723 
-0.598610 -0.479495 -0.046006 -0.700449 -0.057224 0.690404 
0.065738 -1.065443 0.158520 0.114047 -0.237025 -0.944679 
-1.057804 0.464382 -0.441910 -0.809484 -0.231937 0.518824 
-0.134986 1.135836 0.484666 -0.939078 -0.101410 0.156133 
1.364299 1.984768 0.445676 -0.259337 0.506312 -0.812456 
0.384023 0.515843 0.266215 0.511740 0.498141 -0.683659 
-0.306098 0.431462 0.057355 -0.617962 0.095742 -0.741950 
-0.634495 2.367274 -0.569298 -0.812445 0.411150 0.386875 
-0.411885 -0.427060 0.104122 -0.765301 -0.118979 0.625240 
-0.776431 1.876442 -0.146314 0.880287 -0.289360 -0.360131 
-0.467436 0.607125 0.390347 0.109751 0.688848 -0.471154 
-0.583897 2.762269 -0.841063 0.803643 -0.358569 -0.469058 
0.982132 0.520711 -0.118321 -0.505623 0.208757 -0.764577 
0.145130 -0.645445 0.080201 0.065629 -0.190448 -0.974981 
1.707521 1.934390 0.311902 -0.187526 0.549247 -0.801894 
-1.182968 0.440634 -0.679700 0.731419 0.279644 -0.547316 
-0.666973 -0.823125 -0.099594 -0.504641 0.190534 0.830192 
-1.022497 1.051540 -0.210348 -0.836848 0.049926 0.481649 
0.058765 -0.779680 0.281047 0.289271 -0.200839 0.926167 
0.715855 -0.185044 -0.031048 -0.343592 0.081447 -0.851747 
-1.306847 1.636082 -0.693298 0.664356 -0.552952 -0.436153 
0.166194 1.205875 0.338920 0.762513 0.599212 -0.189153 
-0.154154 -1.113544 0.166490 0.166646 -0.224818 -0.956543 
-0.295991 2.775957 -0.413254 0.772424 -0.419583 -0.474035 
-0.151003 -1.025601 0.139418 0.141746 -0.228315 -0.956787 
-0.980020 1.743100 -0.308333 0.587793 -0.647780 -0.379880 
-0.548258 -0.548283 -0.010395 -0.698928 -0.052938 0.694777 
-0.279728 -0.212949 0.374662 -0.569592 -0.231423 0.753996 
0.965684 1.779054 0.494512 0.468311 -0.498534 0.690290 
0.098776 -0.749911 0.095260 -0.007424 -0.249671 -0.962300 
1.047672 1.415970 0.094350 -0.343070 0.474253 -0.806703 
-0.641582 1.746267 0.404127 0.702544 -0.256457 -0.537325 
0.159246 -0.181261 -0.055175 0.550029 -0.090666 -0.821453 
-0.372446 -0.867076 0.072710 0.186567 -0.081004 -0.918502 
-0.488819 2.241390 -0.139675 0.599769 -0.682135 -0.408018 
-0.179175 2.968642 -0.356131 -0.877824 0.283880 0.375874 
0.773113 0.560181 0.185297 0.746912 -0.186124 0.624291 
-0.948831 1.427502 0.020202 -0.877064 0.195532 0.387665 
-1.130068 0.361768 -0.610032 -0.787042 -0.260155 0.512638 
-0.526049 -0.620296 0.003138 -0.688283 -0.040897 0.708093 
-0.315835 -0.677582 0.051293 -0.095043 -0.116979 -0.875594 
-0.399544 3.018012 -0.747344 -0.804166 0.342114 0.482248 
1.084657 1.374786 0.049154 -0.352651 0.481365 -0.799303 
-0.167933 0.870178 0.576963 -0.385765 -0.105804 0.887321 
-1.076394 1.188633 -0.262678 -0.823458 0.119690 0.495999 
0.377613 -0.272444 0.258992 0.651318 -0.207955 0.725100 
-1.057325 1.973277 -0.756868 -0.526488 0.741253 0.314165 
-0.545458 0.389241 0.032636 0.108727 0.226655 -0.823826 
0.035379 0.371473 0.580484 0.071471 -0.209513 0.971589 
0.524432 -0.133983 0.131978 0.687401 -0.200839 0.693191 
-0.290785 2.709547 -0.354674 0.768011 -0.438372 -0.465351 
-0.311249 0.875478 0.295520 -0.904760 0.350790 -0.200225 
-0.881965 1.461322 0.087834 0.724177 -0.096237 -0.626115 
1.882435 2.014567 0.359685 0.143584 -0.713600 0.674134 
0.619486 1.582964 0.453552 -0.259490 0.422929 -0.862801 
0.729414 0.725580 0.169895 -0.785551 0.258034 -0.464171 
-0.313172 0.498133 0.085490 -0.666833 0.165801 -0.689053 
-0.821157 1.634427 0.247872 0.720138 -0.173644 -0.651339 
-0.542697 1.849084 0.659951 -0.680884 0.670003 0.279868 
-0.222956 -1.033522 0.150683 -0.205126 -0.107729 0.970084 
0.237468 1.118002 0.673258 0.609597 0.396397 -0.638279 
-0.300453 -0.112799 0.386356 -0.560564 -0.243220 0.762169 
-0.018774 0.407776 -0.140066 -0.516319 0.145649 -0.836014 
0.651185 1.080192 0.379217 0.810638 0.001350 0.563243 
0.434891 1.467747 0.543709 -0.662107 0.153252 -0.704189 
-0.555015 -0.309230 -0.029477 0.280942 0.053879 -0.835466 
-1.354483 1.829039 -1.056064 0.693247 -0.569556 -0.431089 
1.595938 2.001772 0.406900 0.201731 -0.694393 0.673856 
0.180139 0.795893 0.057464 0.543699 0.467625 -0.667779 
1.427440 1.396708 0.005178 0.009392 -0.774367 0.587469 
2.050725 2.586222 0.921782 0.092806 -0.772076 0.620346 
-0.093222 -0.647505 0.074607 -0.010517 -0.264196 -0.957638 
-1.160863 0.838733 -0.446893 0.779878 0.120847 -0.590498 
0.835991 1.992286 0.694934 -0.210781 0.693513 -0.681815 
0.606547 0.312630 0.034825 -0.008132 0.170620 -0.876298 
-0.949324 1.335489 -0.010089 -0.877374 0.168588 0.400692 
1.001836 1.664179 0.320049 -0.231237 0.695340 -0.676414 
-0.659580 2.443180 -0.690581 -0.816456 0.391863 0.404033 
0.069982 1.297991 0.412696 0.399088 0.753867 0.489037 
-0.705182 0.055803 -0.101042 -0.796945 -0.161217 0.574668 
-0.565529 2.083749 0.022571 -0.769229 0.572201 0.222017 
0.416469 -1.286861 0.110482 0.642037 0.143375 0.570777 
-0.771143 0.046551 -0.174011 0.587880 0.124304 -0.716236 
-1.334536 0.874133 -0.655969 0.789548 0.205823 -0.569010 
1.637242 1.241966 -0.137728 -0.066124 -0.753280 0.613242 
0.344102 -0.389516 0.269488 0.669888 -0.204589 0.712926 
-0.286419 -0.325308 0.091028 -0.387061 -0.019539 -0.903871 
0.517092 0.471662 0.159953 0.089427 0.340839 -0.820405 
-1.183175 0.621737 -0.598292 -0.824761 -0.283941 0.477195 
0.315148 0.338560 0.034097 0.589509 0.064247 -0.779114 
-0.051070 -0.778212 0.108027 -0.185697 -0.246070 -0.937471 
1.125698 1.129549 -0.044130 -0.444458 0.409951 -0.775563 
0.686396 -0.047965 -0.021172 -0.193192 0.090620 -0.842717 
-0.832938 1.896018 -0.289091 0.852592 -0.318226 -0.398745 
0.555779 -0.577513 0.038785 0.593796 -0.081064 0.789036 
-0.292190 -0.289420 0.354121 -0.622997 -0.224549 0.723820 
-0.533936 2.574632 -0.603106 -0.635236 0.568072 0.504458 
0.248471 0.359388 0.539764 0.272951 -0.198976 0.934390 
0.045412 -0.103591 0.454449 0.101355 -0.208648 0.970005 
-0.843590 0.500402 -0.081717 -0.822049 -0.243886 0.504018 
-0.614221 0.662265 0.304095 -0.337398 -0.192231 0.829141 
0.355667 0.215359 0.096734 0.385313 0.110530 -0.889703 
-0.747696 0.395135 0.016395 -0.785335 -0.292839 0.535354 
-0.811853 2.030106 -0.424539 -0.548757 0.734594 0.301354 
-0.383636 2.346993 -0.102222 0.814853 -0.482287 -0.314327 
1.025037 2.172973 0.747859 -0.246957 0.657521 -0.707904 
-0.070645 -0.806481 0.269385 -0.266627 -0.195746 0.933574 
-0.793350 1.776800 -0.020773 0.524285 -0.676062 -0.373522 
1.024864 1.331686 0.110524 0.496835 -0.398680 0.712011 
0.933386 1.131791 0.148515 0.617224 -0.220826 0.665275 
-0.184988 -0.190709 0.415193 -0.313753 -0.205792 0.894381 
-1.115146 0.748078 -0.417504 0.777702 0.149476 -0.594370 
-0.697986 1.846378 0.216533 -0.708948 0.647570 0.106336 
0.411325 -1.416513 0.094934 -0.258649 -0.789051 0.333287 
0.632919 -0.190671 -0.000352 -0.177677 0.069300 -0.863660 
1.644462 1.117078 -0.221669 -0.139608 -0.760875 0.600594 
1.877561 2.120039 0.467223 0.126307 -0.760033 0.630284 
-0.156853 2.897885 -0.299019 0.779036 -0.389935 -0.489489 
-0.802903 1.562210 0.314697 -0.921341 0.187694 0.280352 
1.288896 1.305576 -0.056998 0.230879 -0.592154 0.710698 
-0.301582 -0.005741 0.407487 -0.516342 -0.254245 0.788697 
2.110704 2.298414 0.608610 -0.070771 0.731038 -0.674471 
-0.779214 0.133340 -0.182191 0.555598 0.136462 -0.707632 
1.880979 1.691120 0.096210 0.230471 -0.503848 0.798147 
-0.757851 -0.550936 -0.217521 -0.581410 0.047155 0.755517 
0.743030 -0.669361 -0.088129 -0.356233 -0.073014 -0.918886 
-0.576575 2.582159 -0.672867 -0.833385 0.352412 0.413190 
-0.862116 0.953227 -0.037285 0.718858 0.148555 -0.631931 
0.191196 1.041519 0.616538 0.314924 -0.405013 0.778642 
0.576686 0.296826 0.313073 0.660702 -0.345292 0.663961 
-0.257442 0.691099 0.552691 -0.407585 0.285846 0.843280 
1.161546 0.206370 -0.356460 -0.525617 0.054421 -0.809811 
0.185983 -0.346877 0.380677 0.294299 -0.171414 0.910188 
-0.372971 2.428680 -0.120344 -0.722177 0.561940 0.367498 
1.032655 -0.263705 -0.258521 0.478527 0.052243 0.853308 
0.417084 1.443851 0.628431 -0.107631 -0.415931 0.786924 
-1.472875 1.591675 -0.899797 0.748597 -0.443279 -0.481179 
