-0.949552 1.420625 0.017191 0.824759 0.098736 -0.504092 
-0.915186 0.557773 -0.426982 -0.828032 -0.263670 0.434468 
0.110870 0.047029 0.521319 0.208343 -0.269524 0.936453 
-0.527745 1.651283 0.908459 0.657568 0.151186 -0.697217 
-0.562756 1.002985 0.514669 -0.676750 -0.434627 0.581355 
0.395648 0.125862 0.413451 0.656767 -0.244606 0.712817 
0.864746 1.696947 0.796774 -0.340511 0.832105 -0.338431 
-0.609639 0.596701 0.328676 -0.593587 -0.326862 0.728476 
0.535785 0.233847 0.023058 -0.024835 0.152710 -0.877016 
0.754672 -0.044722 -0.116927 -0.516014 0.145863 -0.801102 
0.941072 0.600040 -0.149120 -0.601860 0.232773 -0.686443 
-0.724747 2.667779 -0.140446 0.774223 -0.432548 -0.425260 
-0.364227 3.287041 -0.026376 0.780369 -0.417351 -0.461680 
0.266089 -1.228879 0.021141 -0.447193 -0.032385 -0.853990 
1.617036 2.551867 1.320890 0.573089 -0.756422 0.308039 
0.335712 0.002225 0.411957 0.594898 -0.255432 0.740420 
0.783801 0.601796 0.106489 0.784636 -0.307441 0.532756 
1.606382 2.012715 0.385252 -0.503077 0.783029 -0.339711 
-0.740673 2.300768 0.184608 0.856643 -0.281912 -0.409858 
-0.514177 0.579628 0.085125 0.364220 0.334596 -0.695279 
-0.052725 -0.670559 0.289247 -0.305715 -0.366921 0.872924 
0.753874 0.295893 -0.070438 -0.345540 0.178721 -0.764425 
-0.441087 2.966923 0.161485 -0.651752 0.514178 0.543369 
-0.274388 -0.676677 0.205270 -0.523897 -0.296788 0.756227 
0.822634 1.386824 0.412097 -0.564001 0.586648 -0.565121 
0.962037 1.051339 0.101305 0.765375 -0.302367 0.521326 
0.089715 0.456947 0.597887 0.166120 -0.029749 0.976133 
1.098819 2.213094 1.373487 -0.533158 0.749584 -0.386723 
-0.352066 2.182858 0.828445 0.746224 -0.235859 -0.601236 
1.782917 1.913047 -0.057467 0.581846 -0.712113 0.392865 
-0.631315 0.485903 -0.126668 0.390834 0.203334 -0.711256 
0.960734 1.200312 0.185180 0.741868 -0.368705 0.497691 
1.051868 1.834083 0.838996 -0.525061 0.745093 -0.409170 
1.299835 2.034176 0.849900 -0.535140 0.650865 -0.513957 
-0.315490 0.044586 0.068334 -0.252935 0.078371 -0.932396 
1.089239 1.121963 -0.038732 0.721510 -0.397748 0.533733 
0.534592 1.140718 0.735670 0.635695 -0.397567 0.634660 
0.393200 -1.099794 0.005737 -0.420919 0.048903 -0.900671 
1.239606 2.181563 1.168704 -0.513800 0.736896 -0.435058 
-0.640553 1.574600 0.774621 -0.954682 0.053397 0.276415 
0.289131 0.447429 0.528647 0.353233 -0.096878 0.922186 
0.540057 0.054646 0.146043 0.767614 -0.269083 0.572826 
-0.632925 1.086548 0.452377 -0.963869 -0.055826 0.257831 
-0.336405 0.124146 0.432455 -0.615378 -0.241964 0.719162 
-0.762958 1.497877 0.487973 -0.937133 0.034422 0.321896 
0.326726 -0.115408 0.094454 0.291883 0.070070 -0.941119 
-0.648425 0.614090 0.216440 -0.878271 -0.255947 0.325503 
0.784864 1.619773 0.721723 -0.513398 0.578978 -0.620589 
-0.393788 -0.438361 0.089870 -0.811521 -0.154811 0.547720 
1.232412 2.018998 0.918807 -0.517457 0.646535 -0.547539 
1.449208 1.622167 -0.091217 -0.451534 0.759301 -0.404292 
0.119501 -0.791348 0.204961 0.146181 -0.353635 0.918455 
-0.928362 1.449257 0.078621 0.813527 0.113254 -0.508499 
-0.080078 3.011493 0.637141 -0.424831 0.454016 0.769802 
1.627350 2.375896 1.013936 -0.538121 0.772909 -0.313953 
-0.480599 -0.918717 -0.058119 0.486578 0.000720 -0.866007 
1.318200 1.382068 -0.365529 -0.667601 0.465370 -0.575170 
-0.219470 3.424432 0.087295 -0.765385 0.428552 0.479656 
-0.287394 0.125168 0.029822 -0.503377 -0.001562 -0.833602 
-0.482986 -0.480899 -0.024332 -0.777168 -0.108852 0.598695 
-0.793572 2.435248 -0.056992 0.860395 -0.315050 -0.386709 
1.201212 0.727784 -0.388024 -0.596702 0.105167 -0.771979 
2.002825 2.809289 1.278150 0.547434 -0.737471 0.395272 
0.341772 0.795867 0.310600 0.915783 0.326899 -0.056276 
-0.104850 3.544717 0.162921 -0.761813 0.421869 0.491212 
1.587212 2.306947 0.957752 0.563789 -0.591069 0.564143 
-0.515877 -0.528353 -0.067347 -0.748184 -0.094567 0.637084 
0.715072 -0.333107 -0.151804 -0.424109 0.063960 -0.883768 
-0.126048 -0.684865 0.263275 -0.189842 -0.397026 0.896746 
-0.701321 2.577689 -0.003104 0.783181 -0.418315 -0.431277 
-0.711432 2.798142 -0.232957 -0.852554 0.376173 0.357526 
1.372104 1.282092 -0.436856 -0.678089 0.282139 -0.651030 
-0.258158 -0.467635 0.003950 -0.429521 -0.089585 -0.824572 
1.893456 2.743403 1.300676 -0.532322 0.732289 -0.420267 
-0.669437 1.824360 0.702931 -0.791934 0.322711 0.446047 
-0.106433 0.704707 -0.038778 -0.410560 0.242022 -0.843642 
-0.044677 0.618875 -0.067887 -0.377109 0.154158 -0.897109 
0.177764 0.603561 -0.029672 0.514581 0.138983 -0.813457 
0.279337 0.277364 0.010214 0.539639 -0.017897 -0.841185 
0.799378 1.180409 0.383267 0.795398 -0.255775 0.474226 
-0.148081 -0.769536 0.046889 0.093779 -0.090611 -0.984278 
0.859730 1.041507 0.228440 0.798868 -0.232021 0.506010 
-0.195048 -0.865526 0.043249 0.152960 -0.057314 -0.976022 
-1.146671 2.146261 -0.539807 0.802421 -0.446021 -0.362463 
-0.671691 -0.081268 -0.187505 -0.777048 -0.149641 0.573526 
0.570048 0.443953 0.014681 -0.095604 0.197857 -0.871830 
0.199843 1.218333 0.584493 0.838403 -0.418076 -0.302672 
1.041104 1.268485 0.087909 -0.654666 0.486974 -0.547605 
0.571975 -0.579904 -0.055906 0.634018 -0.120082 0.755611 
-0.725836 1.389581 0.484113 -0.944616 0.010703 0.303898 
0.222752 0.967237 0.161902 0.683678 0.405414 -0.583629 
-0.374415 1.983305 0.981434 -0.511846 0.406277 0.702080 
1.637675 1.953325 0.238938 0.623700 -0.587344 0.462392 
-0.204460 1.040239 0.521621 -0.595204 0.731693 -0.098272 
1.465261 2.093341 0.754116 0.557929 -0.756552 0.328435 
-0.858538 0.503279 -0.370296 0.737729 0.255145 -0.538261 
-0.676451 -0.396859 -0.242270 0.551749 0.074735 -0.753410 
0.580467 0.554334 0.101049 -0.228567 0.353982 -0.786989 
-0.412576 1.777032 1.053170 -0.272502 0.391213 0.839709 
0.876305 -0.310250 -0.236513 0.502117 -0.020897 0.856836 
0.188456 -0.491190 0.024915 0.135575 -0.258130 -0.900653 
0.379521 0.425503 0.186175 0.339484 0.384474 -0.792484 
-1.252531 1.648072 -0.309482 -0.877144 -0.119128 0.414293 
-0.084975 0.823251 0.569852 -0.217868 -0.215189 0.945587 
-0.401219 0.153014 0.392326 -0.724609 -0.238631 0.641430 
0.877222 1.629724 0.754108 0.635906 -0.565506 0.447168 
0.662785 0.599472 0.060881 -0.321669 0.337966 -0.763835 
1.701417 2.572278 1.243553 0.570903 -0.748521 0.329810 
-0.533301 1.718496 0.873888 0.700606 0.111651 -0.658759 
-0.950154 1.676628 0.253928 -0.905433 0.071732 0.400913 
-1.089678 1.386631 -0.242601 0.851107 0.141869 -0.468100 
1.175325 1.971595 0.930838 0.542828 -0.756994 0.358523 
-0.762369 0.277524 -0.270693 0.695277 0.211754 -0.605534 
-1.196198 1.653887 -0.218615 0.862855 0.088932 -0.453135 
-0.558044 0.109053 0.014969 -0.861842 -0.217157 0.447575 
-0.241472 -0.392750 0.003222 -0.570805 -0.098985 -0.810196 
-0.293193 2.864667 0.461961 0.726798 -0.419672 -0.543497 
0.272929 -0.197978 0.018263 0.485389 -0.054665 -0.848924 
-0.401362 -1.064117 -0.000124 0.509227 0.034883 -0.850493 
0.308175 -0.737379 0.166494 0.531265 -0.262004 0.774960 
0.459626 -0.571103 0.028179 0.687433 -0.143431 0.699872 
-0.704129 2.122777 0.433074 -0.723665 0.464514 0.489787 
-0.117365 2.874519 0.686633 -0.461122 0.436556 0.756160 
-0.807377 0.665936 -0.192911 -0.866505 -0.259153 0.422167 
-0.603495 1.471658 0.681816 0.686139 0.258382 -0.646131 
0.382035 -0.443701 0.140787 0.719470 -0.219712 0.652001 
0.916296 0.544922 -0.106054 0.775121 -0.236978 0.584583 
0.787743 -0.332791 -0.190731 0.569788 -0.060604 0.810411 
-0.428956 2.579537 0.492814 -0.667892 0.458931 0.579445 
-0.784148 1.337381 0.258236 0.755750 0.259381 -0.528601 
0.247402 -0.649753 0.050549 -0.217990 -0.150713 -0.955887 
-0.791718 1.705413 0.575984 -0.929307 0.080390 0.339810 
0.615951 -0.514882 -0.100983 -0.390267 0.062879 -0.902747 
1.552397 2.162915 0.745714 -0.554378 0.572744 -0.576233 
0.979971 1.519976 0.331758 0.686235 -0.551709 0.443944 
0.597772 0.180160 -0.000782 -0.100417 0.147772 -0.835655 
-0.062029 -0.596990 0.042342 -0.109491 -0.208148 -0.957984 
1.949979 2.491748 0.743350 -0.572982 0.726268 -0.372566 
-0.746106 0.703117 -0.196784 0.625522 0.255354 -0.598001 
-0.134988 -0.225171 -0.057083 -0.510565 -0.097170 -0.838331 
-0.708143 2.735096 -0.161575 -0.864350 0.356232 0.347808 
-0.329017 1.598716 1.263050 0.780360 -0.452754 -0.312670 
-0.776676 1.001636 0.091983 -0.916809 -0.132886 0.345499 
-0.564564 2.422105 0.404125 0.702391 -0.423742 -0.561259 
1.373774 1.057870 -0.479841 0.695148 -0.098370 0.709210 
-0.951752 2.315519 -0.289385 0.869533 -0.306537 -0.361304 
0.507216 0.877604 0.558115 -0.845646 0.184444 -0.494110 
0.490645 0.178606 0.291180 0.733010 -0.304842 0.594523 
0.067023 -1.086779 0.063551 0.280033 -0.167864 0.932389 
0.000101 -0.490153 0.356974 -0.154165 -0.217509 0.933613 
0.704503 1.419005 0.566751 -0.512353 0.600880 -0.593258 
-1.022388 2.054016 -0.106731 0.686975 -0.557780 -0.413075 
0.947488 1.734861 0.811875 0.615287 -0.625228 0.437954 
1.715235 2.248983 0.668404 0.568017 -0.750370 0.325434 
-0.309888 2.137936 0.934201 0.915140 -0.277003 -0.132450 
-0.835641 2.132391 0.155946 0.905864 -0.133573 -0.389485 
-0.595776 3.081533 -0.246796 -0.786542 0.432327 0.423601 
1.944425 2.687525 1.127789 0.559219 -0.731677 0.388273 
0.701625 0.349904 0.085574 0.769431 -0.289373 0.562302 
0.419582 1.437176 0.981677 0.884898 -0.319661 0.322728 
0.053424 1.357821 0.263986 0.602076 0.663196 -0.391711 
-0.388491 0.334457 0.454358 -0.548836 -0.202895 0.792918 
-0.271248 -1.019041 0.043239 0.253307 -0.010760 -0.963092 
-0.413966 0.102735 0.333904 -0.757891 -0.237850 0.590587 
-0.551075 -0.452761 -0.095782 -0.747550 -0.100725 0.634605 
1.095500 1.783240 0.722872 0.576003 -0.644780 0.492635 
0.643288 0.518446 0.292383 0.740530 -0.313724 0.544034 
-0.018254 0.308101 -0.143953 -0.509604 0.072205 -0.855697 
0.486098 0.630893 0.387551 -0.360061 0.640118 -0.344138 
-0.028744 0.486990 -0.098371 -0.464384 0.128254 -0.872611 
0.374860 0.582541 0.251391 0.615445 0.467292 -0.537294 
-0.456176 2.202531 0.693235 0.779654 -0.236278 -0.560563 
-1.271089 1.335740 -0.664551 0.857251 0.362821 -0.354579 
0.803747 0.977163 0.201122 -0.621186 0.430594 -0.634834 
-0.557693 2.712503 0.205750 0.570835 -0.581684 -0.577392 
0.667350 0.488492 -0.033934 -0.214738 0.197899 -0.827737 
1.729720 2.385173 0.885880 0.570386 -0.628759 0.509344 
2.004613 2.463781 0.606242 -0.584710 0.703408 -0.400166 
0.490018 -0.393390 0.014408 -0.164911 0.095014 -0.886088 
-0.525404 2.915590 0.053567 0.855208 -0.324310 -0.394823 
-0.984167 1.574979 0.073195 0.830868 0.043992 -0.503378 
-0.578653 2.053595 0.630456 0.688602 -0.256531 -0.626785 
-0.235651 3.011715 0.420888 -0.765849 0.417252 0.484874 
-0.140028 3.364547 0.258367 -0.778623 0.415385 0.468186 
-1.201639 1.977810 -0.415609 0.804635 -0.390696 -0.389882 
-0.540655 1.070810 0.541981 0.972052 -0.087270 -0.134287 
0.794269 0.813708 0.110170 -0.605350 0.462687 -0.640504 
-0.414261 -0.369047 0.067316 -0.840781 -0.140857 0.514104 
-0.215778 0.327218 -0.017873 -0.578942 0.015455 -0.810682 
-0.510688 0.197808 -0.032973 0.164579 0.153185 -0.808921 
-0.520407 0.994783 0.579288 -0.771003 -0.327840 0.521439 
0.582167 1.686758 1.147737 0.700818 -0.525007 0.466475 
0.350657 -0.219724 0.104905 0.250002 0.074737 -0.936408 
1.129768 2.189358 1.298374 -0.511060 0.734713 -0.445426 
1.248963 1.498972 -0.126025 0.632141 -0.569154 0.493659 
-0.443704 0.088895 0.263844 -0.806748 -0.255485 0.504104 
-0.680505 1.215282 0.354704 0.717035 0.368869 -0.542859 
-0.341349 0.602095 0.515239 -0.532466 0.007125 0.833635 
-1.139882 1.476689 -0.238705 -0.875157 -0.117645 0.427217 
1.194101 1.743323 0.511973 0.666255 -0.443630 0.576287 
-0.387339 2.845162 0.350557 -0.674100 0.481488 0.550034 
0.682772 -0.434585 -0.136782 0.615094 -0.089686 0.779981 
0.128821 -0.934245 0.122926 0.103843 -0.297690 0.944257 
0.950610 1.461475 0.305152 -0.597821 0.595549 -0.526102 
0.072089 0.404896 -0.091446 0.472296 0.088461 -0.872385 
0.235821 -0.773793 0.187800 0.282962 -0.340128 0.881061 
1.584195 2.421962 1.146659 -0.541330 0.719946 -0.432004 
-0.427500 2.852736 0.278961 0.819281 -0.338645 -0.443188 
0.537675 1.381673 0.739354 -0.456143 0.602597 -0.639447 
-0.909094 2.343548 -0.214000 0.877741 -0.281085 -0.366207 
0.358711 0.599077 0.182022 0.599941 0.425545 -0.617504 
0.398403 -0.178489 0.244867 0.716588 -0.224517 0.655804 
-0.885909 1.024369 -0.114922 -0.886111 -0.158116 0.406507 
0.647701 0.778474 0.334086 0.550191 -0.322234 0.736706 
0.406129 0.426653 0.471734 0.436681 -0.147328 0.886217 
-0.646640 -0.300355 -0.215742 -0.749617 -0.139545 0.596905 
0.937659 1.864609 1.008970 -0.395240 0.668476 -0.600058 
0.237344 0.355701 -0.005679 0.520188 0.017105 -0.849275 
0.612540 0.046798 0.039771 0.770758 -0.221750 0.593896 
-0.283394 2.426713 0.790523 -0.746328 0.438121 0.490180 
0.590966 0.257428 0.188897 0.766364 -0.319620 0.549336 
-0.157454 -0.547970 0.317149 -0.194841 -0.353977 0.902975 
0.448290 1.288018 0.783639 -0.546824 0.496975 -0.629803 
0.464532 1.496999 1.007351 0.789924 -0.367042 0.371929 
-0.217237 2.670704 0.706906 -0.771389 0.389989 0.501852 
-0.599481 0.929841 0.257153 0.779785 0.388953 -0.448223 
0.607079 -0.287192 -0.043193 -0.383425 0.126390 -0.841111 
1.029782 0.361097 -0.295700 0.670604 -0.109906 0.726760 
1.518483 1.878264 0.249831 -0.473898 0.811646 -0.309476 
-0.741060 2.790793 -0.296992 -0.845386 0.392869 0.360133 
0.417682 1.504004 0.953591 -0.386166 0.633564 -0.664554 
-0.696464 0.444746 -0.176374 0.510182 0.201302 -0.642497 
1.556306 2.009771 0.447868 -0.509991 0.777194 -0.345684 
0.004767 -1.115958 0.039782 0.470189 -0.087608 -0.842789 
1.185471 1.202083 -0.217581 -0.679125 0.416621 -0.585727 
-0.109002 -0.492623 0.007422 -0.197293 -0.391611 -0.894995 
0.399804 -0.348613 0.147550 0.746777 -0.212792 0.627089 
0.107858 -0.860716 0.042818 -0.015356 -0.101580 -0.994163 
-0.617465 0.135625 -0.123902 0.448568 0.162900 -0.711245 
-0.892865 2.475146 -0.326284 0.857129 -0.351148 -0.361335 
1.169508 2.166012 1.240696 0.574708 -0.683153 0.435570 
0.537429 -0.249151 0.001201 -0.183235 0.110643 -0.863308 
0.646488 1.222739 0.525357 -0.529845 0.560775 -0.623610 
1.889442 2.486968 0.828806 -0.563507 0.739951 -0.355537 
0.240637 -0.816242 0.045238 -0.113806 -0.021552 -0.977023 
-0.028663 0.687068 0.552486 -0.036853 0.102206 0.985556 
0.244345 0.235232 0.523296 0.406471 -0.176155 0.866933 
-0.100764 0.480289 -0.062845 -0.511593 0.093897 -0.842473 
-0.371471 -0.690505 0.047569 0.177296 0.052205 -0.922975 
0.324013 -0.618472 0.196362 0.654196 -0.255937 0.707341 
-0.023077 0.765844 0.558508 -0.081903 -0.129491 0.974852 
0.573616 1.147750 0.646478 0.874976 -0.157179 0.426648 
-1.063359 2.347467 -0.609331 0.827396 -0.442552 -0.342611 
0.067782 0.021245 -0.109851 0.496494 -0.022009 -0.855485 
-0.417769 1.857368 1.022051 -0.585866 0.416799 0.654345 
1.170814 0.617926 -0.382304 0.672407 -0.094268 0.731138 
-0.359775 2.705478 0.485608 0.746258 -0.385574 -0.539023 
-0.172980 -0.480663 0.343764 -0.201313 -0.315585 0.916636 
-0.140761 0.941013 0.097927 -0.554536 0.464695 -0.664519 
-0.115208 3.019500 0.572358 0.661687 -0.433344 -0.611239 
-0.153848 3.070853 0.473820 0.681258 -0.432543 -0.586635 
-0.133162 0.413832 -0.049923 -0.523930 0.070606 -0.839777 
-1.179477 2.075213 -0.510328 0.811129 -0.412743 -0.371909 
0.870414 0.919173 0.088750 -0.649290 0.380972 -0.638318 
1.594098 1.738454 -0.093728 0.461282 -0.807148 0.311275 
1.800211 2.197136 0.454468 -0.563861 0.716040 -0.406604 
-0.613218 0.842761 0.260428 0.968008 0.143276 -0.030487 
0.872518 0.226455 -0.140683 0.712052 -0.184744 0.660984 
-0.796995 0.109860 -0.370136 0.636548 0.222909 -0.610781 
1.200311 0.915609 -0.330367 -0.681072 0.184795 -0.694608 
1.352119 1.723629 0.234187 0.345224 -0.915948 0.160541 
-0.506946 0.112770 0.140755 -0.860908 -0.265749 0.415418 
0.082030 -0.252601 0.421737 0.088657 -0.271566 0.955272 
-0.108323 -1.189310 0.066585 -0.278719 -0.228946 0.854507 
0.420818 -0.534166 0.076431 0.700008 -0.173178 0.681262 
-0.722981 1.306093 0.345603 0.732083 0.305602 -0.545463 
-0.479177 0.345880 -0.010233 0.115424 0.174066 -0.853718 
0.447537 -0.691900 0.019568 0.657560 -0.130845 0.731916 
1.046237 0.934650 -0.072169 0.757840 -0.303995 0.553549 
-0.538987 0.609317 0.417833 -0.455017 -0.406071 0.770240 
1.161035 1.827055 0.650946 -0.441956 0.847207 -0.240577 
0.656201 0.412043 -0.028153 -0.194257 0.185783 -0.826180 
-0.303733 0.894407 0.345483 -0.914191 0.286085 0.073070 
0.922596 0.947709 0.043396 -0.661401 0.376742 -0.626249 
1.899091 2.343105 0.557163 0.584464 -0.715224 0.380230 
-0.415606 0.270110 0.415586 -0.646127 -0.232126 0.707226 
1.026038 0.796902 -0.121793 0.784933 -0.237860 0.569461 
1.166009 0.855495 -0.284480 0.742891 -0.187973 0.632142 
-1.075466 1.442076 -0.156914 -0.875182 -0.075968 0.439611 
-0.168882 0.863626 0.058913 -0.558195 0.445596 -0.684589 
0.154602 -0.697939 0.250596 0.212805 -0.387085 0.893778 
-0.735604 1.654741 0.580210 0.733794 0.114753 -0.628745 
-0.540717 1.053135 0.446770 0.938297 0.106080 -0.309568 
1.299080 2.170790 1.095685 -0.525792 0.757311 -0.379418 
0.600743 0.999372 0.579583 0.589441 -0.437423 0.615109 
0.280037 -0.429129 0.324564 0.537464 -0.283225 0.763486 
0.329705 0.823022 0.374878 0.884853 0.351257 0.212606 
0.228788 0.378934 0.564981 0.317685 -0.103961 0.938395 
-0.904400 2.188670 0.015511 -0.509586 0.763457 0.355272 
-0.284035 2.988967 0.369908 0.726985 -0.426100 -0.536702 
1.515477 2.422453 1.232229 -0.528481 0.709180 -0.463954 
1.809005 2.593977 1.137730 0.567425 -0.737004 0.361714 
0.912907 0.076335 -0.251635 0.648510 -0.095660 0.751996 
-0.438329 1.922962 0.889451 0.765562 -0.144497 -0.610890 
0.844162 -0.202060 -0.219406 0.580780 -0.063183 0.801861 
-0.270541 2.933672 0.437751 0.717187 -0.425831 -0.550127 
-0.469226 0.539560 0.122441 0.179806 0.358443 -0.725315 
-0.897844 0.955469 -0.193466 -0.877494 -0.190518 0.419212 
0.419148 0.490542 0.200516 0.268644 0.451407 -0.738127 
1.799392 2.708181 1.366294 0.557657 -0.751088 0.346676 
0.318886 0.823295 0.235951 0.873462 0.346302 -0.279977 
0.160524 1.177496 0.538044 0.934409 -0.185994 -0.238560 
0.733968 1.802687 1.115936 -0.392263 0.824540 -0.384290 
-0.058499 0.077374 0.536734 -0.161767 -0.273464 0.942637 
-0.820396 1.282977 0.222497 -0.924595 -0.029923 0.346883 
0.333297 0.552887 0.112962 0.601995 0.290430 -0.688059 
-0.194721 -1.084764 0.060295 -0.142517 -0.171576 0.967709 
-0.616294 2.191240 0.492284 0.750063 -0.337966 -0.544573 
-0.377838 -0.271933 0.200608 -0.797862 -0.199461 0.556803 
-0.938998 2.109998 -0.001739 0.632614 -0.644985 -0.421316 
-0.210576 3.122027 0.350823 0.708072 -0.431011 -0.553644 
-0.542110 0.873971 0.476737 -0.836406 -0.262430 0.472231 
0.392420 -0.930199 0.031792 0.525553 -0.159481 0.830640 
0.928410 1.547760 0.391445 -0.572922 0.610265 -0.531113 
-0.507308 0.287851 0.260331 -0.847635 -0.336185 0.390129 
-0.000828 3.642296 0.240925 0.760673 -0.405940 -0.506113 
-0.627573 1.298988 0.511289 0.696593 0.342409 -0.590112 
0.436599 1.640740 1.209557 -0.654144 0.716523 0.163539 
-1.226991 1.309885 -0.535677 0.852507 0.315602 -0.409777 
1.234058 0.638830 -0.417840 0.627658 -0.066021 0.763269 
1.083690 1.037172 -0.120544 -0.691289 0.366736 -0.599608 
-0.177166 0.402313 0.588369 -0.295080 -0.082145 0.948264 
-0.996985 1.910349 0.132440 -0.900443 0.069987 0.423694 
0.619453 -0.201013 -0.023561 0.713602 -0.172216 0.665175 
0.598952 1.339667 0.645125 -0.488049 0.589593 -0.626826 
-1.292613 1.939306 -0.573864 0.868497 -0.297022 -0.378881 
1.077695 0.873400 -0.157801 0.763446 -0.282254 0.570352 
-0.502839 0.685624 0.472848 -0.537675 -0.384053 0.663108 
-0.434396 -0.473238 0.030519 -0.804973 -0.119360 0.563506 
-0.611079 0.594146 -0.063940 0.416664 0.252346 -0.701244 
0.263303 -0.048148 0.436265 0.490890 -0.263240 0.795351 
-0.263518 0.145935 0.480920 -0.481247 -0.231653 0.805584 
-0.124334 1.017334 0.123970 -0.525316 0.437424 -0.711561 
0.353776 -0.666860 0.149733 0.645663 -0.222490 0.723073 
1.411168 2.345463 1.239415 -0.528839 0.711759 -0.461177 
2.020314 2.875411 1.379312 -0.533202 0.748916 -0.393353 
0.389196 1.585118 1.189218 0.206116 -0.470021 0.812745 
0.525800 0.060705 0.030051 0.001881 0.126050 -0.864687 
0.320572 1.541064 1.093372 -0.612218 0.563410 -0.482419 
-0.009789 -0.924390 0.156595 -0.512501 -0.223021 0.815012 
-0.712568 0.212124 -0.181947 -0.821111 -0.182956 0.513590 
0.953722 0.691591 -0.075908 0.774243 -0.273162 0.567757 
0.312152 -0.795303 0.034602 -0.270232 -0.062640 -0.950894 
-1.215731 1.595105 -0.280858 -0.876165 -0.124357 0.419276 
0.171333 -0.655901 0.056682 0.038491 -0.065595 -0.992850 
0.217853 1.116575 0.664612 -0.299377 -0.160628 0.872006 
0.778796 0.510456 0.067705 0.769975 -0.306917 0.553686 
-0.333557 -0.558595 0.173711 -0.731176 -0.223407 0.632095 
1.777071 2.018587 0.155029 0.580900 -0.711596 0.393809 
-1.047862 2.309801 -0.526173 0.839769 -0.401753 -0.347058 
-0.689429 0.966013 0.146053 0.737087 0.400152 -0.530523 
-0.896949 1.671168 0.351741 -0.913698 0.071286 0.379904 
1.029408 1.353616 0.150820 -0.639709 0.530774 -0.531991 
0.705435 1.451413 0.636114 0.787568 -0.417735 0.390892 
-0.332027 2.911601 0.372710 -0.713080 0.448605 0.533093 
0.234570 -0.225825 0.399275 0.452501 -0.270028 0.804129 
0.522188 1.487800 0.892575 0.827005 -0.401239 0.319125 
-1.058262 0.879000 -0.586411 -0.850137 -0.331251 0.355970 
0.600976 -0.860087 -0.099765 -0.473299 0.025407 -0.879630 
0.390740 -0.859370 0.025671 -0.240196 0.057555 -0.941181 
-0.664896 -0.151184 -0.198780 -0.768090 -0.147014 0.580488 
-0.582594 0.361568 0.134040 -0.862337 -0.317242 0.382395 
1.639944 1.792776 -0.067077 0.497366 -0.781844 0.322296 
0.693557 0.737628 0.126979 -0.482141 0.529652 -0.643176 
0.540270 -0.822997 -0.063444 -0.379155 0.037055 -0.920305 
0.462133 -0.027024 0.057015 0.090940 0.109543 -0.892243 
0.250494 1.181880 0.695863 -0.580461 -0.062542 0.806679 
0.512595 0.413413 0.050696 -0.032844 0.206610 -0.891465 
-0.675043 2.808918 -0.161331 0.758632 -0.446527 -0.438789 
-0.046601 -0.863773 0.177659 -0.297446 -0.288805 0.897411 
-0.075219 -0.261536 0.418228 -0.072681 -0.271494 0.956120 
-0.681373 0.401248 -0.076039 -0.864152 -0.246055 0.429699 
0.441547 -0.386943 0.072069 0.744629 -0.174655 0.637484 
0.856251 0.653244 -0.108593 -0.475372 0.237243 -0.732960 
-0.432828 -0.999296 -0.022801 0.493703 0.021499 -0.860741 
0.539673 -0.021732 0.022633 -0.031176 0.117749 -0.852284 
0.084074 0.624362 0.577761 0.052504 0.253090 0.955221 
0.584834 1.589210 0.880643 -0.382161 0.804394 -0.392950 
-0.973675 2.104306 -0.064490 0.652125 -0.625163 -0.410404 
1.942061 2.790748 1.326563 0.549375 -0.742758 0.379883 
0.779881 -0.171538 -0.172113 0.645198 -0.108283 0.750123 
0.357649 -0.482911 0.082598 0.103367 0.060416 -0.935569 
0.484457 0.175380 0.044583 0.045983 0.141255 -0.900513 
-0.682522 1.160332 0.308463 0.721013 0.377507 -0.539599 
0.641707 1.408709 0.633799 -0.490436 0.602360 -0.610351 
0.621227 0.871121 0.375525 -0.935273 0.087417 -0.277315 
0.770586 1.398415 0.529149 0.773435 -0.399324 0.419147 
1.453128 2.419785 1.314334 0.565457 -0.743496 0.344408 
0.337000 -0.723339 0.028394 0.016821 0.008457 -0.912231 
-0.791800 0.794881 -0.173930 0.779024 0.312265 -0.511329 
0.397172 1.324322 0.845320 -0.837774 0.139449 -0.455301 
1.638477 1.917375 0.168347 0.624373 -0.586484 0.462646 
-0.052193 3.180422 0.538722 -0.464349 0.448577 0.732090 
1.484493 1.602613 -0.167731 0.373381 -0.868188 0.286958 
1.037127 2.016536 1.153348 0.605187 -0.620037 0.474995 
1.400011 2.068249 0.772573 -0.552641 0.642940 -0.495490 
1.070104 0.235952 -0.334450 -0.552456 0.055719 -0.817276 
1.307168 2.215495 1.161508 0.550993 -0.677401 0.475730 
-0.622164 1.725649 0.809353 -0.955718 0.051164 0.280609 
-0.111235 3.118655 0.506066 -0.808014 0.397256 0.433545 
-1.357859 1.810341 -0.534882 0.889564 -0.228565 -0.394776 
0.989992 1.267694 0.147984 -0.639172 0.503833 -0.553991 
-0.020817 0.700289 -0.062234 -0.304652 0.241999 -0.910716 
1.487129 1.676652 -0.043983 0.394860 -0.860275 0.263450 
1.568961 1.919789 0.277666 0.644832 -0.526035 0.496224 
-0.745752 1.757678 0.545820 0.694329 -0.062378 -0.619243 
-0.503470 0.370299 0.310284 -0.786029 -0.330475 0.459934 
-0.086054 1.162842 0.179848 -0.479145 0.398243 -0.769789 
-0.686054 2.702538 -0.075553 -0.876246 0.333012 0.340248 
0.202422 -0.432798 0.357317 0.274451 -0.283771 0.915119 
-0.784986 0.415889 -0.233731 -0.831405 -0.203813 0.491859 
0.636725 -0.790493 -0.116672 0.550825 0.032067 0.806333 
-0.111309 1.233510 0.243153 -0.647067 0.505194 -0.523749 
0.578182 1.137250 0.557182 -0.521018 0.545888 -0.647995 
0.387128 0.548980 0.484560 0.549205 -0.002232 0.818722 
0.064595 -0.369600 0.380006 0.033562 -0.226498 0.967628 
-0.271827 3.071780 0.315737 -0.756451 0.425143 0.494238 
0.392544 0.644342 0.318819 0.190517 -0.206922 -0.086940 
-0.416571 3.144401 0.022175 0.808582 -0.380286 -0.437669 
-0.202705 -0.503901 0.033921 -0.057599 -0.230586 -0.911331 
0.818486 -0.106399 -0.197809 0.644213 -0.102049 0.753394 
-0.723327 1.805975 0.608949 -0.939268 0.045904 0.326725 
0.071197 0.201923 -0.117099 0.511647 0.032200 -0.855840 
-0.446054 3.214181 -0.103608 -0.771001 0.436822 0.453125 
1.250436 1.238260 -0.321679 -0.679906 0.416347 -0.591729 
1.069839 1.159382 0.021231 0.714403 -0.420541 0.522108 
0.097785 -0.940414 0.039961 0.033238 -0.086293 -0.989030 
-0.973914 0.913339 -0.400003 -0.868787 -0.281906 0.396809 
-0.691371 0.144851 -0.189565 0.669168 0.180591 -0.651737 
0.794005 1.564991 0.598122 -0.521376 0.603496 -0.583950 
-0.400753 0.350724 0.051959 -0.019848 0.172630 -0.931510 
-0.346258 0.319280 0.088367 -0.167839 0.159655 -0.952056 
1.215132 0.569241 -0.408329 0.612006 -0.058992 0.774569 
-0.582413 1.292148 0.587150 0.679824 0.361690 -0.610355 
0.164816 0.330562 0.592044 0.276612 -0.107149 0.953035 
-0.320389 -0.072052 0.104163 -0.196741 0.094196 -0.967050 
0.314619 0.882500 0.292151 0.924929 0.343882 -0.127393 
0.464688 1.555534 1.059903 0.818568 -0.497875 0.226797 
1.262807 0.871546 -0.414199 -0.624438 0.115180 -0.752751 
-0.944702 0.543985 -0.500801 0.727730 0.291123 -0.497112 
-1.094163 2.147384 -0.403319 -0.881705 0.284255 0.328642 
-0.013375 0.227102 0.579553 -0.092227 -0.182555 0.973512 
1.019389 2.084276 1.247435 -0.476249 0.750742 -0.448711 
-0.980919 1.222489 -0.189489 0.842877 0.135136 -0.490085 
1.360075 2.267559 1.175007 -0.528373 0.726557 -0.436323 
0.678373 -0.730994 -0.136849 -0.460936 0.018022 -0.885975 
-0.171612 0.655578 0.562830 -0.204537 0.287356 0.912826 
0.467513 0.606571 0.270235 0.091919 0.531190 -0.484178 
-1.318226 1.873870 -0.534515 -0.890395 0.251179 0.369557 
-0.657246 0.050688 -0.164567 0.619637 0.166567 -0.680758 
-0.122730 3.201118 0.420186 -0.798003 0.403558 0.445239 
1.755794 2.485959 1.031838 0.560679 -0.678342 0.459222 
-0.576738 0.959840 0.321353 0.902156 0.213877 -0.291100 
-1.074583 1.200088 -0.324200 -0.871955 -0.207132 0.419094 
-0.913047 1.744704 0.371754 -0.910017 0.087524 0.388558 
-0.317349 -0.861741 0.027270 0.279810 -0.026337 -0.951488 
-0.644947 2.706044 0.009080 0.675192 -0.506148 -0.498012 
0.580446 1.539575 0.818632 -0.443879 0.616434 -0.635359 
-0.259273 3.288334 0.136385 0.741679 -0.431112 -0.508777 
0.842506 1.176634 0.325305 0.782550 -0.281858 0.481928 
-0.326247 3.069466 0.237114 0.758882 -0.410574 -0.498297 
-1.113169 0.969960 -0.658736 -0.853945 -0.357531 0.327757 
0.542043 0.216854 0.234751 0.765003 -0.333117 0.543546 
0.026253 -0.058250 -0.116910 0.423459 -0.097524 -0.877477 
-0.246678 0.395924 0.000009 -0.611223 0.008557 -0.784159 
-0.244934 2.578807 0.710468 0.740601 -0.367736 -0.559639 
0.560222 0.361741 0.291154 0.762197 -0.378637 0.524032 
0.659158 0.033036 -0.012499 0.757926 -0.201047 0.614861 
0.209175 0.563733 0.561055 0.303783 -0.011668 0.940522 
-0.950388 1.742619 0.299022 -0.904313 0.086512 0.403113 
1.448017 2.466752 1.395195 0.578094 -0.764389 0.280205 
0.626868 0.706615 0.218282 -0.566182 0.365135 -0.254027 
0.296862 0.925003 0.351454 0.921795 0.316950 0.046123 
0.112624 1.206639 0.220950 0.588072 0.424706 -0.641959 
-0.706854 0.024042 -0.217595 -0.786295 -0.165968 0.552674 
-0.759648 1.584157 0.553835 -0.936225 0.053799 0.323357 
0.757890 -0.243315 -0.170831 0.635829 -0.098719 0.762174 
-0.920987 2.217391 -0.055250 -0.517667 0.759977 0.345262 
-0.108724 -0.658739 0.051263 0.046958 -0.121799 -0.990692 
0.165668 1.504373 1.274240 -0.388403 0.764258 -0.186052 
-0.794955 2.526345 -0.154978 0.856927 -0.338882 -0.378124 
0.322848 -0.466804 0.261333 0.687459 -0.272656 0.671480 
0.864957 0.713045 -0.059859 -0.549685 0.316029 -0.690354 
-0.133580 -0.557185 0.029591 -0.120556 -0.229034 -0.950518 
0.823345 -0.271575 -0.208915 0.566832 -0.057135 0.811987 
-0.287188 3.210939 0.166996 0.745854 -0.429233 -0.506529 
-0.479502 3.143661 -0.094721 0.812181 -0.388866 -0.426635 
-0.720991 0.772565 0.081246 -0.936937 -0.203209 0.280256 
-0.161330 0.507240 -0.037699 -0.560308 0.060919 -0.805090 
-0.073544 1.162627 0.548833 0.219203 0.547108 0.777739 
-0.031916 -0.553942 0.333570 -0.202852 -0.292828 0.913769 
-0.742003 1.225900 0.249481 0.743661 0.314240 -0.531935 
-0.731938 2.054406 0.446221 -0.706900 0.511531 0.459288 
1.813726 2.683717 1.300249 0.559951 -0.746823 0.352468 
0.715434 1.641665 0.920888 0.717372 -0.556355 0.341480 
-0.185162 -0.605796 0.056442 0.014228 -0.107937 -0.981486 
-0.816130 -0.182609 -0.358344 -0.625590 -0.042688 0.684919 
0.750433 0.945937 0.317330 0.848304 -0.118509 0.503022 
-0.650200 2.260946 0.386497 0.793915 -0.360838 -0.486131 
-1.079841 1.993419 -0.156659 0.734595 -0.463539 -0.417878 
0.890807 0.183433 -0.201793 -0.537329 0.130366 -0.795231 
0.307994 0.722085 0.044677 0.693762 0.407268 -0.569529 
0.638915 0.997060 0.407795 -0.568216 0.495472 -0.650934 
1.399041 2.173406 0.980291 0.545820 -0.585086 0.594488 
0.088270 1.268909 0.425265 0.285014 0.796211 0.519473 
0.604198 -0.444940 -0.053728 0.655585 -0.137646 0.729688 
0.566182 1.425846 0.795110 0.837649 -0.356455 0.361900 
-0.414943 2.299660 0.678986 0.760396 -0.274294 -0.570500 
-0.441876 3.020324 0.102224 0.832008 -0.345212 -0.420304 
-0.616303 1.180850 0.444322 0.693407 0.409497 -0.565299 
-0.315357 2.662505 0.563537 0.720573 -0.389989 -0.572522 
-0.201331 -0.723738 0.225182 -0.271672 -0.373449 0.882203 
-0.467200 -0.753949 -0.044883 -0.719956 -0.065506 0.682243 
1.519178 1.589952 -0.240216 0.385971 -0.853939 0.313598 
-0.565770 2.942953 -0.044547 -0.697787 0.490071 0.492682 
-0.855835 0.859670 -0.245641 0.816928 0.269018 -0.501413 
0.816678 -0.008832 -0.157851 0.673076 -0.140401 0.712863 
-0.506063 0.660601 0.303381 0.434430 0.465921 -0.239494 
0.231851 -0.535193 0.300535 0.404830 -0.318447 0.838043 
-0.489055 3.186885 -0.156081 -0.781065 0.431814 0.440515 
-0.119322 3.328654 0.319758 -0.784299 0.410745 0.462439 
0.108691 0.588296 -0.047347 0.426809 0.130886 -0.869714 
-0.895515 2.539148 -0.406072 -0.831574 0.427039 0.339827 
-0.407173 0.052141 0.046641 -0.025056 0.125603 -0.901501 
-1.242038 2.026721 -0.584517 -0.867049 0.328977 0.349360 
0.574780 0.631870 0.159738 -0.155664 0.497883 -0.682654 
-0.939054 0.451093 -0.508842 -0.808531 -0.276654 0.430856 
1.294191 1.940191 0.673646 -0.523857 0.767697 -0.352601 
-0.299771 -0.215051 0.371095 -0.637275 -0.263746 0.694180 
-0.561209 2.483900 0.363111 0.679209 -0.452340 -0.563596 
0.717637 1.536282 0.636883 -0.495301 0.616928 -0.590239 
-0.958073 0.299462 -0.509775 0.695352 0.179781 -0.560268 
-0.595360 1.388744 0.732645 -0.964678 0.012421 0.252778 
0.285360 0.887009 0.223763 0.832082 0.371025 -0.334013 
1.353364 2.304010 1.249398 0.546184 -0.719658 0.426884 
0.563113 0.557122 0.426731 0.312834 -0.370138 0.848362 
-0.745509 -0.073559 -0.324249 -0.765589 -0.186194 0.542376 
0.078154 0.681525 -0.053005 0.385894 0.220646 -0.869168 
1.169504 1.463371 -0.027110 -0.645513 0.542283 -0.526125 
1.591688 1.862555 0.115776 -0.500049 0.784825 -0.336429 
-0.122553 0.114569 0.539935 -0.246015 -0.244709 0.932722 
1.250238 1.783822 0.498047 0.669918 -0.436716 0.565920 
0.031945 -0.874812 0.050750 0.271528 -0.074260 -0.953296 
-0.831425 1.165349 0.037110 0.787393 0.243674 -0.515282 
-0.292271 0.664003 0.525173 -0.470017 0.329855 0.793167 
-0.725949 0.544866 -0.082105 -0.864994 -0.274948 0.411188 
-0.314672 3.010652 0.306954 0.745794 -0.416789 -0.514973 
0.439384 0.114564 0.333430 0.698470 -0.261785 0.655935 
-0.616436 -0.082477 -0.135891 0.572372 0.148456 -0.715816 
-1.348317 1.489979 -0.580666 -0.873737 -0.309001 0.374210 
0.142027 -0.275096 -0.049990 0.489855 -0.128604 -0.846132 
0.626648 0.535427 0.039496 -0.229534 0.278370 -0.808391 
0.696099 1.589997 0.774121 -0.482789 0.592977 -0.630115 
1.147511 1.833317 0.734959 0.568594 -0.670256 0.466987 
1.365062 2.447956 1.464958 0.351042 -0.516283 0.776235 
-0.983188 0.368015 -0.534671 -0.718367 -0.186308 0.521577 
-0.248087 1.036729 0.269993 -0.850669 0.412519 -0.265342 
1.220130 1.174776 -0.276341 0.721184 -0.379744 0.564437 
0.991154 0.086122 -0.294008 -0.525940 0.054114 -0.832484 
0.672964 -0.370437 -0.108075 0.642629 -0.118552 0.748488 
0.038718 -1.017687 0.040420 0.265009 -0.046397 -0.955238 
0.939487 2.022907 1.278566 0.598019 -0.661040 0.428515 
-0.490295 2.144026 0.716934 -0.648949 0.522371 0.539040 
-0.681006 0.716097 0.203287 -0.778019 -0.226182 0.479960 
-0.203830 2.885781 0.566561 -0.775150 0.404166 0.481146 
0.521865 0.400563 0.365190 0.627300 -0.314078 0.666105 
0.989240 1.715849 0.622188 -0.437983 0.842626 -0.292832 
-0.411993 -0.055010 0.236969 -0.798805 -0.206841 0.547041 
0.459960 -0.464817 0.045828 0.715570 -0.159587 0.668843 
0.191894 -0.077289 -0.036808 0.544323 -0.050541 -0.832970 
0.813366 0.761151 0.160147 0.858024 -0.229359 0.455222 
-0.940640 0.846449 -0.375510 -0.865463 -0.273223 0.406804 
-0.476203 2.371317 0.577633 -0.648417 0.486028 0.576462 
0.179588 -0.884271 0.044763 -0.126802 -0.063147 -0.979169 
-0.585775 2.156616 0.555697 0.707891 -0.311553 -0.593151 
0.815157 0.490538 0.005379 0.771818 -0.276744 0.567193 
-0.289624 -0.543252 0.018452 -0.269122 -0.044670 -0.854068 
-0.287637 3.373372 0.025350 0.764779 -0.429073 -0.480538 
1.942908 2.653050 1.063956 -0.553913 0.727811 -0.403211 
-0.000528 -0.802051 0.236620 -0.569399 -0.250823 0.774831 
0.495487 1.103929 0.612539 -0.842657 0.075824 -0.436029 
0.475720 0.442427 0.108255 -0.010852 0.293090 -0.853288 
-0.384106 -1.243725 -0.014819 -0.302677 0.300133 -0.827537 
0.384232 0.154927 0.084990 0.176768 0.133040 -0.956183 
-0.910544 1.840429 0.313669 -0.909681 0.064222 0.398729 
-0.417712 0.453625 0.127078 0.017064 0.309116 -0.812673 
0.264839 0.845795 0.139470 0.702002 0.432039 -0.509183 
0.458172 1.364276 0.821826 -0.429276 0.603502 -0.661428 
1.513852 2.168701 0.810449 -0.553206 0.539942 -0.614226 
-0.696595 1.078230 0.218624 0.732312 0.377596 -0.534639 
-0.755472 0.609936 -0.107334 -0.865546 -0.279498 0.408455 
-1.011582 2.346362 -0.467750 -0.763916 0.514306 0.330477 
1.141461 1.412605 0.021227 0.675063 -0.519968 0.502519 
0.719148 0.610894 0.194930 0.803583 -0.305517 0.505837 
-0.432433 0.393285 0.433731 -0.557457 -0.221522 0.780629 
-0.672017 1.498974 0.662359 -0.951089 0.035995 0.286319 
-0.455767 0.622020 0.256422 -0.031257 0.501782 -0.482268 
-0.579708 0.733771 0.338105 -0.578672 -0.307786 0.698218 
-0.061754 0.247803 -0.122387 -0.532633 0.044565 -0.842685 
0.604316 0.866009 0.443853 0.517245 -0.461622 0.691992 
-0.983775 2.138643 -0.140518 0.668888 -0.614424 -0.400124 
0.493695 1.692381 1.229303 -0.649745 0.721262 0.128604 
0.424264 1.397066 0.879250 -0.409692 0.612818 -0.667669 
0.179944 -0.116701 0.453533 0.305418 -0.265378 0.889925 
-0.355328 0.762893 0.291512 -0.911960 0.347033 -0.127133 
1.204316 1.003718 -0.292369 0.745979 -0.245313 0.604849 
0.027658 1.350298 0.350166 0.415761 0.647574 0.577484 
0.396849 0.227266 0.078693 0.154724 0.144610 -0.956464 
-0.746743 1.129530 0.253779 -0.935111 -0.070271 0.317433 
-0.386015 -1.317599 -0.045500 0.231684 0.133808 -0.957902 
-0.591283 3.029615 -0.183760 -0.757091 0.451700 0.445864 
0.946228 1.293912 0.214922 -0.622307 0.530860 -0.554075 
0.329804 -0.558458 0.081722 0.126957 0.042444 -0.939197 
-0.416103 2.374625 0.650251 -0.683229 0.496309 0.522413 
-0.737234 -0.448255 -0.273828 0.567893 -0.022136 -0.776688 
-1.106275 1.065554 -0.631808 0.841354 0.366579 -0.367244 
-0.630876 1.568466 0.704184 0.695510 0.197129 -0.657626 
-1.062132 1.558976 -0.053473 -0.876845 0.000330 0.452803 
0.054589 0.792585 0.564697 0.141770 -0.195160 0.959447 
-0.575730 2.263110 0.512029 -0.818809 0.352220 0.428698 
1.946466 2.542001 0.846592 -0.566882 0.728466 -0.379079 
-0.282943 -0.055627 0.032248 -0.435879 -0.003506 -0.860263 
-0.533742 -0.811554 -0.103760 -0.640847 0.018635 0.753673 
-1.101068 1.125275 -0.419919 -0.870755 -0.272836 0.406371 
0.036811 -0.135413 -0.104624 0.411556 -0.131979 -0.878540 
1.550790 1.649648 -0.183513 0.416937 -0.834466 0.313627 
-0.577572 -0.134723 -0.104167 0.483955 0.136066 -0.747923 
0.275105 0.066479 0.460376 0.476383 -0.256299 0.809602 
0.535299 1.520239 0.977537 0.768156 -0.376777 0.440965 
1.617902 2.138658 0.618328 0.565378 -0.745601 0.341955 
1.208255 1.709309 0.405536 0.345054 -0.917557 0.126987 
-0.266070 3.340438 0.084281 0.753664 -0.429394 -0.494703 
0.262622 0.981190 0.258214 0.837696 0.380700 -0.296633 
0.993959 0.226903 -0.295198 0.648022 -0.089639 0.752341 
-0.032769 1.046758 0.119441 -0.306898 0.468018 -0.815369 
-0.654724 0.650691 -0.080537 0.516347 0.275031 -0.647775 
-0.328128 0.827862 0.382290 -0.871843 0.375121 0.247202 
-0.107578 0.070174 -0.090485 -0.545173 0.004672 -0.833448 
0.125610 1.030111 0.590124 0.101427 -0.107179 0.954050 
-0.775950 2.500710 -0.089543 0.852088 -0.342913 -0.385982 
0.012838 0.973086 0.057592 0.340921 0.503760 -0.786478 
1.025431 1.197164 0.065368 -0.659422 0.458866 -0.563790 
-0.735970 2.501652 -0.009210 0.839558 -0.366230 -0.397585 
1.764069 2.313701 0.699919 -0.568309 0.616659 -0.513767 
-0.699302 0.861010 0.234198 -0.941252 -0.167883 0.259289 
-0.897928 0.488681 -0.438438 0.723285 0.270997 -0.523380 
0.155787 0.107924 0.533636 0.272891 -0.251268 0.926109 
0.239347 -0.916303 0.114047 0.163473 -0.303154 0.936512 
0.683609 1.291685 0.520505 -0.530098 0.573859 -0.608604 
-0.401069 3.100289 0.100810 -0.687064 0.490723 0.520525 
-0.093233 -0.501392 0.342344 -0.087037 -0.302050 0.942385 
1.252166 1.035322 -0.354550 -0.698912 0.199031 -0.678651 
-0.236118 0.218203 0.517771 -0.426907 -0.184586 0.848760 
0.215935 0.881532 0.097364 0.622904 0.449703 -0.631516 
1.290553 1.849421 0.510845 -0.454054 0.834578 -0.283073 
-0.167961 2.978487 0.544908 -0.790575 0.402657 0.456569 
-0.652663 2.524281 0.158964 0.749774 -0.437534 -0.465023 
-1.062574 1.697174 0.048843 -0.883359 0.065225 0.451362 
0.330599 -0.513397 0.201949 0.687344 -0.260993 0.674021 
0.247703 -0.285967 0.001911 0.563484 -0.102028 -0.818853 
-0.269019 -0.744489 0.179295 -0.425287 -0.303162 0.810282 
-0.620567 3.101425 -0.319105 -0.826180 0.404474 0.390979 
1.264983 2.357258 1.440882 0.399968 -0.583744 0.684970 
-0.296063 0.867186 0.227226 -0.842735 0.368581 -0.327468 
0.294249 0.782856 0.155911 0.751622 0.406120 -0.441372 
0.319567 0.096046 0.044680 0.371050 0.035617 -0.896928 
-0.552085 -0.519877 -0.130477 0.512141 0.111420 -0.788592 
1.647449 2.288931 0.831773 0.574279 -0.601099 0.541430 
0.977665 0.538598 -0.158774 0.747955 -0.218727 0.615826 
-0.001369 -0.944993 0.025799 -0.630641 -0.034085 -0.766820 
0.827078 1.526724 0.484360 -0.537427 0.617449 -0.553061 
1.423926 1.771927 0.192574 -0.600071 0.601356 -0.513033 
-0.694412 1.912207 0.490043 0.805425 -0.125009 -0.522912 
0.926048 0.990240 0.114227 0.786410 -0.251629 0.525001 
-1.199918 1.243942 -0.563956 -0.871440 -0.321212 0.359256 
0.389035 -0.788821 0.033719 -0.187032 0.059179 -0.938586 
1.892655 2.453446 0.760801 0.580940 -0.672857 0.442566 
-0.225552 0.665787 -0.019723 -0.586532 0.170520 -0.761529 
0.423988 1.187188 0.831604 0.183349 -0.601078 0.610884 
1.680512 2.374895 0.943703 0.565805 -0.617591 0.528312 
0.371465 -0.374931 0.085343 0.143747 0.066874 -0.925958 
0.311043 0.793669 0.437800 0.757042 0.328533 0.483964 
0.347493 0.006178 0.101482 0.236827 0.107883 -0.960988 
0.959258 1.722223 0.728492 -0.371196 0.860228 -0.261408 
-0.701255 -0.322686 -0.269973 -0.690683 -0.092561 0.643946 
-0.645545 1.015872 0.393203 -0.961880 -0.081483 0.253079 
-0.877833 1.600879 0.339732 -0.917790 0.055819 0.370172 
-0.245084 0.360905 0.550348 -0.371017 -0.130756 0.904694 
-0.704801 0.837448 0.033256 0.764475 0.393507 -0.505444 
-0.135097 0.254319 -0.075105 -0.557789 0.023771 -0.826200 
0.164173 1.156404 0.450772 0.834868 -0.112677 0.292526 
-0.818623 0.833481 -0.113582 -0.898890 -0.213596 0.368019 
-0.531114 2.332448 0.529711 -0.855587 0.319429 0.388029 
0.103596 0.082068 -0.094648 0.522705 0.002524 -0.847702 
1.268818 1.635902 0.174564 0.413850 -0.837607 0.252007 
0.869652 1.596202 0.565392 -0.546975 0.588947 -0.579429 
-0.492512 2.980782 0.048144 0.841820 -0.339995 -0.407358 
-0.189329 -0.684780 0.053356 -0.013843 -0.045737 -0.990327 
-1.021648 1.913263 0.055799 0.769846 -0.301922 -0.475659 
0.674703 0.775969 0.261487 -0.914522 0.246776 -0.244561 
0.210962 -0.411002 -0.001052 0.489967 -0.172964 -0.835056 
-0.609788 0.073903 -0.087428 -0.842799 -0.178976 0.492389 
-0.229776 -0.187376 0.414079 -0.474766 -0.265558 0.791448 
-0.999546 0.749117 -0.520314 -0.841347 -0.303496 0.388069 
1.422196 2.114578 0.832090 -0.552092 0.577376 -0.571193 
-1.200201 1.215216 -0.655681 -0.870885 -0.359521 0.319345 
-0.427415 -0.662452 0.014297 -0.757294 -0.094063 0.629947 
0.954020 1.339362 0.270591 0.721642 -0.427083 0.474724 
-0.932842 2.502276 -0.458671 -0.836706 0.426889 0.336147 
-1.044040 2.001925 -0.062121 -0.919704 0.110285 0.367963 
-0.763772 1.080744 0.180518 -0.926467 -0.095937 0.331371 
0.552142 -0.654533 -0.058562 0.622734 -0.107713 0.770450 
-0.771458 0.059974 -0.327208 -0.780490 -0.197648 0.523685 
1.158956 0.721210 -0.326923 0.708020 -0.142819 0.680656 
-0.246737 0.970123 0.498582 -0.791584 -0.036451 0.575981 
0.984852 1.669847 0.568914 -0.583778 0.555071 -0.588643 
-0.265878 -0.683542 0.045551 0.243271 -0.130823 -0.953135 
0.017436 -0.658503 0.308321 0.415274 -0.337490 0.840534 
-0.959044 1.649779 0.176244 0.817096 0.040108 -0.518637 
1.310090 1.895482 0.609201 0.618395 -0.575547 0.479287 
0.915836 0.689426 -0.136719 -0.551010 0.240956 -0.705408 
1.483684 1.985737 0.501474 -0.510838 0.777451 -0.345302 
1.774271 1.947406 0.021202 -0.563476 0.720832 -0.401932 
-0.736421 0.001209 -0.298831 0.619782 0.196180 -0.649184 
-0.980214 1.410309 -0.047507 0.839119 0.072928 -0.498719 
-0.151193 -0.161238 0.448719 -0.210794 -0.260519 0.936960 
0.439723 -0.229494 0.127902 0.762058 -0.207100 0.609464 
-0.053545 -1.068177 0.044040 -0.186646 -0.076120 -0.966510 
-0.576915 1.804188 0.822539 -0.817712 0.478169 0.248288 
-0.789178 1.170495 0.119204 0.768160 0.280631 -0.522393 
0.168222 -1.138111 0.057234 -0.099367 -0.069080 -0.988783 
1.702641 2.480733 1.092801 0.556048 -0.704779 0.433667 
-0.113332 -0.009107 0.502809 -0.206136 -0.266060 0.937088 
-0.393290 -0.540720 0.036890 0.156821 0.067007 -0.902882 
-0.423529 2.675899 0.424909 0.786026 -0.354093 -0.497378 
-0.599877 -0.000587 -0.086831 -0.830186 -0.168213 0.511427 
-0.170515 0.039562 -0.049442 -0.566126 -0.018532 -0.819514 
0.996888 1.897205 1.032723 0.557862 -0.697958 0.433766 
-0.346225 -0.364917 0.089459 -0.089406 0.067574 -0.937657 
1.363716 1.120759 -0.442388 0.718276 -0.130202 0.676310 
0.087614 -0.670095 0.280747 0.233634 -0.386723 0.886796 
1.016319 2.101182 1.316767 0.571711 -0.695944 0.418237 
-0.190140 0.147948 -0.038176 -0.574723 -0.008307 -0.814479 
-0.804630 0.364310 -0.317635 0.710239 0.230599 -0.577442 
-1.157549 1.168890 -0.574283 -0.870692 -0.331009 0.348410 
0.496188 0.344056 0.036970 0.017374 0.167330 -0.911369 
-0.686300 1.240323 0.456592 -0.953142 -0.022157 0.283646 
-1.236865 1.227054 -0.803682 -0.870073 -0.416179 0.261112 
-1.009998 1.678858 0.106198 0.836114 0.004884 -0.502481 
1.301776 2.062953 0.924715 0.546997 -0.776508 0.306570 
-0.544882 1.107089 0.606451 -0.573056 -0.469737 0.605738 
-0.159993 0.182713 0.552394 -0.294350 -0.200849 0.928720 
0.335168 1.468314 1.014815 -0.842988 0.041353 -0.355839 
1.572884 2.089711 0.591103 0.568679 -0.728805 0.376257 
-0.157704 -0.931581 0.039930 0.092919 -0.068376 -0.984951 
-1.022330 1.390089 -0.105787 -0.874889 -0.054373 0.447827 
1.643872 2.234119 0.748410 0.560790 -0.768055 0.295797 
-0.166187 -0.229313 0.421446 -0.242187 -0.261821 0.912788 
0.870656 0.511984 -0.060505 0.773770 -0.251545 0.578279 
-0.813489 2.219544 0.168893 -0.641330 0.597620 0.419676 
0.693523 0.414763 0.133542 0.768017 -0.320398 0.548185 
0.503745 -0.973350 -0.051169 0.653655 0.077925 0.712956 
1.882841 2.650781 1.142847 0.562899 -0.735157 0.374022 
1.638453 2.510070 1.215229 -0.529766 0.710025 -0.459242 
-0.391829 0.647160 0.436328 -0.614611 0.371509 0.598326 
-0.744065 2.238403 0.233048 0.870987 -0.221800 -0.407821 
0.897880 1.384439 0.323610 -0.593238 0.581605 -0.545787 
0.116594 0.694890 0.551514 0.095522 0.113308 0.979664 
-0.676522 1.082968 0.361753 -0.952489 -0.067320 0.280917 
1.076848 0.707293 -0.253822 -0.661116 0.198261 -0.700504 
-0.786904 0.585581 -0.200284 -0.866116 -0.238898 0.435232 
-0.312475 0.203662 0.468664 -0.563776 -0.199475 0.760069 
-0.562065 0.140815 -0.073964 0.276162 0.150427 -0.755644 
0.724059 1.842035 1.235862 0.648322 -0.598027 0.441331 
-1.172827 1.004188 -0.736314 0.817651 0.362864 -0.357022 
-0.496061 0.663444 0.214835 0.129178 0.515723 -0.513932 
0.832288 0.640298 0.060352 0.785249 -0.294964 0.539071 
-1.134979 2.126429 -0.472856 -0.873452 0.310333 0.333064 
0.713702 0.710900 0.250326 0.374650 -0.285033 0.879808 
-0.506103 1.718405 0.938886 0.560984 -0.046146 -0.804502 
-0.498873 1.709596 1.018946 -0.821149 0.428172 0.331220 
0.590530 1.242983 0.673366 0.855706 -0.231394 0.409335 
0.106216 -1.176172 0.061312 0.016375 -0.117796 -0.985604 
-0.568491 0.829335 0.406211 -0.816542 -0.260576 0.488527 
-0.232597 -0.815065 0.168032 -0.244607 -0.338884 0.902890 
0.586453 0.170573 0.146244 0.767619 -0.287435 0.564080 
0.376311 0.658982 0.429557 0.822410 0.328437 0.343777 
-0.739738 2.426983 0.061136 0.843932 -0.343868 -0.403189 
-0.602703 2.454134 0.309814 0.731644 -0.423318 -0.514054 
0.837130 0.162358 -0.147558 -0.559672 0.165410 -0.769382 
-0.393868 1.596875 1.230388 -0.701758 -0.030771 0.654751 
-0.888489 0.843229 -0.315470 0.827582 0.263447 -0.493983 
0.200072 0.463539 0.571944 0.289683 -0.058353 0.949574 
-1.069637 1.769242 0.089721 -0.885552 0.090735 0.450661 
0.379809 -0.739174 0.102438 0.625095 -0.190173 0.748329 
-0.890727 1.194932 0.008818 -0.897259 -0.088810 0.394851 
-0.440508 0.167089 0.320484 -0.780150 -0.268015 0.537224 
-0.213538 0.818223 0.523127 -0.527816 0.048963 0.823046 
1.471774 2.227971 0.971316 -0.527620 0.808547 -0.242564 
-0.272338 0.013255 0.018720 -0.556573 -0.036223 -0.814015 
-0.743248 1.443929 0.410984 0.738452 0.224866 -0.570947 
-0.515575 3.021169 -0.032003 -0.710075 0.479964 0.489675 
-1.080841 0.685727 -0.637170 -0.770355 -0.267673 0.428764 
-0.453864 0.261004 0.350307 -0.765595 -0.289878 0.538311 
-0.484343 0.495912 0.065745 0.226736 0.253643 -0.794333 
-0.064141 3.102844 0.586643 -0.447754 0.452705 0.748603 
1.528329 2.294562 1.014428 0.559382 -0.613407 0.543385 
-1.321897 1.595999 -0.479274 0.866055 0.186540 -0.409839 
1.475109 2.162856 0.871259 0.548120 -0.793325 0.257649 
-0.463716 0.614143 0.520850 0.728423 0.642445 -0.194289 
