1.845723 1.100782 -0.184821 -0.011911 -0.425341 0.872818 
-1.512490 1.567146 -1.292642 -0.794521 0.476163 0.373767 
2.347231 2.361200 0.182701 -0.016087 0.400958 -0.915240 
0.274273 0.842404 0.163461 0.735454 0.424420 -0.459912 
-0.794247 0.285400 0.012294 -0.687953 -0.266676 0.662413 
-0.219416 1.181304 0.663891 0.552582 0.026907 0.809790 
-1.304416 0.580532 -0.460460 -0.750717 -0.093382 0.636575 
-1.129792 2.233870 -1.223266 0.734208 -0.474457 -0.447893 
-0.632146 2.523098 -0.538060 0.856325 -0.371971 -0.349510 
1.267186 0.948837 -0.132341 0.407033 -0.280172 0.838042 
0.142522 1.157290 0.600743 -0.411608 0.374464 0.793005 
-1.099093 0.499946 -0.282695 -0.752419 -0.108490 0.624840 
-0.895301 1.081595 0.076005 -0.905004 0.016916 0.398762 
-0.595139 0.217203 0.204333 -0.651805 -0.327733 0.671910 
-0.206361 -0.968283 0.182077 -0.172749 -0.071384 0.978306 
-0.488123 0.532331 0.189294 -0.248101 0.420146 -0.721176 
-0.105447 -0.524350 0.328153 -0.147549 -0.227512 0.959909 
1.014737 0.677839 -0.064922 -0.486133 0.209842 -0.837496 
1.237729 0.126325 -0.365459 0.622382 -0.170183 0.747793 
1.028354 0.535451 -0.059989 0.696687 -0.166128 0.691205 
-0.107017 -0.891360 0.122456 0.059341 -0.339912 -0.935867 
0.044432 -0.913470 0.135544 0.228595 -0.315090 -0.909574 
0.796906 0.451824 0.138960 0.659387 -0.248310 0.694743 
-1.094728 1.509492 -0.096475 -0.897043 0.177993 0.354735 
2.071305 1.124038 -0.221142 0.236696 -0.150061 0.933655 
-1.024548 1.991617 -0.837144 0.779453 -0.491083 -0.369684 
-0.080502 -0.590299 0.309957 -0.198510 -0.246711 0.942679 
-0.664832 -0.611930 -0.087466 0.368462 -0.009822 -0.880956 
-0.713025 2.479596 -0.677360 0.834881 -0.379486 -0.391889 
0.100586 -0.512422 0.332234 0.137728 -0.224092 0.962156 
2.446739 2.108050 0.077904 0.035808 -0.348369 0.928346 
0.207731 -1.206140 0.200117 -0.057969 -0.002316 0.728014 
-0.502879 -0.155981 -0.008392 -0.081546 0.046829 -0.874518 
-0.186904 1.190647 0.395324 -0.712728 0.664800 -0.031659 
-0.842353 1.722733 0.109481 0.648033 -0.311801 -0.574415 
-0.643094 0.623758 0.239279 0.590041 0.568870 -0.378994 
-0.905901 2.839921 -1.213304 -0.845519 0.214507 0.480030 
1.429449 0.787153 -0.341757 -0.333689 0.400272 -0.834008 
-0.938931 0.424602 -0.158729 0.599969 0.205639 -0.749557 
0.008943 -1.037932 0.224870 0.573009 0.026293 0.802179 
1.170520 2.091787 0.280161 -0.160860 0.383884 -0.904235 
0.340671 -0.783056 0.190787 0.463356 -0.096196 0.865192 
-1.625849 1.351260 -1.243377 -0.795080 0.471235 0.368406 
0.303828 -0.527354 0.045611 0.340849 -0.113696 -0.879195 
0.873477 0.479458 -0.032396 -0.366084 0.215939 -0.841676 
1.867982 0.919910 -0.232973 -0.029822 0.247270 -0.912713 
1.313001 0.713963 -0.245984 0.460491 -0.316749 0.798017 
-1.406795 1.450237 -0.896081 -0.839138 0.267650 0.446223 
-0.967979 0.781645 -0.067752 -0.836184 -0.057215 0.504407 
0.878118 0.869505 0.066840 -0.420131 0.198689 -0.877002 
0.625719 0.463354 0.345032 0.536086 -0.194001 0.777769 
0.184709 0.386342 0.519966 0.175101 -0.272487 0.945002 
1.195666 0.033139 -0.363959 -0.498763 0.136914 -0.807512 
-0.109883 -1.051859 0.199394 -0.170587 0.011028 0.984646 
-1.209493 2.152747 -1.301017 0.773250 -0.421277 -0.451377 
1.611339 2.071547 0.141158 0.267599 -0.226864 0.931048 
-0.484976 0.343702 0.371189 -0.497741 -0.336391 0.770292 
1.061103 0.399612 -0.168558 -0.500403 0.202267 -0.799798 
-1.150107 0.812824 -0.298790 -0.794016 0.025938 0.554798 
0.598801 1.012287 0.351980 -0.773719 0.067225 -0.627376 
0.231012 -0.202819 0.347098 0.422522 -0.185271 0.845133 
-1.153011 0.349299 -0.405714 0.681333 0.204261 -0.697869 
-1.011674 0.921840 -0.154449 0.663414 0.031726 -0.694821 
0.795861 1.766054 0.277516 -0.041713 0.480977 -0.870907 
0.591090 -0.380406 0.011135 -0.123292 0.012702 -0.902147 
-1.308349 1.713067 -1.062910 0.809357 -0.365479 -0.448084 
0.325306 0.276491 0.008620 0.595058 0.083681 -0.765425 
-1.124167 2.363642 -1.301423 0.836219 -0.265437 -0.473036 
-0.148532 1.095726 0.416663 -0.667431 0.251743 0.512794 
-1.147096 1.489480 -0.216186 -0.884401 0.197823 0.384459 
-0.303762 0.196125 0.010145 -0.619085 0.053444 -0.744092 
-0.878439 3.051777 -1.251867 0.820122 -0.210135 -0.528885 
-0.296206 -0.011431 0.033588 -0.534200 0.004909 -0.809699 
0.297960 0.397242 -0.028035 0.699549 0.085481 -0.700420 
0.698531 -0.556433 -0.049663 -0.311264 -0.007244 -0.910433 
-0.546859 0.213540 0.257868 -0.640841 -0.349018 0.673837 
0.305890 0.796982 0.446644 0.731324 0.323227 0.509500 
0.301150 -0.290289 0.310333 0.589852 -0.191179 0.763943 
-1.478972 1.520689 -1.155428 -0.727627 0.577629 0.286228 
-0.742156 1.773925 0.325158 0.742703 -0.080614 -0.640298 
-1.460335 1.429182 -1.001467 0.720801 -0.602015 -0.303394 
-0.193499 -0.131261 -0.077058 -0.604221 -0.088007 -0.777652 
-0.305232 0.906996 0.318920 -0.925136 0.332085 -0.066807 
-1.141351 -0.119278 -0.505486 -0.658970 -0.174213 0.688090 
1.425388 0.296971 -0.502998 0.647049 -0.207429 0.723558 
-1.244776 1.201289 -0.359376 -0.837466 0.205186 0.477987 
0.657295 1.722416 0.405925 0.109385 -0.122003 0.850624 
-0.367352 0.573268 0.190140 -0.609878 0.406705 -0.666210 
0.512678 0.287700 0.070616 0.174626 0.186137 -0.900449 
-0.097819 1.204376 0.203421 -0.570851 0.368347 -0.718560 
-0.826036 -0.452495 -0.219946 -0.619520 -0.072890 0.749877 
1.871847 2.248973 0.153735 0.144307 -0.345117 0.922477 
-0.962523 1.448585 0.009261 0.675406 -0.142824 -0.684864 
1.279253 0.198536 -0.385520 0.631409 -0.183388 0.739805 
-1.228172 2.086534 -1.285550 -0.822069 0.360989 0.428791 
-1.614504 0.596896 -0.783244 -0.741975 -0.150408 0.643515 
-0.153282 0.894026 0.565744 -0.311621 -0.133111 0.921798 
-1.339188 1.587962 -0.968114 0.813660 -0.342942 -0.453524 
0.009420 1.262095 0.447093 0.101318 0.782023 0.611783 
-0.997610 0.923831 -0.083423 -0.853401 0.006416 0.474666 
-0.830928 2.064236 -0.404065 0.698805 -0.571805 -0.387813 
1.690084 1.085137 -0.159959 -0.152052 -0.519166 0.825521 
1.567421 2.443206 0.296593 -0.295936 0.576919 -0.749895 
-0.729286 -0.871129 -0.073096 0.380626 -0.266097 -0.883895 
-0.571865 0.609354 0.353236 -0.066501 -0.126185 0.924954 
0.100185 -0.097480 -0.135944 0.517275 -0.101572 -0.830373 
-0.481732 -0.652602 0.059939 -0.621411 -0.024764 0.769995 
1.341420 0.855638 -0.240917 -0.350420 0.330990 -0.855986 
0.016223 1.111361 0.580877 0.038464 0.375581 0.904753 
-1.211934 0.426151 -0.397318 -0.739613 -0.168256 0.648918 
-0.404303 0.551237 0.258095 -0.505403 0.477458 -0.648137 
1.013121 0.183556 -0.154102 -0.508872 0.155876 -0.820334 
1.114794 1.505019 0.113300 0.336894 -0.448898 0.729955 
1.492337 1.103835 -0.159585 -0.164683 0.264657 -0.910499 
0.654605 0.416661 0.271834 0.644205 -0.291713 0.687582 
1.509922 0.800480 -0.408008 -0.294656 0.456892 -0.829500 
0.318781 -0.908156 0.097888 -0.119242 -0.165026 -0.973240 
-1.286050 0.008471 -0.610811 0.617049 0.147454 -0.702263 
1.495120 1.848228 0.096756 -0.284531 0.233955 -0.920761 
-1.077222 0.105531 -0.357950 -0.700353 -0.174257 0.671237 
-0.069897 -0.577604 0.018637 -0.112112 -0.367919 -0.918669 
-1.030819 1.679617 -0.423198 0.885284 -0.191242 -0.404218 
-0.882017 0.267500 -0.098328 -0.712078 -0.215618 0.659626 
-1.192493 2.378799 -1.421757 -0.800806 0.345921 0.477944 
0.654571 1.017804 0.282966 -0.880416 -0.004691 -0.459043 
-0.376976 -0.670421 0.154467 -0.604092 -0.079220 0.782698 
2.159428 1.577559 -0.132483 0.130538 -0.317451 0.936544 
1.074669 0.876840 -0.050708 -0.396719 0.237259 -0.872710 
-0.971649 1.561096 0.023900 0.689849 -0.199692 -0.673440 
-1.378968 1.711884 -1.197769 -0.760435 0.512315 0.339417 
1.659464 1.498312 -0.053540 0.395083 -0.019642 0.883296 
1.600165 0.973933 -0.189513 -0.017055 0.292860 -0.887131 
1.046947 -0.437505 -0.249572 -0.423554 -0.070497 -0.859964 
1.356099 0.677748 -0.298819 0.451629 -0.348289 0.790166 
2.591429 2.475585 0.248856 0.017098 0.438992 -0.897444 
-0.660746 0.412636 0.217749 -0.705232 -0.317953 0.612398 
0.832363 1.043145 0.191448 0.751962 -0.050961 0.618106 
-0.736148 2.507405 -0.744795 -0.832165 0.380939 0.397495 
0.531369 -0.202930 0.084067 0.641885 -0.159966 0.746352 
0.823398 1.198914 0.166606 -0.296429 0.204402 -0.925827 
-0.234290 -0.198963 0.346757 -0.448346 -0.189529 0.828471 
1.705450 2.375861 0.233449 -0.166486 0.383601 -0.904959 
2.200291 1.316897 -0.202342 0.146175 -0.268575 0.948727 
-0.858477 0.883707 0.090467 -0.882752 -0.063064 0.440682 
1.186835 -0.227030 -0.349743 -0.475233 0.004545 -0.827574 
0.333353 0.005817 0.072599 0.421569 0.045134 -0.879455 
-0.219664 0.971603 0.162925 -0.679237 0.384625 -0.603215 
2.272020 2.308476 0.160419 -0.033456 0.391227 -0.918611 
-0.323298 0.848256 0.357202 -0.888818 0.367606 0.122175 
0.766034 1.995002 0.415467 0.092317 0.153691 0.940675 
0.690839 -0.493115 -0.004832 0.539631 -0.045475 0.826334 
-0.424034 0.196639 0.351966 -0.492381 -0.323813 0.799306 
-0.776675 0.325414 -0.111553 0.283474 0.178801 -0.792673 
-0.026225 -0.772185 0.103007 -0.281475 -0.330569 -0.899271 
2.262068 1.767141 -0.057081 0.077961 -0.398492 0.906706 
0.216220 1.053396 0.219649 0.741634 0.389266 -0.477375 
1.669287 0.899481 -0.206619 0.070259 0.304924 -0.873976 
0.759488 0.709003 0.107202 -0.566600 0.270363 -0.730138 
-1.035658 2.531511 -1.256968 0.833834 -0.247565 -0.487928 
-0.719514 1.619047 0.360238 0.955397 -0.012774 0.096573 
0.771247 1.907867 0.342953 -0.180379 0.362448 -0.910132 
0.818647 0.855424 0.104565 -0.419276 0.197486 -0.880807 
0.189565 1.214837 0.607316 -0.492365 0.630429 0.538309 
-1.219802 0.541231 -0.387707 -0.750584 -0.102427 0.633222 
0.689045 0.780077 0.230141 -0.820392 0.174544 -0.496770 
-0.726153 0.120784 0.001473 -0.699721 -0.216432 0.669787 
-0.788139 2.765977 -1.002424 -0.880947 0.180521 0.425890 
2.066020 0.840434 -0.283784 -0.051579 0.260029 -0.931528 
-0.357319 0.692130 0.179316 -0.850018 0.351678 -0.314688 
1.702773 2.483949 0.288863 -0.238660 0.642177 -0.703664 
0.367413 0.274164 0.093385 0.408643 0.159888 -0.880321 
0.111956 0.517340 -0.109395 0.562445 0.225958 -0.775016 
-0.768382 1.077239 0.162154 0.563935 0.139428 -0.800858 
-0.799369 2.667760 -0.968571 -0.859680 0.249384 0.429667 
-1.439023 0.458715 -0.660472 -0.737887 -0.210534 0.632174 
0.929106 0.381934 0.004252 0.627247 -0.264165 0.727330 
0.885080 0.994934 0.142887 0.720026 -0.078369 0.641705 
-0.878998 1.984574 -0.381513 -0.861383 0.433726 0.206404 
-1.055426 -0.362464 -0.385115 0.516143 -0.034256 -0.779297 
-0.611215 2.644393 -0.580243 -0.620684 0.590434 0.495325 
-1.124531 2.491313 -1.377658 -0.800493 0.331137 0.487054 
1.501425 2.410841 0.297812 0.175724 -0.178768 0.965528 
0.849295 -0.700951 -0.116370 -0.349988 -0.150942 -0.903127 
-0.998813 0.844623 -0.097644 -0.839177 -0.022053 0.496973 
-1.126807 1.408268 -0.160767 -0.882397 0.181152 0.389508 
-0.873861 0.512305 0.002739 -0.798996 -0.199123 0.561902 
1.565026 1.870391 0.077625 -0.261913 0.203836 -0.934042 
-1.496989 1.176782 -0.683445 0.802452 -0.334153 -0.484298 
1.286906 1.764284 0.141589 -0.236131 0.314850 -0.899197 
-0.602415 0.204413 -0.025875 0.022433 0.152333 -0.842383 
0.854115 0.011269 -0.088615 -0.354492 0.109112 -0.847598 
-0.018126 0.711766 -0.076582 -0.330721 0.436126 -0.826116 
0.134498 -0.794557 0.247496 0.180833 -0.164458 0.961182 
1.121356 0.355750 -0.179231 0.641815 -0.195388 0.737276 
-0.795734 1.924286 0.040599 -0.918231 0.339735 0.010309 
-0.079156 0.383025 -0.161891 -0.584363 0.141266 -0.777692 
0.422477 -0.649525 0.076601 0.013418 -0.052031 -0.939056 
1.642055 1.271203 -0.120392 -0.254207 0.069109 -0.951085 
0.162197 -0.995198 0.192963 0.163457 -0.039217 0.982133 
0.061596 0.048955 0.416601 0.115003 -0.213617 0.967564 
1.469997 0.193648 -0.551191 -0.579928 0.152401 -0.762423 
-1.230054 0.778145 -0.412916 0.733815 -0.028163 -0.631889 
-1.099095 1.669731 -0.438077 -0.884910 0.293815 0.344055 
0.048896 0.646732 -0.095168 0.414504 0.341241 -0.826473 
-1.540003 0.530938 -0.740372 0.716587 0.174442 -0.665386 
0.587485 0.406667 0.089007 -0.010805 0.203525 -0.893485 
0.724371 0.856053 0.150556 -0.605921 0.166891 -0.736669 
0.294744 -0.159664 0.030542 0.492509 -0.056470 -0.839728 
-1.367291 0.452635 -0.590205 0.701580 0.187801 -0.679684 
-1.238937 0.182900 -0.551855 0.642362 0.217431 -0.696676 
0.515349 0.587151 0.425267 -0.010868 -0.175946 0.921291 
0.019043 1.194749 0.520269 -0.037909 0.677288 0.722038 
0.187280 0.559113 -0.056815 0.583751 0.219945 -0.746555 
0.819389 0.306298 -0.069452 -0.202752 0.181051 -0.842355 
0.267503 -0.614337 0.055409 -0.018014 -0.268247 -0.916626 
-0.386061 -0.066854 0.271820 -0.560069 -0.235346 0.778569 
0.935019 0.714031 -0.006285 -0.476766 0.199515 -0.847414 
-0.477472 0.343348 0.097176 -0.116381 0.217086 -0.876417 
0.181444 -0.158962 0.372423 0.285553 -0.167248 0.916323 
0.959744 1.077808 0.070240 -0.324582 0.231038 -0.913319 
-0.965543 2.168730 -0.871698 -0.877170 0.249541 0.386651 
-1.108203 0.829825 -0.241769 -0.807963 0.015640 0.536515 
-0.003727 0.266426 -0.242945 -0.536930 0.060189 -0.840867 
-0.766680 0.490977 0.117288 -0.767811 -0.249734 0.572893 
-0.541675 0.376667 0.076797 0.002246 0.218941 -0.861323 
-1.212076 2.031251 -1.223863 0.764825 -0.458276 -0.433200 
-0.139362 -0.495481 -0.002341 -0.307044 -0.407917 -0.851147 
0.885291 1.844924 0.305463 -0.039127 0.160738 -0.965313 
-0.236219 1.105855 0.634769 -0.522767 0.570730 -0.625123 
1.764467 0.779168 -0.242281 -0.233006 -0.463348 0.829545 
-0.167769 -0.052986 -0.101699 -0.600132 -0.060416 -0.782096 
1.664404 1.741575 -0.004317 -0.221165 0.323619 -0.917320 
-0.990536 1.875257 -0.591125 0.847386 -0.393456 -0.327720 
-0.135326 1.242662 0.426658 -0.416852 0.816019 0.263289 
-1.049834 0.847981 -0.163226 -0.826420 -0.000724 0.512577 
-0.035659 0.112152 -0.201237 -0.524480 -0.012325 -0.836671 
1.203880 0.893873 -0.124878 -0.376223 0.263586 -0.872156 
-0.883011 2.721591 -1.131263 -0.852888 0.228104 0.457600 
-1.125092 0.636866 -0.330315 0.712502 0.033648 -0.659122 
-0.546351 0.690709 0.382830 0.449526 0.521751 -0.554628 
1.322083 0.040561 -0.461736 0.598634 -0.141900 0.756843 
-1.048667 1.759404 -0.480502 -0.754993 0.612606 0.212666 
-0.697966 2.722443 -0.839777 -0.898614 0.175055 0.391391 
0.634087 1.865628 0.450271 0.060827 -0.416474 0.899518 
0.879785 -0.257501 -0.120673 0.569288 -0.090733 0.798464 
1.847909 1.389257 -0.121002 0.367608 0.001220 0.886123 
0.360902 0.349939 0.105954 0.468987 0.213163 -0.821909 
1.305813 -0.049106 -0.434638 0.541790 -0.071519 0.784369 
-1.136775 1.717353 -0.657467 -0.673223 0.684698 0.171796 
-1.265828 1.095720 -0.403533 -0.813420 0.174905 0.514020 
-1.197711 1.182266 -0.301425 -0.846437 0.179691 0.468000 
-1.376027 1.337454 -0.661033 0.751458 -0.463119 -0.396092 
-0.800541 1.237455 0.159490 0.591956 0.047400 -0.775443 
-0.640910 0.276806 0.183969 -0.652613 -0.335809 0.668444 
0.091047 0.842300 0.574452 0.228127 -0.167771 0.951919 
1.399095 1.501533 -0.016920 -0.154927 0.426972 -0.885110 
0.947614 0.149342 -0.100840 0.631862 -0.168303 0.749463 
-1.296762 1.527785 -0.762573 -0.857495 0.183131 0.475202 
0.254334 0.051447 -0.055673 0.659415 -0.041567 -0.734905 
-1.129230 1.333495 -0.221665 0.729111 -0.186140 -0.612524 
-0.641929 2.579441 -0.615002 0.843960 -0.359344 -0.387041 
-0.897777 0.807144 0.027299 -0.859026 -0.075557 0.474603 
-0.046352 -1.215152 0.247226 -0.112341 -0.419302 -0.894837 
0.520072 0.510229 0.167072 0.166328 0.376182 -0.777722 
1.081267 0.555378 -0.103657 0.671075 -0.177673 0.707842 
-1.046874 1.925799 -0.815877 0.818111 -0.446336 -0.360529 
-0.056349 0.816817 -0.009777 -0.438486 0.420868 -0.782480 
-0.886917 -0.169772 -0.205738 -0.661325 -0.103156 0.717301 
0.299909 -0.824242 0.088966 -0.129436 -0.208071 -0.962848 
-1.083438 2.079162 -1.022349 -0.852590 0.309174 0.396434 
1.137735 -0.019791 -0.323274 -0.480308 0.123206 -0.818432 
0.131999 -1.149421 0.219676 0.258603 0.157561 0.948021 
-0.169841 -0.104637 0.384048 -0.256477 -0.180254 0.927953 
0.579255 0.600038 0.364806 0.068534 -0.105283 0.926129 
-1.117533 1.760715 -0.744191 0.828202 -0.353137 -0.416934 
-0.724808 1.430215 0.259892 0.734412 0.176850 -0.636537 
0.069033 -0.075878 0.400924 0.130274 -0.164724 0.972754 
-0.845912 2.610183 -1.009153 -0.833497 0.310611 0.448431 
1.848029 2.310399 0.183644 0.144087 -0.372204 0.914849 
-1.060240 1.749384 -0.587477 0.867772 -0.251920 -0.399787 
-0.885296 -0.239150 -0.226103 -0.650896 -0.099960 0.723837 
0.800531 -0.579030 -0.127450 0.520277 -0.023753 0.833064 
-0.001852 1.261804 0.181736 -0.705831 0.184369 -0.668480 
-0.797876 2.232301 -0.590216 0.892402 -0.318173 -0.313731 
0.318873 0.659596 -0.005770 0.708754 0.250933 -0.658805 
-0.848808 0.274345 -0.163823 0.394881 0.157267 -0.772879 
0.745679 1.712046 0.284836 -0.133946 0.182063 -0.969969 
-0.160505 0.118458 0.424617 -0.192257 -0.248250 0.947688 
0.383932 0.372452 0.176325 0.430116 0.314157 -0.813836 
-1.026098 0.600971 -0.218266 0.669217 0.109718 -0.708606 
-0.766230 0.409918 0.093288 -0.719588 -0.277244 0.618366 
-0.859661 2.858362 -1.155560 0.815323 -0.261121 -0.513097 
1.734099 1.680623 -0.036800 -0.186852 0.326432 -0.922675 
0.505754 0.612981 0.325749 -0.157659 0.597595 -0.564857 
2.081828 1.446787 -0.151620 0.216060 -0.187384 0.923907 
1.488637 0.649628 -0.433750 0.393581 -0.441912 0.785715 
-1.158107 1.469121 -0.328498 0.727488 -0.398506 -0.456262 
2.248025 2.487074 0.242393 -0.022770 0.407932 -0.911267 
-0.511920 0.629987 0.394279 0.257257 0.745643 -0.501954 
-0.887090 2.918074 -1.212548 -0.846911 0.201055 0.483921 
-0.032339 0.955834 0.055189 -0.390312 0.488101 -0.769668 
1.109097 0.951995 -0.022498 0.540804 -0.196515 0.755484 
0.019048 0.876006 0.589085 0.142480 -0.144339 0.968009 
1.454319 0.936311 -0.308857 -0.270478 0.403353 -0.862825 
0.524662 -1.078562 0.073104 0.569178 0.251513 0.743380 
1.581145 1.950515 0.098541 -0.255907 0.121601 -0.953033 
-0.865687 1.824906 -0.000520 -0.876185 0.415675 0.025409 
0.569113 -0.837054 0.017594 0.497678 0.013729 0.861220 
-1.333557 1.746064 -1.144894 -0.738240 0.541401 0.313393 
-0.663123 0.757930 0.277655 -0.656550 -0.110468 0.728646 
-0.141350 0.656799 -0.064325 -0.517206 0.301727 -0.772154 
-0.433631 -0.003613 0.252655 -0.594587 -0.262153 0.740394 
2.444234 1.876291 -0.012772 0.048372 -0.361636 0.928461 
-1.138149 1.988145 -1.053905 0.766027 -0.483267 -0.404300 
0.954576 -0.575199 -0.183723 0.404850 0.111242 0.874611 
2.508385 2.475888 0.246050 0.007360 0.431159 -0.900947 
-1.046682 1.069709 -0.123697 -0.866180 0.079056 0.450203 
1.148955 0.498407 -0.193586 -0.545484 0.224346 -0.799998 
-0.619062 2.678578 -0.643751 0.949309 -0.074790 -0.235760 
-0.056056 0.452385 -0.156064 -0.554944 0.204998 -0.787856 
-0.516564 -1.106582 0.065889 0.425626 -0.163042 -0.885164 
-0.185880 1.151484 0.602914 -0.830576 0.053407 -0.428397 
-0.963711 0.352432 -0.147031 -0.719561 -0.216622 0.652413 
-0.865121 1.725927 -0.005130 0.782199 -0.176307 -0.549102 
0.872132 1.765347 0.305312 0.630867 -0.296984 0.675524 
-1.411148 1.477602 -0.970486 0.721335 -0.604872 -0.303550 
1.035178 -0.367581 -0.261895 0.503476 -0.013088 0.822836 
0.050266 0.127683 -0.198247 0.532266 0.005723 -0.838612 
1.423151 1.937821 0.160790 0.346237 -0.340115 0.853811 
-0.878492 1.860343 -0.182136 0.768237 -0.416608 -0.412553 
1.122617 1.058895 -0.004775 0.500566 -0.204781 0.771479 
0.879918 1.077215 0.117407 -0.333665 0.214886 -0.914556 
-1.189580 0.135950 -0.506189 0.624807 0.199456 -0.710541 
1.487069 0.482233 -0.504708 0.619680 -0.273126 0.719600 
1.210039 2.178240 0.329656 0.380468 -0.259869 0.862817 
-0.089917 0.983688 0.092681 -0.479960 0.445976 -0.736907 
-1.381505 0.520796 -0.560954 0.703028 0.137674 -0.692897 
-0.950840 2.802431 -1.273096 0.813979 -0.259843 -0.517594 
0.150039 1.081377 0.425718 0.626155 0.413042 0.431996 
-0.826719 -0.258398 -0.183663 0.481960 0.063711 -0.817026 
1.878023 1.229146 -0.171823 -0.069496 0.353296 -0.923688 
-0.385951 -0.288192 0.047109 -0.241342 0.014514 -0.909216 
-1.090315 0.291398 -0.347239 0.659520 0.181555 -0.715321 
-0.704486 2.369102 -0.429780 -0.827893 0.445612 0.295284 
0.835721 0.736315 0.074552 -0.440746 0.214813 -0.867906 
1.829411 0.753640 -0.261163 0.148202 0.358875 -0.867321 
-0.362261 0.359126 0.165064 -0.450382 0.275269 -0.821370 
-1.152264 0.274471 -0.398458 -0.724837 -0.204626 0.647539 
-0.628191 0.284035 -0.031981 0.051278 0.175383 -0.834228 
0.947992 0.649518 0.026179 0.730662 -0.127326 0.660569 
-0.740037 2.011380 0.117856 -0.807122 0.554078 0.108808 
0.201527 0.476060 0.531136 0.192640 -0.233558 0.951207 
1.038451 1.280155 0.051223 -0.242813 0.249330 -0.930385 
-0.434770 0.495122 0.442439 -0.358595 -0.075055 0.893453 
0.369832 0.685956 0.423452 0.822842 0.328104 0.323539 
2.120541 1.748531 -0.061436 0.097967 -0.410703 0.897201 
-0.679729 0.186842 0.090622 -0.677295 -0.271925 0.669608 
0.158903 0.650582 -0.058884 0.534708 0.303286 -0.758237 
-0.375150 0.283978 0.412627 -0.362673 -0.271436 0.882781 
-0.627984 2.707778 -0.711780 0.920024 -0.153350 -0.342764 
2.282394 2.080072 0.071382 0.070072 -0.271640 0.946145 
-1.607460 1.224199 -1.020835 0.770572 -0.475318 -0.389633 
-0.924468 1.693648 0.070647 -0.946710 0.103818 0.275680 
2.004700 0.785958 -0.284623 0.030778 0.305723 -0.907545 
-1.164770 2.047743 -1.151284 -0.838915 0.334429 0.409780 
-0.419294 -0.846927 0.088551 0.158903 -0.084406 -0.950856 
2.181476 2.151891 0.102324 0.084145 -0.272416 0.944854 
0.093319 -0.397207 -0.083458 0.424584 -0.297684 -0.840657 
0.777276 0.590169 0.228461 0.683322 -0.099189 0.682187 
-0.139958 -0.430253 0.356926 -0.155756 -0.182233 0.966643 
1.323614 1.475371 0.033570 0.059916 -0.639566 0.746612 
-1.457736 1.159600 -0.614408 0.797366 -0.259286 -0.525319 
2.341123 2.543577 0.274091 -0.009610 0.424110 -0.903643 
-0.162278 -0.703416 0.260018 -0.205543 -0.235054 0.946045 
2.048475 1.740069 -0.057561 0.117168 -0.399014 0.899091 
-0.120675 1.258698 0.299804 -0.724839 0.602635 -0.030279 
-0.708164 2.309329 -0.333129 -0.824609 0.464869 0.262625 
-1.093910 1.776863 -0.645748 -0.721776 0.621311 0.219975 
-1.006237 1.492463 -0.034289 0.696659 -0.188151 -0.661242 
1.737165 1.759403 -0.013989 -0.212410 0.285253 -0.930170 
1.578297 1.480713 -0.052107 -0.074491 0.457905 -0.876017 
0.364428 -0.344567 0.065616 0.314048 -0.009730 -0.908957 
0.197802 1.133950 0.256538 0.776625 0.462458 -0.354274 
0.327808 0.365327 0.028056 0.570283 0.126943 -0.780286 
0.731637 1.221398 0.302543 0.656261 -0.056611 0.727559 
-0.097228 0.059414 -0.160236 -0.567796 -0.016236 -0.811598 
2.003943 2.384188 0.200461 0.102130 -0.475098 0.864935 
1.578991 1.181281 -0.132403 -0.038880 -0.495567 0.839584 
-0.691739 1.004741 0.255177 0.943595 0.042461 -0.307659 
-1.078923 1.929442 -0.882557 0.813293 -0.446654 -0.369780 
1.050753 0.996425 -0.005756 -0.349191 0.242152 -0.895596 
-0.178950 -0.029557 0.390114 -0.274722 -0.215275 0.911912 
1.579587 1.792448 0.058043 0.274365 -0.293170 0.914506 
-1.556696 1.364219 -1.106836 -0.811469 0.395306 0.399615 
1.376540 0.075602 -0.489809 -0.545039 0.119279 -0.782333 
0.227456 0.864467 0.097715 0.619243 0.471752 -0.622307 
1.171507 2.010893 0.256973 -0.156155 0.443579 -0.876919 
0.623266 0.219767 0.218575 0.603133 -0.308496 0.727812 
0.695452 1.766581 0.324243 -0.126821 0.167549 -0.973936 
0.609468 -0.710468 0.015079 0.512295 -0.007232 0.849159 
0.978559 1.317581 0.091281 -0.236198 0.237374 -0.934350 
0.201521 0.110238 -0.096417 0.633588 -0.015731 -0.757072 
0.944713 1.703256 0.202549 -0.082692 0.462420 -0.875480 
-0.834584 0.834986 0.042695 0.585946 0.173992 -0.784801 
0.180884 -0.957858 0.132359 -0.157848 -0.298124 -0.931306 
-0.230025 -0.778622 0.083828 0.010093 -0.194951 -0.956312 
1.257715 0.446455 -0.288773 0.651805 -0.220855 0.723474 
-1.639361 1.103156 -0.908787 -0.825178 0.329508 0.451510 
0.035048 0.802709 -0.022982 0.416727 0.404963 -0.804671 
0.194934 0.999531 0.548555 0.538459 -0.118883 0.774037 
-0.045025 0.363126 0.520130 -0.053557 -0.298457 0.949887 
2.406318 2.293659 0.154172 0.031064 -0.444082 0.889843 
0.968508 0.857186 0.050486 0.685997 -0.121108 0.673929 
0.510321 -0.813235 0.063865 0.508416 0.005862 0.854778 
0.141970 1.160574 0.195135 0.572379 0.451032 -0.658832 
0.990355 -0.038236 -0.165970 0.596121 -0.129784 0.775138 
1.013064 0.601726 -0.083069 -0.517637 0.203901 -0.823596 
-0.636890 -0.012354 0.032037 -0.701031 -0.192175 0.677040 
2.186242 1.461986 -0.168522 -0.102781 0.299982 -0.946871 
-0.585070 0.340623 0.025649 0.030019 0.200755 -0.847800 
0.172136 0.313302 -0.125505 0.641456 0.068874 -0.748840 
-0.799578 1.150695 0.217787 -0.930399 -0.023678 0.352336 
1.334402 1.214959 -0.115575 -0.272170 0.275050 -0.916586 
0.565182 0.503518 0.440141 0.323120 -0.073554 0.937219 
-0.267224 -0.129615 -0.015504 -0.624717 -0.082405 -0.753189 
1.800175 2.257408 0.186105 0.166057 -0.359560 0.905078 
0.171599 -0.373697 0.353533 0.273415 -0.100100 0.947587 
-0.655145 -0.260520 -0.058960 0.280615 0.035740 -0.851533 
0.004081 -0.609787 0.025990 0.649539 -0.303209 -0.663149 
1.428383 0.142244 -0.524144 -0.564374 0.138526 -0.771199 
0.098008 -0.856855 0.245384 0.202762 -0.108205 0.961381 
0.137367 -0.626994 0.047516 0.102666 -0.270220 -0.951334 
0.107224 0.361744 -0.152023 0.588366 0.122258 -0.780328 
-0.882374 -0.441636 -0.284586 -0.617027 -0.085241 0.744378 
0.137614 1.241876 0.319257 0.717853 0.626758 -0.041276 
0.823170 0.246091 0.036113 0.628694 -0.245039 0.731416 
-0.773660 0.388548 -0.070664 0.336654 0.204642 -0.795542 
-0.801976 2.585164 -0.927249 0.815471 -0.340178 -0.465812 
-0.554102 0.605683 0.281415 0.245016 0.599316 -0.469366 
2.420752 1.792855 -0.051100 -0.055349 0.313852 -0.937902 
-1.388404 0.394056 -0.654509 0.703178 0.240307 -0.662046 
0.029760 0.454780 0.545463 0.050963 -0.267265 0.959793 
-0.260197 -0.255393 -0.007491 -0.587049 -0.117736 -0.783637 
1.401332 2.359182 0.313761 0.150756 -0.108116 0.966932 
1.530936 0.729101 -0.450874 -0.307866 0.478298 -0.812960 
0.189602 -0.712200 0.254255 0.218889 -0.234362 0.941584 
0.097219 -0.229019 -0.112891 0.476643 -0.187604 -0.834873 
-0.964680 2.415390 -1.069063 0.861488 -0.206750 -0.457929 
-0.892973 1.824682 -0.095740 -0.857916 0.446411 0.067841 
-1.445462 0.525243 -0.621159 -0.740985 -0.157866 0.645793 
0.361089 0.553048 0.166307 0.601276 0.402698 -0.668072 
-0.338253 -0.829966 0.087792 0.183094 -0.195612 -0.956127 
0.765299 -0.040162 -0.061747 -0.224877 0.089686 -0.857316 
-0.956537 1.819518 -0.378387 0.847835 -0.340604 -0.344366 
0.391884 -0.250685 0.205087 0.598427 -0.181051 0.769888 
-0.956968 2.600863 -1.174160 0.827040 -0.267709 -0.488257 
-0.774974 -0.518591 -0.192444 0.404435 0.029457 -0.851071 
-0.346437 0.646514 0.096960 -0.744270 0.273633 -0.560420 
-0.837539 0.196327 -0.166129 0.388317 0.133724 -0.776971 
-1.402292 0.224407 -0.731504 -0.714088 -0.282135 0.624758 
1.382873 0.965112 -0.229092 0.331509 -0.355335 0.858584 
-0.290570 -0.755578 0.204243 -0.408343 -0.135747 0.869732 
0.516398 0.088325 0.253692 0.603904 -0.291623 0.731659 
-0.972016 2.531468 -1.147119 -0.762396 0.403051 0.475978 
-0.702875 2.236955 -0.337913 0.842857 -0.388915 -0.358330 
-0.800167 2.182790 -0.468958 -0.787904 0.533004 0.276405 
0.950963 1.276139 0.142160 0.605435 -0.193993 0.699907 
-0.294283 0.749968 0.493519 -0.569464 0.303174 0.716208 
0.518614 0.024221 0.217419 0.612108 -0.263050 0.734866 
-0.621776 -0.840231 -0.036560 0.327967 -0.139507 -0.908327 
1.210072 1.172716 -0.063588 -0.261838 0.283590 -0.919005 
2.410090 1.690719 -0.094356 0.073717 -0.344847 0.933606 
0.777495 1.403751 0.220550 -0.228155 0.196869 -0.944221 
-0.332890 -0.353367 0.257967 -0.672653 -0.168291 0.717321 
-1.512628 0.750467 -0.637496 -0.759026 -0.032100 0.628750 
1.718482 1.531398 -0.073458 -0.110393 0.374544 -0.912714 
-1.205992 1.438786 -0.420033 0.736632 -0.445824 -0.401572 
-0.177978 -0.247003 0.362613 -0.293793 -0.131684 0.918315 
0.795200 0.599466 0.063993 -0.408307 0.258918 -0.854396 
1.423424 2.208574 0.232509 -0.209217 0.361016 -0.906343 
1.119067 2.062710 0.333773 0.424408 -0.241076 0.836713 
-0.331196 0.277446 0.064928 -0.509736 0.132190 -0.815480 
0.014910 -0.860208 0.262108 0.446503 -0.060331 0.882772 
1.374940 1.746700 0.115538 0.354791 -0.257690 0.888494 
-0.760104 2.234589 -0.504120 0.877916 -0.349802 -0.316692 
-0.226349 -0.579755 0.278100 -0.408954 -0.228659 0.864015 
-0.754390 2.161418 -0.178402 -0.813412 0.493930 0.206430 
1.051517 0.249793 -0.141146 0.628405 -0.175544 0.749399 
-1.543015 0.696664 -0.671820 0.725762 0.059508 -0.674315 
-1.281636 1.407588 -0.498166 -0.849403 0.240486 0.462709 
2.023306 0.894532 -0.263550 0.042225 -0.310439 0.913500 
-0.996577 2.350983 -1.072108 -0.722475 0.497604 0.455265 
-1.454260 1.403253 -0.933763 -0.833055 0.295482 0.438638 
-1.196232 1.543912 -0.533044 -0.876969 0.182973 0.437301 
-0.042479 1.062262 0.591437 0.051293 0.178063 0.945673 
-1.552072 1.180926 -0.833589 0.765734 -0.454961 -0.401845 
-0.070392 0.837287 0.575764 -0.199750 -0.184161 0.954512 
1.222163 1.560367 0.065567 -0.309323 0.183763 -0.905628 
0.372992 -0.116531 0.292533 0.542151 -0.233071 0.793363 
1.736855 1.908689 0.046171 -0.215349 0.135910 -0.956569 
0.794616 0.155518 -0.076841 -0.178773 0.132240 -0.841114 
1.003349 2.126228 0.358121 -0.343917 0.556279 -0.704962 
0.067389 -0.663034 0.296637 0.283114 -0.214600 0.927247 
-0.992249 1.777113 -0.427043 0.874367 -0.273488 -0.351861 
0.784197 0.838078 0.223723 0.569078 -0.055353 0.788338 
-0.262232 1.021946 0.411829 -0.912750 0.365174 0.154602 
-0.638237 0.120941 0.102656 -0.678590 -0.258629 0.673097 
-0.277825 -0.380650 0.040372 -0.459678 -0.080206 -0.869949 
-0.695542 1.929765 0.317642 0.962386 -0.025002 0.075349 
-0.092375 -1.160081 0.227249 -0.360272 0.016433 0.883165 
0.082732 0.452646 -0.140152 0.558007 0.206496 -0.784927 
-1.415602 1.188628 -0.543475 -0.812492 0.221020 0.515580 
-1.251970 1.476730 -0.603526 0.704960 -0.579734 -0.308881 
1.095213 -0.073426 -0.282127 0.596381 -0.131788 0.771544 
-0.679485 1.242629 0.333834 0.906742 0.052150 -0.247916 
-0.884637 2.080088 -0.580415 -0.856676 0.427279 0.283717 
-1.270082 1.851884 -1.160443 0.804543 -0.394954 -0.437874 
-0.151864 1.076398 0.604520 0.089766 -0.031952 0.915403 
0.564168 0.574965 0.172122 0.095923 0.417481 -0.747962 
-0.224320 -0.310404 -0.040010 -0.591469 -0.147346 -0.786801 
-0.320903 0.413289 0.481596 -0.243778 -0.246917 0.935515 
1.238278 0.587833 -0.241632 -0.478828 0.280592 -0.810310 
-1.233369 1.954892 -1.202913 -0.818439 0.395862 0.405928 
2.097045 2.190836 0.119053 0.096794 -0.300454 0.937494 
-0.095960 -0.057007 -0.144613 -0.536887 -0.073056 -0.823648 
-0.732286 1.188804 0.210435 0.668033 0.169812 -0.699628 
-0.819025 0.496879 0.059980 -0.780360 -0.226539 0.570058 
-1.014153 1.967348 -0.758849 -0.821169 0.446340 0.343888 
-1.177711 2.303269 -1.349220 0.767315 -0.403988 -0.468171 
0.249438 0.922586 0.489501 0.766621 0.046268 0.597822 
-1.396289 1.553612 -1.019009 -0.666562 0.663297 0.210905 
-0.970358 2.865256 -1.323187 -0.826846 0.234460 0.507554 
-1.001597 1.002287 -0.130795 0.659137 0.016497 -0.694443 
0.697096 -0.635144 -0.050458 0.523362 -0.023997 0.838175 
0.346404 0.781204 0.383009 0.897665 0.345925 0.200789 
-1.023486 0.126348 -0.283122 -0.704178 -0.157987 0.675211 
0.394839 0.659141 0.337853 0.699472 0.652565 -0.085784 
-0.873374 0.390819 -0.135793 0.477813 0.197346 -0.767178 
-0.804609 1.662926 0.335451 -0.857461 0.000523 0.428650 
1.983076 2.557519 0.285735 0.020878 -0.125007 0.969905 
-0.866380 -0.635530 -0.210821 -0.466222 0.140801 0.823354 
-0.719261 2.766520 -0.895111 -0.899591 0.156737 0.400327 
-0.330551 0.554343 0.076247 -0.672535 0.257899 -0.668495 
-0.518424 0.127271 0.243861 -0.648749 -0.319214 0.677428 
-0.393901 -0.441870 0.120168 -0.681532 -0.115973 0.717782 
-0.544559 -0.827930 -0.003467 0.297214 -0.061045 -0.924138 
-0.711250 0.107705 -0.101501 0.204804 0.114747 -0.813240 
-0.675925 0.096623 0.046150 -0.691790 -0.228332 0.672386 
0.358223 -0.041829 0.336271 0.500747 -0.258405 0.811284 
0.217487 0.789990 0.045406 0.573893 0.512555 -0.614750 
0.137624 -0.659139 0.279296 0.203229 -0.255074 0.943244 
-0.870108 2.018021 -0.448663 0.756692 -0.539107 -0.327865 
1.377346 0.522738 -0.373487 0.528928 -0.336354 0.748836 
-1.308847 0.978944 -0.472003 0.762675 -0.124618 -0.588963 
1.696078 1.813103 0.014423 -0.223095 0.243667 -0.936035 
-0.725584 0.349393 0.120873 -0.676617 -0.314115 0.651953 
-0.617154 -0.305188 -0.013083 -0.676116 -0.091486 0.717983 
1.410100 0.218797 -0.517198 -0.564866 0.185643 -0.767790 
-1.377051 0.792200 -0.518077 -0.770228 0.009205 0.600391 
-1.177309 1.095248 -0.325418 0.736013 -0.126515 -0.604727 
-0.549529 0.542638 0.153688 -0.072303 0.405190 -0.736784 
1.797910 1.713423 -0.038268 -0.198453 0.302518 -0.929820 
1.121999 1.901017 0.241969 -0.114295 0.127716 -0.964973 
0.550963 -0.043557 0.010012 0.116413 0.076174 -0.879848 
1.344694 0.783437 -0.268456 -0.371573 0.339727 -0.840874 
0.593982 -0.464982 0.017532 -0.182516 -0.000676 -0.911116 
-0.833539 2.384243 -0.827721 -0.764623 0.474441 0.414260 
-0.556050 0.290640 0.289043 -0.629880 -0.383426 0.671239 
-1.423462 0.598837 -0.576469 0.710841 0.095079 -0.689344 
0.277267 0.606969 0.535133 0.422722 -0.092856 0.865384 
-0.248749 -0.816392 0.208028 -0.223917 -0.180195 0.947620 
-0.938937 1.504667 0.051071 0.671661 -0.154950 -0.692599 
-1.501425 1.250667 -0.828671 0.742470 -0.514687 -0.361001 
0.263908 -1.179946 0.166537 -0.383819 -0.236704 -0.869278 
0.700751 1.967138 0.416005 -0.431558 0.712690 -0.497432 
-0.989615 0.699470 -0.160702 0.653437 0.107234 -0.719649 
-1.364002 0.281565 -0.673022 0.681157 0.261496 -0.663419 
0.459857 0.519079 0.206373 0.335824 0.431559 -0.730739 
0.831173 1.460351 0.244097 0.675575 -0.212865 0.652761 
-0.769384 2.332735 -0.548962 -0.815283 0.442512 0.323418 
-0.838856 1.974215 -0.260934 0.714563 -0.508512 -0.418272 
-1.024074 2.230191 -1.034435 -0.876935 0.222155 0.414719 
-0.484402 -0.050259 0.014730 -0.125005 0.081041 -0.878374 
0.688702 0.709060 0.248800 0.399988 0.011757 0.868841 
-1.190250 1.877227 -1.016768 -0.773841 0.498011 0.337865 
1.946190 2.329888 0.177684 0.115131 -0.417558 0.896207 
2.465123 1.741798 -0.073537 0.058311 -0.358787 0.929549 
0.279809 0.157680 0.400563 0.303837 -0.283232 0.898940 
-1.064172 2.176475 -1.066577 -0.866095 0.254494 0.413010 
-0.693195 0.528448 0.051741 0.362520 0.325176 -0.803559 
-0.272290 -1.240045 0.168705 0.391946 -0.231442 0.466952 
-0.513693 0.523914 0.461423 -0.274223 -0.124537 0.904297 
-1.269875 0.087697 -0.607867 -0.695195 -0.234780 0.651783 
-0.649437 0.077555 -0.068344 0.113131 0.109581 -0.830831 
-0.388489 -0.402934 0.057274 -0.167768 -0.006060 -0.918652 
-1.704517 1.015343 -0.926458 0.805933 -0.366025 -0.462848 
0.748069 1.139010 0.260164 0.806820 -0.047618 0.582064 
-1.494827 0.559074 -0.659290 -0.741893 -0.145091 0.647901 
-0.673291 2.513011 -0.597356 -0.842117 0.397180 0.351145 
-0.523026 -0.711712 0.037598 -0.597208 0.001302 0.790099 
0.767937 0.305889 0.122200 0.613382 -0.291600 0.727121 
-0.718524 0.855195 0.136070 0.739449 0.184652 -0.598321 
0.542192 0.220658 0.298728 0.591343 -0.339238 0.725781 
-0.018895 -0.133156 0.395329 -0.082297 -0.133527 0.983276 
-0.583616 -0.694148 0.004865 -0.587531 0.010220 0.796871 
1.860965 0.690899 -0.279753 0.192620 0.392345 -0.858821 
-0.719968 2.246321 -0.249276 -0.820492 0.481198 0.233455 
0.014175 -0.032194 0.408869 0.080894 -0.173689 0.978226 
0.294881 -1.058111 0.138190 -0.344160 -0.217828 -0.904414 
-0.705375 2.395070 -0.586026 0.836969 -0.411624 -0.355187 
0.314175 0.496749 0.500011 0.239885 -0.204252 0.947933 
1.465390 1.017444 -0.176119 0.100603 -0.376674 0.876040 
-0.971717 1.242459 -0.049344 0.659026 -0.053577 -0.693425 
-1.103118 0.654580 -0.263193 -0.778520 -0.050400 0.583358 
-0.820948 2.825230 -1.075324 -0.869243 0.186543 0.446361 
-1.365405 1.533272 -0.923351 -0.620756 0.731718 0.151660 
-1.243338 2.319636 -1.468624 -0.818570 0.322890 0.472622 
1.988506 1.960078 0.027574 -0.156282 0.049607 -0.979143 
0.171168 -0.404784 -0.049728 0.499645 -0.245936 -0.818303 
1.040193 1.851435 0.254590 -0.105866 0.175114 -0.953985 
-1.126941 2.422116 -1.341517 0.828778 -0.272729 -0.483231 
0.955956 0.048366 -0.105268 0.603811 -0.139941 0.770598 
0.094763 -1.012542 0.210080 0.201589 -0.006568 0.973119 
-0.043297 -0.436898 0.358656 -0.061863 -0.219226 0.972454 
1.104795 -0.336852 -0.294339 -0.444705 -0.029202 -0.845526 
-0.222742 -1.093908 0.184086 -0.212067 0.067438 0.964163 
-0.162430 -0.625926 0.285975 -0.244452 -0.286968 0.925527 
0.613495 1.840640 0.361771 -0.707785 0.356203 -0.554910 
-0.711448 0.925712 0.159112 0.774489 0.140476 -0.580649 
1.159565 0.173256 -0.294044 -0.524514 0.162291 -0.802537 
0.027918 0.508098 -0.158162 0.511108 0.264413 -0.810057 
-0.987494 2.461283 -1.126409 -0.743378 0.443067 0.469721 
0.438038 0.060789 0.074694 0.262306 0.115119 -0.905599 
-0.321986 0.606426 0.522380 -0.475596 -0.076701 0.850142 
-0.760813 2.614043 -0.877082 -0.855414 0.283320 0.417854 
-0.298581 -0.119329 0.339026 -0.505031 -0.227364 0.802431 
-0.834612 2.172442 -0.580392 -0.744103 0.582263 0.325431 
0.770592 1.076441 0.181411 -0.346380 0.192421 -0.915772 
1.345279 0.582022 -0.337759 -0.434284 0.357958 -0.799487 
1.365459 1.558095 0.069895 0.413831 -0.120721 0.898288 
-0.282902 0.395109 -0.039551 -0.745230 0.056873 -0.661843 
-1.036396 2.393116 -1.166223 -0.746416 0.446648 0.464944 
0.369937 -0.420478 0.070619 0.255563 -0.021374 -0.916871 
2.205770 2.427572 0.218075 0.063849 -0.521632 0.842634 
-0.845292 0.725557 0.079438 -0.855339 -0.129624 0.484116 
0.540892 -0.436910 0.055172 0.596046 -0.088573 0.787278 
-0.379903 0.567415 0.492188 -0.478069 -0.076955 0.849579 
0.068872 1.184852 0.181953 0.474259 0.308598 -0.809503 
-0.815387 2.485648 -0.881922 -0.799213 0.401492 0.431926 
-1.079442 2.507236 -1.311295 -0.787374 0.353728 0.484937 
0.531824 -0.140006 0.117088 0.634211 -0.187029 0.743268 
-0.843176 2.931122 -1.156350 0.817118 -0.245846 -0.516827 
0.492783 -0.002488 0.041760 0.190993 0.092048 -0.892611 
0.058496 -1.149355 0.229219 0.417375 -0.085961 0.848575 
1.274707 0.338071 -0.359562 -0.574023 0.201218 -0.776776 
-1.183405 0.685684 -0.377205 0.720416 0.014791 -0.650903 
-0.966962 0.273347 -0.230543 0.585652 0.150974 -0.741168 
0.769566 1.510021 0.291039 0.719934 -0.204676 0.624701 
0.267364 -0.751983 0.080023 -0.080791 -0.227686 -0.958599 
1.087959 0.716011 -0.099697 -0.462593 0.227031 -0.842475 
-0.239262 0.282148 0.463489 -0.267061 -0.292999 0.905802 
0.013734 -0.716497 0.300052 0.446589 -0.141656 0.874896 
0.027438 -0.484130 0.349586 0.148053 -0.211135 0.953752 
1.330601 2.325608 0.324370 -0.349452 0.583287 -0.708416 
0.222442 -0.458841 0.326572 0.393456 -0.163489 0.899823 
-0.746680 0.436394 -0.023200 0.342507 0.226260 -0.804760 
0.141431 0.085386 -0.134133 0.588051 -0.016961 -0.793683 
-0.717282 0.647391 0.197185 -0.450546 0.005646 0.846282 
0.044180 1.365665 0.297965 0.588038 0.707455 0.071916 
-1.661069 0.780991 -0.788154 -0.763210 0.015060 0.615000 
-0.614360 0.647005 0.304109 -0.206578 -0.097357 0.879617 
0.636200 0.617447 0.190989 -0.403049 0.425028 -0.473771 
1.406065 0.607702 -0.382470 -0.399919 0.399346 -0.799286 
0.001362 1.180058 0.150760 0.452473 0.292498 -0.809649 
0.785166 1.769034 0.357165 0.682318 -0.095991 0.703052 
-0.563442 -0.121888 -0.037202 0.014421 0.055255 -0.858334 
2.561588 1.844289 -0.031682 -0.022487 0.365524 -0.927281 
-0.551603 -0.585527 0.022212 -0.621849 -0.027645 0.767602 
0.238867 0.281837 -0.087686 0.689376 0.037162 -0.714934 
1.958881 1.521517 -0.116844 -0.101082 0.342776 -0.928978 
0.452313 -0.053765 0.229120 0.572182 -0.240083 0.769595 
1.927409 0.864870 -0.252731 -0.053572 -0.367548 0.883171 
-0.718003 1.879681 0.441593 -0.741266 0.347048 0.456014 
-1.051583 2.656663 -1.358495 -0.809960 0.290670 0.503027 
-0.033490 -1.104280 0.199413 -0.233767 -0.351115 -0.897513 
-0.839018 0.175533 -0.098674 -0.717463 -0.189922 0.663933 
-1.528181 0.404983 -0.811399 0.715143 0.271158 -0.638247 
2.499631 2.159388 0.097028 0.021834 -0.377600 0.921126 
1.320943 1.683902 0.098422 -0.180711 0.417747 -0.863455 
-1.163656 1.270423 -0.278377 0.736396 -0.177056 -0.600054 
-0.858290 0.612966 0.042835 -0.830247 -0.167867 0.521935 
-0.602466 2.484973 -0.384197 -0.737475 0.535006 0.393670 
0.553999 0.078185 0.023748 0.118246 0.116258 -0.884096 
-0.296430 0.819770 0.190514 -0.781593 0.415368 -0.387453 
0.085674 0.851500 0.018100 0.471574 0.443315 -0.748325 
-1.518302 1.274800 -0.901960 0.742939 -0.526390 -0.353693 
-0.543188 0.050831 0.173998 -0.667748 -0.268871 0.678727 
-1.042231 1.698358 -0.293960 -0.875311 0.336610 0.306414 
2.180845 1.237865 -0.216239 0.161978 -0.246208 0.948241 
-0.328411 -1.097457 0.141624 0.056638 -0.141520 0.839874 
1.300508 0.145426 -0.433343 -0.535712 0.164955 -0.786627 
1.085387 0.643972 -0.084082 0.643761 -0.180773 0.717386 
0.970687 -0.435650 -0.223588 -0.393501 -0.023512 -0.868688 
-0.220833 0.387806 -0.073129 -0.698363 0.098505 -0.688336 
1.162128 1.796315 0.195636 -0.187968 0.258330 -0.922764 
-0.941276 2.098929 -0.740134 -0.858096 0.358688 0.339388 
1.970482 2.236681 0.139343 0.116858 -0.329657 0.929623 
-0.351239 -0.399321 0.201100 -0.683072 -0.148211 0.713587 
-0.303717 0.026764 0.360751 -0.423352 -0.260486 0.844669 
-0.602245 2.440118 -0.312088 -0.657339 0.595450 0.432845 
-1.002702 -0.124699 -0.355540 0.535110 0.125342 -0.770704 
2.145753 1.835155 -0.024317 0.079910 -0.444039 0.884161 
-1.125075 1.007030 -0.276385 0.713067 -0.067453 -0.635298 
-0.158950 0.998180 0.132797 -0.580630 0.404296 -0.691385 
0.099075 -0.425724 0.361183 0.100903 -0.191743 0.975240 
-1.109602 0.035528 -0.421608 -0.689393 -0.181841 0.674108 
-0.874696 2.659306 -1.082601 -0.838992 0.277746 0.456918 
0.288650 0.489052 -0.029183 0.708876 0.126416 -0.688389 
-0.981353 2.252389 -0.976565 -0.888400 0.194658 0.410393 
1.142956 0.894778 -0.060330 0.527346 -0.213847 0.768453 
0.610738 0.019499 0.124369 0.625961 -0.226513 0.737356 
0.020085 1.111450 0.131285 0.329338 0.373204 -0.860968 
0.349667 0.771195 0.293811 0.923713 0.326373 -0.129149 
1.271889 1.893360 0.188434 -0.186985 0.158260 -0.948878 
-0.872974 2.243891 -0.770266 0.893693 -0.226892 -0.375680 
-0.362144 0.757957 0.337394 -0.908759 0.363086 0.012648 
-0.205663 -0.531727 0.036552 -0.050184 -0.344316 -0.900391 
1.642643 2.343126 0.230583 -0.193321 0.381407 -0.901583 
0.970742 -0.333491 -0.247471 -0.392436 0.052119 -0.860875 
-0.757256 2.539810 -0.829834 0.816492 -0.359404 -0.451445 
0.217268 -0.785252 0.226298 0.204105 -0.193129 0.952325 
2.349391 2.102236 0.075971 -0.018719 0.449571 -0.888620 
-1.015004 2.480865 -1.192056 0.843868 -0.233908 -0.476380 
0.616261 -0.053433 0.080150 0.635727 -0.192881 0.741079 
0.109345 0.707590 -0.048195 0.434828 0.401973 -0.767337 
-1.459102 0.778518 -0.600748 0.736296 0.003864 -0.648404 
1.327091 1.076975 -0.141239 0.321590 -0.313213 0.880107 
-1.427114 1.292224 -0.711457 0.755451 -0.461200 -0.397455 
-0.698613 1.360728 0.340191 -0.290166 -0.142216 0.870546 
-0.834074 1.738025 0.298277 -0.969365 0.072857 0.218378 
1.278965 0.763526 -0.197320 0.459737 -0.290991 0.809176 
-1.257809 0.946378 -0.431044 0.757589 -0.114358 -0.593151 
0.836358 0.102072 -0.053449 0.648308 -0.177772 0.738823 
-0.995624 1.184717 -0.091929 0.662736 -0.040875 -0.685641 
-0.479050 0.037820 0.028043 -0.145634 0.108857 -0.878790 
1.211407 0.760835 -0.141437 0.505048 -0.248696 0.793148 
-0.173725 -0.355823 0.350883 -0.291176 -0.090378 0.929061 
0.951149 0.789735 0.002177 -0.445927 0.206456 -0.860094 
-0.330778 0.762744 0.214961 -0.841550 0.388972 -0.315726 
-0.843471 1.361077 0.204800 -0.937779 0.027321 0.314044 
-0.217252 0.718219 -0.003716 -0.560435 0.431693 -0.659152 
-1.488891 0.497469 -0.695729 -0.739024 -0.193870 0.635287 
1.191912 0.626103 -0.187769 -0.486953 0.243907 -0.822337 
-1.327798 0.905381 -0.472031 -0.784983 0.076446 0.568570 
-0.428601 0.238979 0.081099 -0.252045 0.174999 -0.890388 
1.539062 2.352791 0.272355 0.247184 -0.319774 0.911104 
-0.923829 2.755578 -1.215963 0.812806 -0.275919 -0.511662 
0.533493 -0.730993 0.055423 0.522943 -0.011681 0.843119 
-0.506915 -0.883795 0.045108 -0.558648 0.045167 0.824340 
0.610102 -0.120588 -0.015593 0.007634 0.057276 -0.873280 
-1.335387 1.513919 -0.859186 0.696132 -0.649783 -0.271587 
-1.085938 0.577764 -0.292537 0.695313 0.076002 -0.681585 
0.744445 -0.773467 -0.062216 -0.309879 -0.142929 -0.920873 
-0.779505 1.091771 0.268323 -0.627693 -0.148712 0.747501 
1.075498 1.194283 0.049528 0.512356 -0.217912 0.758195 
-0.890537 0.667685 -0.048867 0.608807 0.182678 -0.767784 
-0.356566 -0.284596 0.239508 -0.649404 -0.178361 0.729686 
0.675076 0.626375 0.269507 0.167216 -0.002872 0.932472 
1.037101 1.061393 0.019066 -0.323439 0.244683 -0.908048 
0.511301 0.395534 0.404394 0.431747 -0.261885 0.836496 
1.366002 2.033875 0.221493 0.351766 -0.217877 0.888688 
2.508850 2.392443 0.205810 0.013242 -0.448913 0.889582 
1.257734 1.237049 -0.082114 -0.235745 0.291879 -0.923771 
-0.308574 0.532372 0.012588 -0.708388 0.166706 -0.670311 
1.640758 1.848027 0.041243 -0.237900 0.217750 -0.938582 
0.447406 -0.802734 0.100412 0.522956 -0.017244 0.844222 
-0.213363 0.779330 0.036615 -0.565756 0.514344 -0.617234 
0.792667 0.466504 0.005728 -0.272744 0.213509 -0.856817 
-0.998258 1.622443 -0.013309 -0.925818 0.135732 0.310356 
0.079524 0.015794 -0.165439 0.529233 -0.044359 -0.833227 
-1.183677 0.003472 -0.534797 0.587157 0.188040 -0.723931 
0.102466 0.924314 0.585559 0.221983 -0.117975 0.961153 
0.568222 0.618364 0.269894 -0.297068 0.526197 -0.520344 
1.650829 0.470100 -0.677144 0.666137 -0.252748 0.698927 
0.437853 0.260671 0.099615 0.271774 0.181138 -0.913563 
1.111718 1.256278 0.033027 0.469507 -0.258938 0.782406 
0.393833 -0.277665 0.052886 0.301891 0.005101 -0.900632 
0.684243 0.022298 -0.042845 -0.047044 0.092628 -0.856953 
-0.302469 0.693926 0.009584 -0.677680 0.352829 -0.621520 
0.764471 -0.434606 -0.080121 -0.345522 0.020426 -0.893813 
0.165560 0.307734 0.500183 0.169827 -0.279910 0.944154 
-0.347683 -0.066789 0.332755 -0.537806 -0.249459 0.790189 
0.650140 0.432946 0.067595 -0.098202 0.207707 -0.882816 
-1.540722 1.005994 -0.675107 -0.792927 0.147333 0.551035 
0.688361 1.521576 0.288363 -0.196020 0.179649 -0.955538 
-1.298511 0.162478 -0.619993 -0.706091 -0.246768 0.641794 
-0.126968 0.256743 -0.157147 -0.632017 0.040483 -0.757684 
0.022507 -0.242588 0.380564 0.085628 -0.089109 0.988582 
0.394588 -0.193369 0.063014 0.304843 0.032909 -0.903832 
-0.830263 2.743120 -1.059810 -0.870613 0.197076 0.438384 
-0.187397 1.171746 0.313551 -0.830451 0.513951 -0.171534 
-0.795381 1.646666 0.259776 0.629567 -0.137324 -0.752198 
-0.668709 2.452700 -0.554044 0.850466 -0.390538 -0.346173 
-1.651143 0.939136 -0.820336 0.781536 -0.210047 -0.542684 
-0.765780 2.206713 -0.317522 -0.809580 0.487947 0.246695 
0.975001 0.452168 -0.102155 -0.443023 0.212827 -0.819782 
0.956933 0.370773 -0.124433 -0.371601 0.196881 -0.818590 
1.711632 0.659391 -0.262224 -0.304393 -0.473661 0.814409 
-1.409079 1.026503 -0.552893 0.770375 -0.135986 -0.584710 
0.776774 -0.360858 -0.048090 0.554744 -0.068892 0.812505 
-0.541515 0.391354 0.393544 -0.516161 -0.273852 0.784100 
0.342154 0.434249 0.479930 0.243433 -0.223953 0.941893 
0.365614 -0.521163 0.080204 0.199259 -0.038268 -0.927914 
0.443100 0.612529 0.448617 0.006185 -0.129101 0.870191 
0.189855 1.177569 0.412563 0.699500 -0.094960 0.574236 
0.109110 -0.302889 -0.094314 0.467274 -0.226065 -0.833470 
0.106790 -0.469906 -0.033340 0.317509 -0.396833 -0.853056 
