1.094566 0.788441 0.449002 -0.067964 0.634763 -0.734169 
-0.649903 -0.684192 -0.016117 0.113443 0.151862 -0.958697 
-2.184831 2.494191 0.885780 -0.720487 -0.261265 0.625979 
1.691730 1.872820 1.527782 -0.441150 0.710608 -0.528341 
-0.986908 0.908624 0.432269 -0.418390 -0.543436 0.713510 
-1.273311 -0.074489 -0.057497 -0.283004 -0.362988 0.867166 
0.660491 1.521795 1.456490 0.405385 -0.540541 0.736806 
-0.628988 0.270108 0.054233 -0.207606 0.242338 -0.886075 
1.476110 1.240691 0.897669 0.243204 -0.814479 0.483992 
2.182726 1.438470 0.643110 0.433392 -0.685064 0.569783 
1.407289 0.946902 0.582162 0.267032 -0.636951 0.702753 
1.354132 -0.037899 0.052936 -0.232302 0.386872 -0.884954 
1.079826 0.516702 0.249499 0.280020 -0.488661 0.819890 
-1.707252 0.947094 0.142610 -0.441854 -0.567543 0.678067 
-1.111898 -0.153262 -0.026104 -0.315762 -0.329249 0.862154 
-2.011833 1.925658 0.582477 0.741851 0.514309 -0.421265 
1.969684 1.651601 1.117034 0.468374 -0.567220 0.661586 
-0.937082 0.170496 0.047964 0.127636 0.347291 -0.885691 
-1.688289 2.749678 1.383067 -0.594444 -0.134377 0.789384 
-0.459300 0.452953 0.094385 -0.279409 0.339367 -0.815556 
-0.862734 0.474160 0.058753 -0.047929 0.345673 -0.869011 
-0.941590 1.748564 1.305302 -0.376655 -0.285200 0.874577 
1.998736 1.356424 0.674654 0.359712 -0.776762 0.460365 
-1.170476 0.463385 0.064672 -0.300439 -0.444686 0.831024 
0.783383 0.262694 0.221681 0.352386 -0.428808 0.816662 
-0.474158 0.424042 0.404525 -0.336615 -0.405568 0.791264 
-0.750144 0.922344 0.612888 -0.182201 -0.674442 0.693457 
1.327553 1.707349 1.527394 0.235395 -0.556642 0.790127 
1.207952 0.500771 0.220526 0.256301 -0.461952 0.840674 
-1.643845 0.980166 0.233730 -0.441478 -0.570550 0.676692 
-0.090398 -1.196860 -0.050137 -0.199775 -0.475136 0.671660 
-0.433694 -0.050818 0.064197 -0.363905 0.128955 -0.887712 
-0.920059 -0.272518 -0.005101 -0.329433 -0.293851 0.873175 
1.458766 1.554890 1.282023 -0.250650 0.801298 -0.517522 
0.153902 0.061409 -0.102406 0.476271 -0.025504 -0.872181 
-0.294652 -0.015065 -0.022336 -0.463094 -0.026406 -0.870676 
1.698626 0.867496 0.290589 -0.297532 0.560229 -0.758739 
1.483517 1.023717 0.629811 0.291645 -0.662929 0.672175 
-2.067009 2.720827 1.069664 -0.669923 -0.124562 0.723917 
-1.603664 1.151020 0.519951 0.439852 0.611637 -0.650099 
-1.082674 1.000823 0.532904 -0.443298 -0.563953 0.684280 
0.097461 -0.506763 -0.034844 0.081962 -0.360695 -0.924173 
-0.351599 0.411053 -0.005105 -0.434174 0.110170 -0.878536 
-1.889186 1.702860 0.523919 0.698923 0.543733 -0.434628 
0.872995 -0.614263 -0.015843 -0.201962 0.277785 -0.925988 
-0.098242 1.291672 0.304876 -0.643855 0.676337 0.233429 
1.534538 2.152030 1.841427 -0.337647 0.512999 -0.779485 
-0.642916 -0.420971 0.020208 0.083198 0.197234 -0.939911 
-1.557050 2.835032 1.474659 0.576440 0.171413 -0.784577 
-0.926157 1.618094 1.224302 -0.497814 -0.470439 0.703244 
-0.711182 1.209321 0.823368 -0.069658 0.744469 -0.645611 
-0.329359 -0.468967 0.064591 -0.376716 0.044980 -0.899625 
-1.964981 2.272480 1.060990 -0.605654 -0.151250 0.753657 
1.022121 1.141611 0.879333 -0.056983 0.767724 -0.605426 
-0.301457 -1.223387 -0.033156 0.279185 0.093323 -0.934959 
1.633812 0.815513 0.283689 0.318736 -0.537837 0.770415 
0.267889 0.837812 0.086324 0.703428 0.422585 -0.502975 
0.892680 0.692117 0.511166 0.376474 -0.669473 0.626039 
-0.081080 0.925691 0.006632 -0.474144 0.481676 -0.711491 
1.954157 2.569847 1.854227 0.515551 -0.537002 0.665642 
0.869701 0.630341 0.301523 0.046458 0.638392 -0.699060 
0.641163 0.150639 0.211533 0.386514 -0.404195 0.813601 
-1.088212 2.123977 1.459784 -0.404209 -0.405668 0.812304 
0.010805 -0.681817 0.250766 0.452552 -0.357259 0.812857 
0.265774 0.993299 0.388301 0.890025 0.224880 0.290443 
-1.371277 1.505796 1.066593 -0.401246 -0.605617 0.682005 
0.383188 -0.482824 0.061544 0.352828 0.057396 -0.886957 
0.566827 1.336955 1.293011 0.524389 -0.638847 0.559967 
0.407660 -0.548425 0.105733 0.448646 -0.244260 0.851236 
2.049627 1.586250 0.964523 0.478446 -0.561422 0.654826 
-0.120708 0.975560 0.050594 -0.525109 0.461021 -0.693119 
0.892905 1.508657 1.402900 0.435539 -0.716658 0.506616 
-1.063674 1.641170 1.204496 -0.443831 -0.473310 0.736484 
-0.679855 1.447733 1.097985 -0.129123 0.674447 -0.697753 
-0.278523 0.393566 -0.032513 -0.466710 -0.003112 -0.878460 
-1.986845 2.909260 1.155077 0.640116 0.066947 -0.763457 
-1.393005 0.097526 -0.050413 0.262095 0.401881 -0.855326 
1.293590 1.777740 1.576209 0.324284 -0.558667 0.754174 
-0.859993 -0.190351 0.015184 0.137966 0.270168 -0.917422 
2.033150 1.467114 0.792340 -0.357644 0.759374 -0.513317 
1.510140 1.291216 0.939744 0.212237 -0.869617 0.394112 
-1.532482 1.109972 0.511362 -0.444049 -0.590011 0.662769 
0.597555 1.378973 1.345975 0.475498 -0.498696 0.706317 
-1.343144 2.021566 1.334837 -0.368766 -0.279012 0.877778 
-0.346080 0.675498 0.418135 -0.739281 0.303563 0.538692 
-0.133727 0.181681 0.533161 -0.267014 -0.186189 0.936392 
0.843062 1.533610 1.449937 0.324266 -0.550620 0.759720 
-0.594663 0.454588 0.330377 -0.447535 -0.551684 0.672991 
1.553633 1.717775 1.455131 0.351222 -0.780709 0.505046 
1.298865 1.147598 0.848453 0.337557 -0.707660 0.611563 
1.300660 0.002437 0.083232 -0.157030 0.328653 -0.903052 
-1.285944 1.504946 1.082964 -0.375966 -0.618938 0.658273 
0.150421 0.291317 -0.105762 0.431983 0.013475 -0.899417 
2.016985 2.052319 1.388558 0.530647 -0.446762 0.711403 
-0.321793 -1.126916 -0.029309 0.068721 0.123844 -0.949945 
0.119842 1.266098 0.359025 0.487443 0.769292 0.329154 
1.670547 0.606209 0.171556 -0.171997 0.450234 -0.861526 
-1.709613 1.006519 0.222334 0.425954 0.591894 -0.667270 
-0.785200 0.615496 0.302253 -0.552764 -0.535897 0.636521 
2.148127 1.634013 0.957791 0.469713 -0.622541 0.618811 
-1.177765 0.386862 0.037567 0.183330 0.418318 -0.862826 
0.948347 1.808094 1.696383 -0.380785 0.776806 -0.424791 
-0.550081 1.236197 0.946150 0.266969 -0.622841 0.527386 
1.311602 0.638961 0.217511 -0.132602 0.492752 -0.855495 
-1.423340 2.664804 1.552479 0.610945 0.314141 -0.720448 
1.362190 0.038849 0.078473 -0.186598 0.359072 -0.892968 
0.794908 0.114180 0.142771 0.216391 0.244369 -0.851755 
-1.213752 1.162726 0.681530 0.259875 0.685544 -0.633452 
0.716930 -0.622566 0.026776 -0.069073 0.163515 -0.962466 
2.163979 1.598778 0.893189 -0.440806 0.654307 -0.607004 
-0.115397 -0.018509 -0.123095 -0.510224 -0.019653 -0.853231 
-1.831432 3.184613 1.276525 -0.601236 -0.017282 0.797121 
0.565159 -0.712254 0.028578 -0.040557 0.135696 -0.973951 
0.664571 1.419361 1.285149 0.130699 0.902804 -0.383343 
-1.732835 1.562762 0.680239 -0.646755 -0.605937 0.411645 
1.386131 0.730665 0.296487 -0.173515 0.529678 -0.818871 
-0.606794 -0.946591 -0.051883 0.240101 0.143725 -0.952771 
-1.915626 2.109809 1.021151 0.639677 0.321046 -0.665666 
-0.587183 0.867768 0.598950 -0.339239 -0.575374 0.734334 
1.177518 1.252697 0.970490 -0.124613 0.728115 -0.632852 
0.536073 -0.025043 0.094585 0.375646 0.144970 -0.859093 
0.425587 0.570086 0.459218 -0.059951 -0.311127 0.739554 
0.405123 -0.614624 0.044122 0.221681 0.071715 -0.921525 
0.936800 0.360680 0.151397 0.108692 0.328964 -0.863407 
-1.238639 1.605057 1.115855 0.217679 0.674359 -0.646156 
-1.292255 1.175974 0.714247 -0.485452 -0.602648 0.631757 
1.395610 0.671434 0.254675 0.242560 -0.506503 0.823278 
0.143359 -0.042037 -0.107759 0.498456 -0.038781 -0.858844 
-2.222277 2.438192 0.831514 -0.737066 -0.301104 0.596223 
-0.347488 0.765209 0.249144 -0.938432 0.283955 -0.095135 
1.963906 1.539302 0.950258 -0.358863 0.742564 -0.521590 
-1.046562 0.647595 0.061124 0.079620 0.429271 -0.856677 
0.735290 0.915430 0.661318 -0.242823 0.694777 -0.640869 
0.157600 1.218545 0.280990 0.732906 0.628963 -0.114407 
1.787219 0.883932 0.274868 -0.291449 0.553505 -0.767442 
-2.033278 2.347918 1.007544 0.673144 0.343409 -0.635157 
1.742066 1.612774 1.199166 -0.349906 0.735755 -0.558197 
0.904610 0.049611 0.135806 0.014849 0.299183 -0.890702 
0.329813 -0.409807 0.258713 0.612145 -0.298225 0.731284 
1.209538 -0.040328 0.090448 0.266857 -0.333011 0.887668 
0.523192 0.244470 0.293937 0.438389 -0.412666 0.781381 
-1.575918 1.317093 0.707144 0.545025 0.475461 -0.635788 
0.487650 -0.360713 0.078479 0.296827 0.105420 -0.884261 
0.558322 1.424711 1.402082 0.389809 -0.665331 0.605783 
0.911500 0.941087 0.740131 0.430837 -0.596515 0.667120 
-1.646126 2.590368 1.409451 -0.550796 -0.176120 0.811597 
-0.307413 -0.099756 0.363976 -0.560469 -0.262011 0.765945 
1.622955 1.237904 0.785931 -0.386539 0.602002 -0.679838 
-0.055416 0.765516 -0.074192 -0.432279 0.300891 -0.827106 
-0.957344 -0.346583 -0.027519 -0.324254 -0.284785 0.878371 
0.132724 1.066584 0.105358 0.504135 0.427927 -0.728589 
0.987887 0.466416 0.152727 0.067880 0.362427 -0.869167 
-0.348396 -0.695361 0.026277 -0.186284 0.045003 -0.938046 
-0.002398 -0.203695 0.400649 0.016911 -0.321341 0.943512 
0.782750 -0.147541 0.114498 0.324246 -0.308623 0.876514 
0.051191 0.755947 0.500642 0.087113 -0.068337 0.979823 
-0.071603 0.170719 -0.148937 -0.480796 0.024545 -0.872410 
-0.195294 -0.627181 0.008703 0.026297 -0.113688 -0.983038 
2.180019 1.864942 1.126350 0.529594 -0.549715 0.639538 
1.618379 1.421566 1.048490 0.467794 -0.402825 0.763898 
1.424443 1.077842 0.727572 0.288669 -0.694580 0.645502 
-0.730688 0.977434 0.529999 0.380728 0.638052 -0.658036 
-0.328228 -0.578921 0.165315 -0.548127 -0.277362 0.784683 
-0.137874 -0.125688 0.430837 -0.199734 -0.288565 0.932420 
1.532728 0.227201 0.096949 0.250040 -0.407398 0.869120 
0.620190 1.371122 1.244271 0.166803 0.744731 -0.624473 
-0.992731 1.136508 0.693306 0.124748 0.730440 -0.624363 
-0.091934 -0.914713 0.066546 -0.059080 -0.397312 0.897868 
-1.312274 0.688011 0.073176 -0.290214 -0.494554 0.814817 
0.068557 -0.743998 -0.003930 0.117472 -0.038492 -0.972674 
-0.610929 -0.088570 0.067570 -0.202621 0.186158 -0.879004 
1.969624 1.304218 0.625167 -0.446966 0.608049 -0.638568 
-0.326747 0.610806 0.007437 -0.647530 0.226129 -0.678469 
1.638336 1.903419 1.584453 -0.407312 0.671336 -0.596176 
0.153419 -1.030103 -0.006335 -0.085365 -0.363049 0.926219 
0.698570 0.474044 0.132858 0.208777 0.353964 -0.841391 
-1.620275 2.013983 1.239605 0.425749 0.336261 -0.821882 
-1.261679 1.350116 0.913364 -0.457120 -0.643427 0.600315 
0.306995 0.782735 0.129541 0.808406 0.368803 -0.356941 
1.443441 1.349623 1.009328 -0.313650 0.563493 -0.754345 
0.318557 0.628003 -0.035849 0.647078 0.179747 -0.726081 
0.735895 -0.074480 0.126361 0.370169 -0.306497 0.861139 
0.288800 0.053105 0.423246 0.475573 -0.247258 0.825050 
-2.032991 1.794575 0.379172 -0.781941 -0.438070 0.432633 
2.245483 2.197572 1.286270 0.588145 -0.486374 0.644694 
1.070288 0.639195 0.269888 -0.037824 0.583293 -0.763514 
0.523484 -0.529681 0.056193 0.117723 0.127566 -0.930390 
0.568027 0.868773 0.744131 -0.386569 0.660218 -0.641551 
1.717770 1.301682 0.806915 -0.446567 0.531467 -0.715086 
-0.011378 -1.032000 0.004506 -0.536564 -0.311381 0.763876 
-0.945136 0.676761 0.247926 -0.479418 -0.531831 0.681907 
1.083310 0.908906 0.645927 0.366931 -0.595820 0.694765 
-1.814937 1.286550 0.341667 -0.787938 -0.250176 0.463116 
-0.585566 1.404154 1.026598 0.308061 0.692578 -0.639546 
-1.511014 1.181511 0.639345 -0.455580 -0.603000 0.647350 
-1.215525 1.473775 1.049549 -0.315450 -0.778764 0.510892 
-0.590902 1.408205 1.177195 -0.089775 -0.713952 0.687042 
0.405366 0.622267 0.315840 0.432512 0.723237 -0.229142 
-0.955981 1.283657 0.865758 0.076761 0.689490 -0.656887 
0.260356 -1.266244 -0.018440 -0.790629 -0.445428 0.287894 
-1.591595 1.677533 0.984969 -0.621532 -0.292880 0.657440 
-1.773601 0.940947 0.093124 0.351861 0.578549 -0.715964 
0.558608 -0.790491 0.008648 0.287099 -0.195848 0.933477 
0.756924 0.048190 0.134677 0.223856 0.226682 -0.856306 
0.761599 0.682023 0.336643 0.150758 0.768917 -0.540253 
0.930792 0.941305 0.669765 -0.023453 0.760621 -0.622084 
-0.523192 0.085940 0.060573 -0.293846 0.179061 -0.886097 
-0.800349 1.924969 1.412616 0.526759 0.628261 -0.504885 
-0.327183 0.805827 0.190251 -0.899750 0.316712 -0.248318 
0.337073 -0.108164 0.022146 0.485877 0.033956 -0.860464 
0.907996 1.437709 1.286263 0.088244 0.775450 -0.539280 
0.340632 0.018721 0.384233 0.554044 -0.242245 0.784957 
1.796735 0.551053 0.137559 -0.219748 0.461280 -0.854825 
-0.067952 -0.895434 -0.027443 -0.164552 0.043000 -0.966309 
1.281090 -0.132969 0.039743 -0.232911 0.373655 -0.890201 
-1.565507 2.044295 1.289013 0.397993 0.432474 -0.789369 
0.479637 0.643095 0.526541 -0.206390 0.896199 -0.301480 
1.074040 1.816947 1.683943 0.347399 -0.651207 0.663224 
-0.078309 0.264683 0.558118 -0.191173 -0.117821 0.963148 
-0.044991 1.001205 0.037063 -0.376963 0.484108 -0.771421 
-1.570840 1.078856 0.437497 -0.446388 -0.586008 0.663843 
-0.281480 -0.231388 -0.026313 -0.505873 -0.048486 -0.844763 
-0.640900 0.193208 0.170452 -0.513520 -0.391943 0.741232 
-0.060309 -0.166960 0.420762 -0.082415 -0.308158 0.945245 
-1.723611 1.059807 0.311203 -0.480587 -0.590890 0.639404 
-1.490088 1.064065 0.464457 -0.422414 -0.578490 0.683568 
-1.173100 1.197652 0.731737 0.231583 0.687950 -0.634049 
-1.918406 2.770300 1.206551 -0.635772 -0.105120 0.762311 
0.711309 0.307556 0.102292 0.239262 0.254429 -0.876078 
0.493202 0.623173 0.455566 -0.119671 0.880539 -0.245561 
0.567451 0.985027 0.876369 -0.125514 -0.733371 0.529574 
0.877671 1.035566 0.857350 0.444671 -0.617781 0.638194 
-0.336433 1.602665 1.371083 0.175500 -0.675445 0.628012 
-1.020610 1.242063 0.855845 -0.499598 -0.597556 0.626457 
0.143284 -0.741866 0.004823 -0.044015 -0.061354 -0.992439 
-0.691901 0.272792 0.175197 -0.497339 -0.415212 0.739260 
0.297829 1.430376 1.441368 -0.319491 -0.843672 0.047412 
-0.351076 -1.353936 -0.020897 0.117445 -0.516096 0.585195 
-0.876609 1.442751 1.110383 -0.481806 -0.626707 0.601259 
-0.619380 0.770611 0.508568 0.559812 0.554370 -0.563097 
-1.831225 1.962112 0.915556 0.652483 0.547184 -0.497692 
-1.108855 1.898947 1.329632 0.160988 0.506647 -0.822623 
1.336186 0.960895 0.589782 -0.186597 0.659937 -0.699886 
0.896272 0.430320 0.134293 0.122669 0.329576 -0.872978 
1.200944 0.120336 0.132427 0.254152 -0.375399 0.875522 
-0.312861 0.751319 0.411083 -0.714216 0.295695 0.566673 
-1.226672 -0.028348 -0.029345 0.196782 0.341635 -0.880031 
0.199505 0.714379 -0.055098 0.512021 0.291878 -0.761172 
-1.222824 1.015727 0.504836 -0.424037 -0.566006 0.693098 
1.483116 1.762039 1.533299 -0.295537 0.727137 -0.607540 
-1.786289 1.119635 0.332323 0.530943 0.539866 -0.609332 
0.211265 -0.042710 -0.069265 0.485926 -0.062790 -0.864829 
-1.347215 1.758105 1.205503 0.285326 0.542541 -0.782395 
-0.020604 -0.277133 0.369324 0.020138 -0.324234 0.942020 
-1.672111 1.201570 0.513229 -0.582479 -0.475136 0.590045 
-1.596138 0.945122 0.185997 0.372443 0.571100 -0.708907 
0.309583 -0.666917 -0.019985 0.286168 -0.031148 -0.906627 
1.749460 0.488455 0.128632 -0.220876 0.453196 -0.858083 
1.826230 0.845587 0.228168 -0.235326 0.522693 -0.811144 
0.876253 -0.347682 0.067495 -0.077396 0.222173 -0.942862 
1.170044 1.668637 1.513888 0.280892 -0.552858 0.775468 
1.924347 2.315075 1.685139 0.535325 -0.556068 0.633856 
0.653840 0.514831 0.456153 0.111098 -0.628535 0.727147 
-1.911897 1.367108 0.229468 -0.825064 -0.219154 0.473048 
-0.596126 -0.764453 -0.020096 0.118145 0.135835 -0.965422 
-1.150247 0.888832 0.293587 0.175846 0.594117 -0.755192 
1.713123 0.922606 0.351010 -0.310506 0.585703 -0.733892 
-1.707547 2.011592 1.202721 0.514350 0.306216 -0.785187 
1.544530 0.864632 0.397864 0.298943 -0.576074 0.744291 
-0.333534 0.556730 0.055762 -0.601699 0.272011 -0.661941 
1.381111 1.547024 1.327647 0.226526 -0.732250 0.637628 
-1.618914 1.025750 0.322336 -0.445974 -0.578188 0.669051 
-0.939039 0.712448 0.181018 0.142381 0.558779 -0.765035 
-0.618823 0.466558 0.039531 -0.179821 0.279380 -0.900530 
-2.095133 2.259289 0.887337 0.699777 0.338186 -0.606473 
-1.585513 0.396638 -0.033114 -0.281489 -0.461121 0.820038 
0.470104 0.130116 0.298735 0.492992 -0.320085 0.790481 
0.245259 -0.158931 -0.049298 0.502303 -0.093839 -0.853940 
1.078803 1.194253 0.970622 0.393704 -0.684637 0.598669 
-1.142813 0.014938 -0.002837 0.157744 0.330222 -0.887676 
0.577507 -0.857530 -0.017850 -0.107080 0.161907 -0.965545 
-1.188703 1.925062 1.326019 -0.377124 -0.279028 0.875057 
1.813615 1.652709 1.207769 -0.383098 0.696510 -0.592252 
-1.726483 1.439286 0.583504 0.769004 0.149881 -0.610912 
-1.422619 1.452839 0.953204 -0.312748 -0.797229 0.486325 
0.755862 1.413175 1.250723 0.058506 0.826056 -0.485071 
-1.818700 1.825309 0.811638 -0.724338 -0.309610 0.526000 
-2.036789 1.734414 0.296556 -0.791246 -0.412951 0.441593 
1.259851 1.850619 1.633735 0.401025 -0.571035 0.713787 
1.401378 2.083220 1.835749 -0.285681 0.578125 -0.750826 
-0.688551 1.363057 1.000863 -0.109578 0.699633 -0.679281 
0.759162 0.632350 0.458987 -0.200582 -0.579611 0.783954 
-0.664073 1.125828 0.710391 0.389441 0.624477 -0.662560 
1.519791 1.368485 1.057937 0.361772 -0.615311 0.634187 
-0.818077 1.747264 1.320951 -0.430899 -0.264093 0.859090 
0.257470 -0.803101 -0.000410 -0.126153 -0.053703 -0.979742 
-0.030151 0.059586 0.513924 -0.125417 -0.293671 0.944409 
0.088088 -0.042255 0.468379 0.160914 -0.292131 0.938983 
1.000390 0.868199 0.566403 -0.041285 0.702821 -0.673802 
-1.769240 2.371480 1.276607 -0.531237 -0.137921 0.829074 
0.477110 0.506429 0.168667 0.431460 0.497494 -0.627585 
-1.479255 1.286073 0.790339 -0.458207 -0.638596 0.609090 
-0.559812 0.322577 0.042588 -0.237689 0.232046 -0.900592 
-0.910862 1.517064 1.192733 -0.430999 -0.404994 0.776815 
1.310014 1.872005 1.690639 -0.187828 0.670349 -0.717550 
-0.280971 0.893122 0.167849 -0.825114 0.372816 -0.343744 
0.556026 -1.005750 -0.026432 -0.167147 0.152136 -0.960959 
-1.864114 2.008577 0.959591 -0.672677 -0.568755 0.461722 
1.397191 1.939126 1.694618 0.389430 -0.595297 0.697391 
-1.003977 0.801348 0.315758 -0.460322 -0.546067 0.683306 
1.795701 1.143919 0.560557 0.447642 -0.631645 0.546451 
1.110671 -0.307975 0.025756 0.255576 -0.331471 0.899673 
1.751495 1.920545 1.529016 0.458258 -0.441249 0.765088 
-0.327521 -0.500228 0.193841 -0.581370 -0.284751 0.760227 
0.868674 -0.683634 -0.039815 0.249705 -0.302520 0.918804 
0.903222 1.204266 0.981054 0.009448 0.763561 -0.608855 
1.380808 1.677070 1.487074 -0.212015 0.659844 -0.718629 
0.959768 1.226034 1.044016 0.424086 -0.673672 0.590027 
1.674885 1.469927 1.076207 0.466446 -0.441444 0.736240 
1.065707 0.672413 0.383948 0.330964 -0.623807 0.694026 
1.964765 1.968610 1.362344 0.519066 -0.425315 0.733342 
1.706323 1.375433 0.949767 0.460168 -0.526985 0.690328 
-0.267250 0.150965 -0.034601 -0.447993 -0.042754 -0.888403 
-1.329997 0.868831 0.211999 0.268365 0.535466 -0.787758 
-1.843751 1.267200 0.278645 -0.815515 -0.192359 0.475264 
-1.761960 2.003524 1.138690 0.585475 0.337328 -0.710147 
-0.425143 -1.142011 -0.024330 0.200564 0.071059 -0.973159 
0.855215 -0.145230 0.114691 0.284393 -0.323212 0.884904 
-0.171644 -0.630437 0.232331 -0.271310 -0.396563 0.874830 
-0.800857 0.366621 0.062445 -0.098342 0.308696 -0.869038 
1.345767 1.016920 0.653017 -0.197848 0.686995 -0.673852 
-1.163670 1.243544 0.785175 0.217933 0.674915 -0.644153 
0.858767 0.896640 0.706354 0.439106 -0.573363 0.682936 
0.651314 0.865077 0.724559 -0.049456 -0.795856 0.588196 
0.894369 -0.268992 0.084809 0.266425 -0.301465 0.899789 
0.833022 0.690599 0.347611 0.054242 0.760425 -0.592187 
2.068089 2.500397 1.713827 0.536066 -0.527993 0.657149 
1.475242 2.017321 1.755961 -0.338889 0.608943 -0.708943 
-0.993923 0.988867 0.482073 0.106247 0.684618 -0.681444 
-2.046288 2.565936 1.050948 0.667991 0.216635 -0.689736 
-0.352932 -0.843463 -0.013122 -0.073954 0.026320 -0.955623 
-0.814816 1.276173 0.943798 -0.508117 -0.591780 0.625227 
0.795402 -0.701293 -0.024783 -0.192990 0.257578 -0.933373 
1.388135 2.019840 1.803324 0.354550 -0.673374 0.638841 
1.426475 0.073035 0.072100 -0.220145 0.392556 -0.881932 
-1.632548 1.116220 0.458614 -0.470891 -0.596928 0.641635 
-0.927186 0.244662 0.077419 -0.385689 -0.374958 0.819473 
0.070904 -0.051790 -0.138529 0.448681 -0.064758 -0.874456 
-0.920114 -0.557635 -0.071594 0.270395 0.256530 -0.916078 
0.360996 0.685758 0.140290 0.829879 0.461073 -0.210262 
2.015029 2.287027 1.596959 -0.514347 0.530397 -0.667513 
-0.693968 1.367023 1.073474 -0.512809 -0.593425 0.620018 
1.740535 0.620774 0.166574 -0.178695 0.448440 -0.860257 
0.009197 -0.942988 0.068297 0.524429 -0.318113 0.774076 
-1.408207 2.592144 1.527266 0.433923 0.206391 -0.865409 
-0.898291 1.252755 0.897565 -0.504704 -0.593441 0.626333 
0.709670 0.379957 0.094326 0.231487 0.266763 -0.882874 
-0.286438 1.665119 1.391469 0.343064 0.595845 -0.681850 
2.184042 1.353679 0.528517 -0.426945 0.692136 -0.570728 
-1.966303 2.205187 1.028900 0.636731 0.289995 -0.697019 
-0.540853 1.350967 1.061967 0.469311 -0.601314 0.437726 
-1.582848 1.446648 0.784801 0.612641 0.322743 -0.672545 
-1.805127 2.004977 1.072572 -0.643672 -0.585062 0.485140 
1.066466 1.765094 1.618180 -0.108712 0.723675 -0.655646 
-1.558847 1.847986 1.161074 -0.501687 -0.608676 0.601203 
1.254739 0.441989 0.185336 -0.130370 0.436419 -0.875659 
-1.373384 1.632851 1.124446 -0.380439 -0.419418 0.814188 
0.844757 1.673259 1.558205 -0.040568 0.772521 -0.598279 
-1.459042 0.868084 0.137397 0.306889 0.545422 -0.760005 
-0.020395 0.779102 0.512043 -0.090040 -0.170243 0.968006 
-0.603671 0.387376 0.041014 -0.203695 0.256202 -0.899614 
0.284283 0.384429 -0.033409 0.439506 -0.010263 -0.893488 
-2.030090 2.260125 0.987897 0.675932 0.394642 -0.612499 
-1.922631 1.540190 0.324621 0.791170 0.280939 -0.515452 
0.052140 1.363880 0.217114 0.607228 0.696390 -0.357190 
-0.937982 0.537736 0.060401 0.003153 0.378559 -0.863340 
0.116634 0.788878 0.504318 0.205883 -0.126953 0.956929 
1.442845 1.633750 1.403795 -0.247114 0.710939 -0.649270 
-0.607468 1.360379 1.119443 -0.120101 -0.705660 0.683346 
-1.343729 2.100396 1.388660 0.238660 0.407392 -0.876750 
0.085091 -0.236724 0.391273 0.091724 -0.310541 0.943388 
-1.083513 0.440596 0.058691 0.166983 0.421665 -0.862797 
0.346135 0.267506 0.436903 0.470899 -0.147077 0.852682 
-0.195012 -0.730846 0.177484 -0.186349 -0.381028 0.891065 
-0.164268 -0.068995 -0.094474 -0.511093 -0.043645 -0.851616 
0.225737 1.486717 1.508316 0.031291 -0.545992 0.796874 
-0.295362 0.650791 -0.048447 -0.655918 0.161396 -0.724116 
-0.208884 0.200862 0.504660 -0.375005 -0.170221 0.890050 
-2.017519 2.829733 1.130916 -0.651306 -0.080676 0.753594 
-0.149534 0.259181 0.548937 -0.289245 -0.118944 0.941765 
-1.390137 0.829724 0.151994 -0.341491 -0.526283 0.767129 
-0.977852 1.190353 0.809338 -0.501626 -0.592174 0.629927 
1.304425 1.442692 1.203418 -0.128323 0.900280 -0.384288 
1.868626 0.800942 0.188719 -0.194571 0.493515 -0.844905 
0.982641 0.705263 0.375501 -0.042099 0.757654 -0.645927 
-0.167777 -0.054078 0.450723 -0.292064 -0.277617 0.903189 
0.623889 0.650754 0.411704 -0.201901 0.779958 -0.314450 
0.669923 1.013462 0.930324 0.196851 -0.711306 0.649046 
-0.412442 0.468024 0.407166 -0.438987 -0.076441 0.849145 
-1.052922 2.182348 1.495126 0.468102 0.542407 -0.663290 
1.081755 1.685175 1.537511 -0.114519 0.752193 -0.619938 
2.122760 2.701741 1.823527 0.523709 -0.509139 0.682869 
-0.130121 1.120709 0.389903 -0.881999 -0.062158 0.343814 
-0.882493 0.711377 0.322216 -0.555540 -0.553471 0.619612 
-0.873125 0.842178 0.362912 0.186490 0.719068 -0.659249 
0.703349 -0.014194 0.146239 0.384448 -0.325527 0.847917 
-1.999063 1.570810 0.218604 -0.808267 -0.338644 0.454091 
-0.680908 -0.877137 -0.063537 0.262232 0.172868 -0.943568 
-1.320221 1.866924 1.271401 0.274333 0.468999 -0.833090 
0.108786 1.274039 0.260542 0.711403 0.607421 0.005685 
-0.575873 0.923131 0.642540 0.500555 0.533135 -0.677841 
0.993254 1.754693 1.619511 -0.096290 0.738540 -0.636600 
0.166572 1.086831 0.571344 -0.155155 -0.070632 0.908809 
0.135382 -0.669707 0.007890 -0.019010 -0.090157 -0.993344 
0.661211 0.132428 0.108456 0.287845 0.208976 -0.863849 
-1.528494 1.269751 0.737678 0.464158 0.598687 -0.640372 
-1.870194 2.048918 1.019505 0.633792 0.354404 -0.642592 
-1.134267 1.610161 1.146499 0.144922 0.628009 -0.690809 
-0.859882 1.681297 1.299858 -0.366383 -0.517738 0.743852 
-0.588682 -0.645969 0.000650 0.101719 0.152338 -0.961762 
0.505734 0.039319 0.217626 0.439371 -0.350416 0.810893 
-0.983361 1.555856 1.124260 0.089377 0.765773 -0.581401 
-1.340065 2.209727 1.437832 0.255645 0.369827 -0.890437 
-0.865741 0.790119 0.295590 0.229980 0.716895 -0.648630 
0.776690 0.411048 0.107321 0.190846 0.291623 -0.880517 
2.123816 2.314596 1.531172 -0.550472 0.546770 -0.625044 
-0.717056 0.350149 0.189852 -0.491674 -0.442370 0.729513 
-0.303084 0.563861 -0.042301 -0.628162 0.087262 -0.763359 
0.516319 1.468017 1.455243 0.050160 -0.555635 0.786445 
-1.949847 2.447861 1.122710 -0.603807 -0.100773 0.778733 
-1.698576 1.931407 1.141675 -0.599994 -0.586018 0.540371 
1.488722 0.449887 0.168062 0.245363 -0.435495 0.855427 
-0.373981 -0.453464 0.140289 -0.564499 -0.255695 0.783188 
2.183342 2.233270 1.387833 -0.568490 0.521617 -0.629748 
-0.471188 1.596663 1.273389 0.472771 0.202443 -0.853696 
1.585416 1.968446 1.679398 0.359485 -0.569970 0.731782 
-0.259171 0.836593 0.067261 -0.674137 0.438064 -0.546488 
-1.824720 1.768243 0.744470 -0.752638 -0.214567 0.538400 
-1.182322 -0.083143 -0.030256 -0.308406 -0.347656 0.857968 
-1.554388 2.419132 1.437201 0.444748 0.217830 -0.860348 
-0.699999 1.012497 0.587914 0.494916 0.580288 -0.623731 
-0.336004 -0.767107 -0.016899 -0.154467 0.003712 -0.933579 
0.407789 0.208178 0.389921 0.543131 -0.229518 0.793894 
1.880258 2.531204 1.877495 -0.522370 0.588273 -0.599443 
0.519605 1.119738 1.035279 -0.326764 -0.676377 0.417703 
1.568087 1.267848 0.880148 0.252635 -0.836642 0.435340 
-1.139563 2.176046 1.475381 -0.398397 -0.421894 0.808057 
-1.756978 3.003154 1.332287 -0.595697 -0.067698 0.795703 
-0.060156 1.031630 0.547548 -0.039479 0.031359 0.960934 
1.262787 0.964190 0.612283 -0.157970 0.681791 -0.682367 
-1.385818 0.684040 0.058140 -0.288796 -0.498126 0.811216 
-0.644262 -0.200986 0.047928 -0.070493 0.200791 -0.903076 
-1.968171 2.556060 1.131478 -0.616228 -0.089751 0.775756 
2.061985 1.351014 0.619152 0.392077 -0.742726 0.497439 
0.809985 -0.400176 0.065638 0.271630 -0.274890 0.908265 
1.161840 1.855005 1.694333 0.354903 -0.642400 0.668397 
0.435004 0.019838 0.285790 0.525580 -0.252293 0.801986 
1.187500 1.567727 1.407013 0.306927 -0.758398 0.544702 
-0.506390 0.505235 0.130236 -0.227235 0.410862 -0.770182 
1.474078 1.184486 0.832455 0.290118 -0.750408 0.586347 
-0.995827 1.420737 1.056053 -0.465597 -0.640018 0.595664 
0.129100 -0.682412 0.218030 0.170666 -0.413819 0.889415 
0.102680 0.425453 0.563934 0.208600 0.014864 0.966511 
-1.499935 0.255536 -0.042933 0.253780 0.433886 -0.841904 
-0.858137 1.552504 1.142194 0.037538 0.702936 -0.646562 
1.707088 1.085369 0.548236 -0.368363 0.637110 -0.658646 
2.016640 0.846151 0.180497 0.244395 -0.493320 0.833963 
1.255072 0.675123 0.319087 0.260937 -0.508416 0.812589 
-1.655941 0.563178 -0.014244 -0.287013 -0.491581 0.802227 
1.144577 0.842551 0.549002 0.332681 -0.571970 0.729172 
0.171595 -0.948526 -0.014930 0.008356 0.043835 -0.988893 
-1.425075 2.024410 1.339620 0.276429 0.430879 -0.857434 
-1.274277 0.049769 -0.023896 0.188009 0.355206 -0.874304 
-0.397645 -0.450743 0.055912 -0.282060 0.078241 -0.907090 
-0.440523 0.607154 0.327503 -0.241326 0.733856 -0.363022 
-0.545408 0.540196 0.458541 -0.039800 -0.632202 0.759205 
-0.572325 1.470636 1.248291 -0.079009 -0.713613 0.688728 
1.293862 2.058213 1.855619 -0.343333 0.697600 -0.621445 
1.608733 2.322138 1.921361 -0.489400 0.636164 -0.576831 
-1.960605 1.961967 0.721317 0.709712 0.567639 -0.408970 
-0.916296 0.659085 0.125704 0.074173 0.479655 -0.811774 
0.238893 -0.390654 -0.049900 0.538521 -0.137501 -0.829267 
-0.189794 -1.139810 -0.031516 -0.070595 0.055593 -0.968626 
-0.182298 0.119565 0.499860 -0.336010 -0.239409 0.899049 
-0.232567 0.967034 0.464787 -0.743858 -0.072578 0.642347 
1.304341 1.546711 1.355662 0.206213 -0.748985 0.622521 
0.153766 -0.430098 -0.058680 0.346112 -0.263538 -0.876646 
-0.448860 0.585179 0.236959 -0.445959 0.647278 -0.506664 
-0.180970 -0.461374 0.302627 -0.205796 -0.320466 0.917001 
-1.332646 2.515320 1.548235 -0.168819 -0.092807 0.954868 
-0.798352 0.660374 0.189413 0.071471 0.528429 -0.766711 
-0.007579 0.238197 0.559470 -0.095748 -0.146496 0.977087 
1.971000 2.483281 1.775899 0.525802 -0.540395 0.654699 
2.187231 1.548183 0.800911 -0.431994 0.673404 -0.593478 
-0.959064 1.693126 1.250313 0.007570 0.479839 -0.826495 
1.900568 1.530895 0.999604 0.494312 -0.465658 0.712226 
-1.083310 0.851220 0.314125 -0.373736 -0.529080 0.748658 
1.812252 0.936231 0.318943 0.382018 -0.567634 0.723207 
-0.542069 0.165535 0.055173 -0.271348 0.198753 -0.890013 
-0.610844 1.062858 0.730922 0.642878 0.407560 -0.600439 
0.340893 0.610547 0.030248 0.625342 0.295346 -0.651732 
-0.550450 1.302071 1.006511 0.780151 0.221030 -0.436555 
1.818779 1.525111 1.033204 -0.311324 0.789417 -0.476745 
-0.547160 1.068408 0.781079 0.535790 0.486876 -0.621156 
-0.198847 0.866830 0.482040 -0.519812 -0.027369 0.824506 
-1.822357 3.074377 1.282641 -0.604509 -0.044072 0.791817 
1.720422 2.217227 1.774822 0.487766 -0.576980 0.651148 
-0.060309 0.592115 0.543708 -0.025895 0.349369 0.930282 
-1.536258 1.670124 1.036933 -0.563870 -0.364411 0.692452 
0.034249 -0.476187 -0.055568 0.101572 -0.495863 -0.854686 
-0.204244 -0.553539 0.001755 0.092931 -0.219992 -0.953368 
-0.530075 0.585926 0.205198 -0.259608 0.569274 -0.626727 
0.463536 -0.570490 0.052992 0.390653 -0.209029 0.891124 
-0.450696 -0.962931 -0.022127 0.117651 0.088725 -0.983347 
1.220303 1.447800 1.229986 -0.087033 0.866265 -0.430849 
2.056875 2.160414 1.451926 0.538130 -0.473977 0.688796 
-1.684295 2.379091 1.355953 -0.503069 -0.183257 0.840646 
-1.518121 2.342381 1.424304 0.406678 0.266976 -0.861852 
1.885830 1.908396 1.387828 0.499513 -0.409168 0.757716 
-1.055955 1.136615 0.731013 -0.498573 -0.591465 0.632978 
0.349612 -0.182287 0.065825 0.497197 0.063290 -0.859133 
0.600295 1.488500 1.381771 -0.026352 0.793407 -0.596880 
-0.073695 -0.646858 0.011535 -0.078479 -0.090699 -0.980936 
0.645100 1.298337 1.153503 0.147819 0.761164 -0.612345 
0.015141 -0.054213 0.467720 0.063814 -0.308115 0.946765 
-0.352806 -1.422741 -0.044725 0.490156 -0.838180 0.191776 
-1.106175 1.181237 0.767885 -0.496260 -0.596640 0.629924 
-0.255846 1.019786 0.376641 -0.889457 0.390976 0.204251 
0.106175 -0.932242 0.050777 0.005216 -0.399390 0.906550 
2.055359 1.849929 1.219545 0.511941 -0.598500 0.603510 
-0.847271 0.886605 0.494400 -0.525808 -0.566540 0.632401 
-1.593956 2.691228 1.453873 0.421572 0.051598 -0.895734 
1.980056 1.209686 0.501434 -0.487717 0.573434 -0.640792 
-0.883500 1.093804 0.663621 0.060982 0.757936 -0.617271 
2.117311 2.057421 1.285713 -0.559357 0.560309 -0.588983 
1.849577 1.142210 0.514351 -0.515989 0.507341 -0.684204 
-1.866617 1.710600 0.592150 -0.767636 -0.229227 0.528424 
-0.432479 0.242347 0.364758 -0.598615 -0.264391 0.739782 
0.229154 0.927102 0.085355 0.682653 0.426472 -0.592060 
0.330809 0.449050 0.452765 0.334729 -0.064406 0.936807 
-1.267867 2.191485 1.421838 -0.447430 -0.304641 0.831895 
0.646782 -0.688279 0.023406 -0.052032 0.139521 -0.970824 
-0.127365 -0.128177 -0.111285 -0.501025 -0.062470 -0.851454 
-1.291460 0.518582 0.049901 -0.296115 -0.461985 0.822638 
0.331808 -0.222687 0.317487 0.589442 -0.275386 0.751881 
0.360733 0.111924 0.400724 0.563467 -0.226388 0.786602 
0.514760 0.305461 0.054868 0.347775 0.197280 -0.891194 
0.840269 0.010141 0.130138 0.076443 0.268642 -0.884387 
2.178457 2.158099 1.319351 0.571183 -0.475523 0.663846 
-1.857370 2.745835 1.252770 0.560762 0.075161 -0.808806 
0.531686 0.537547 0.476135 -0.207850 -0.583382 0.767790 
-0.346006 0.049996 0.383762 -0.592041 -0.235975 0.756498 
-0.293888 0.869529 0.381550 -0.865613 0.195002 0.433248 
-0.838743 0.620882 0.118356 0.023093 0.447241 -0.822517 
-1.306768 1.470512 1.021555 -0.285588 -0.805528 0.495803 
0.071647 0.203650 0.544967 0.176169 -0.172094 0.958178 
-0.198691 1.049346 0.449012 -0.465444 0.758807 0.026388 
0.527484 -0.604973 0.046186 0.054939 0.131556 -0.948132 
0.324305 0.688723 0.005626 0.704810 0.325311 -0.569365 
-0.596173 -0.870890 -0.046778 0.186938 0.143755 -0.961468 
0.439541 0.335132 0.033534 0.385650 0.180801 -0.899786 
1.185557 1.206923 0.914163 -0.127197 0.749470 -0.614989 
1.552545 1.894826 1.628787 0.316092 -0.559727 0.755083 
-1.044581 1.752753 1.298420 -0.337344 -0.533574 0.759083 
-0.842207 0.815960 0.468091 -0.518099 -0.569045 0.616728 
-0.637778 0.954950 0.623954 0.626299 0.434808 -0.640583 
1.931058 1.080096 0.378274 -0.543207 0.506988 -0.663035 
1.171191 0.991424 0.711963 0.354914 -0.638034 0.664630 
-1.144461 0.323950 0.034924 0.178414 0.402229 -0.868696 
0.329845 0.719960 0.083805 0.752492 0.498185 -0.334124 
-0.040855 0.405670 0.569910 -0.125838 -0.007307 0.983019 
-0.658510 1.606588 1.309060 -0.360744 -0.454487 0.794701 
0.993164 0.623993 0.266533 0.001753 0.578190 -0.754382 
-1.802839 1.361624 0.405446 0.801812 0.140486 -0.563942 
0.905213 1.114846 0.877431 -0.003978 0.777623 -0.600466 
-0.749972 0.673933 0.395837 -0.056854 -0.572015 0.810287 
-0.784470 0.140350 0.094333 -0.451148 -0.343495 0.799433 
-1.840987 2.992188 1.267704 -0.611613 -0.061351 0.784743 
-0.179319 0.720527 -0.058716 -0.493486 0.284651 -0.769393 
-1.679829 1.805382 0.967799 0.596482 0.616363 -0.503427 
-1.617848 1.604679 0.855666 0.552924 0.694460 -0.447528 
0.345107 -0.348843 0.079154 0.508597 0.035087 -0.848108 
-1.168856 0.979546 0.471172 -0.417323 -0.558120 0.702789 
1.582826 1.006747 0.547438 0.319573 -0.638721 0.683444 
1.957620 0.942033 0.268572 0.340118 -0.544933 0.757879 
-0.430863 -0.048253 0.240427 -0.601300 -0.228864 0.760380 
-0.774021 1.689179 1.261736 0.130232 0.529592 -0.830004 
-0.352881 -1.268803 -0.008651 -0.483470 0.033293 0.704213 
-1.318655 1.274679 0.818831 -0.486898 -0.611755 0.623044 
-0.510413 -0.672533 0.009593 0.052660 0.129839 -0.961833 
-1.712222 1.353554 0.553959 -0.670020 -0.461810 0.459091 
1.119966 0.081542 0.127233 -0.109639 0.335162 -0.906316 
1.433637 1.268075 0.951729 0.205231 -0.848975 0.431136 
-1.307961 1.332868 0.857797 0.304268 0.605292 -0.675574 
0.930614 0.442160 0.252882 0.313239 -0.480831 0.810044 
-1.330272 0.772801 0.061708 0.212374 0.514776 -0.829970 
1.917145 1.975688 1.419613 -0.513460 0.660979 -0.523832 
1.488117 0.139444 0.078210 -0.229152 0.409814 -0.875711 
-0.703937 0.520232 0.062406 -0.108930 0.334351 -0.876595 
-1.405692 0.235618 -0.016978 0.183234 0.395268 -0.857542 
1.445104 0.306804 0.136183 -0.144471 0.376474 -0.887045 
1.953871 1.482874 0.873525 -0.337714 0.774271 -0.495510 
1.256934 1.590165 1.411221 -0.143540 0.709675 -0.662614 
-0.865028 1.572400 1.212274 -0.556013 -0.433686 0.690140 
1.633531 1.730600 1.423856 0.390753 -0.746556 0.528073 
1.561707 0.488930 0.165856 0.246521 -0.439196 0.853659 
-0.746238 1.307863 0.928722 -0.063130 0.709277 -0.666223 
-1.347564 2.288501 1.459120 -0.429428 -0.352127 0.820434 
0.350097 0.528134 0.448007 0.499374 -0.000023 0.838824 
-0.368827 -0.741328 0.098921 -0.459790 -0.236136 0.841955 
-1.448521 2.342010 1.450361 -0.445084 -0.316787 0.826764 
-0.851107 1.982231 1.433959 0.524182 0.618739 -0.527930 
-0.993672 1.327539 0.908924 0.093976 0.670943 -0.665634 
-0.337139 0.603871 0.463508 -0.596334 0.067050 0.787310 
0.175649 -0.003386 0.467356 0.317759 -0.274392 0.896254 
-1.622828 1.195972 0.592379 -0.487347 -0.612215 0.621687 
-1.617896 0.860031 0.052562 0.260846 0.549215 -0.783565 
0.149110 1.020992 0.547154 0.166579 -0.235179 0.935029 
-1.269482 0.983104 0.401729 0.259169 0.594608 -0.729175 
1.297003 0.355429 0.175901 0.241705 -0.427873 0.859463 
1.367974 1.096246 0.767566 0.311307 -0.698174 0.632915 
1.432427 0.787596 0.341244 -0.197316 0.552290 -0.793380 
1.869858 1.824111 1.356668 0.484763 -0.671647 0.550366 
-0.700923 -0.617183 -0.017844 -0.345155 -0.217241 0.898123 
-2.016152 1.988587 0.654070 0.737313 0.530748 -0.413183 
1.559637 1.208366 0.806429 0.301609 -0.762855 0.524994 
-1.055627 -0.201302 -0.019548 0.158011 0.283477 -0.904047 
1.054959 1.358602 1.191998 0.222157 -0.845604 0.365255 
-0.302169 -0.527042 0.003238 -0.377568 -0.024525 -0.881523 
-0.207227 0.225544 -0.069770 -0.444423 -0.011306 -0.891935 
-1.726625 1.701539 0.807365 0.613382 0.656018 -0.428932 
0.614060 1.294313 1.230336 0.512281 -0.636363 0.571050 
0.807040 0.549624 0.374632 0.386200 -0.604816 0.688211 
1.187068 0.716965 0.341734 -0.095082 0.571552 -0.790020 
-1.768548 2.133867 1.227785 -0.510434 -0.084722 0.853845 
1.651793 0.359379 0.110281 -0.223037 0.436386 -0.864846 
0.232666 1.057755 0.384691 0.851224 0.463823 0.201396 
0.514072 0.625071 0.382641 0.052081 0.802553 -0.305201 
-0.749326 1.514438 1.222520 -0.420010 -0.443246 0.725116 
-1.438016 1.167857 0.650552 -0.454456 -0.599279 0.651081 
0.490114 0.616274 0.292283 0.343127 0.728561 -0.365174 
-0.956991 1.075758 0.687073 -0.501559 -0.582691 0.638415 
-1.315859 0.360748 0.019647 -0.300691 -0.434208 0.827685 
-1.671826 1.744375 0.922343 0.592595 0.637456 -0.481489 
-0.183822 1.044214 0.112423 -0.615770 0.398035 -0.676574 
-1.899244 1.292172 0.199945 -0.844839 -0.150881 0.485437 
-1.858820 1.891988 0.801877 0.667247 0.596827 -0.431491 
0.553568 -0.931843 -0.023989 -0.128845 0.155658 -0.965034 
2.003309 2.193635 1.535300 -0.523408 0.590369 -0.598449 
0.729006 -0.419622 0.069567 -0.062330 0.212939 -0.949037 
-1.257465 1.425339 0.989739 -0.362035 -0.733794 0.541293 
0.183483 -0.144521 -0.084400 0.511005 -0.069732 -0.850149 
1.209705 1.989377 1.851809 0.123679 -0.576673 0.800587 
-1.572206 1.601804 0.932262 -0.637791 -0.168145 0.694520 
0.732100 0.771700 0.557886 -0.506394 0.637422 -0.539606 
-1.438647 1.610054 1.078965 -0.483423 -0.384197 0.771515 
1.729803 0.722050 0.188419 -0.180107 0.481322 -0.851666 
-1.916623 2.655221 1.199572 0.608332 0.135446 -0.773234 
-1.899929 1.445747 0.304044 -0.786628 -0.322426 0.453006 
1.459716 1.900241 1.644109 0.358322 -0.565604 0.735622 
-0.219845 0.617816 0.509851 -0.310107 0.334062 0.845089 
-1.958422 2.719314 1.172974 0.621319 0.107479 -0.769870 
0.680439 0.661966 0.344594 -0.052987 0.708250 -0.396183 
-0.804039 0.515361 0.207472 -0.465870 -0.494188 0.719361 
-1.014612 -0.281199 -0.028663 -0.319895 -0.300616 0.873476 
-0.048471 0.237810 -0.162543 -0.471790 0.042711 -0.878493 
-0.787406 -0.684738 -0.062061 0.235692 0.210790 -0.934937 
-0.803967 0.725799 0.254391 0.149122 0.634821 -0.695230 
1.322944 0.734489 0.365052 0.250744 -0.539142 0.791267 
-0.676458 -0.283762 0.041188 -0.406277 -0.262850 0.854136 
1.294462 1.487494 1.270998 -0.156877 0.842300 -0.487809 
1.252637 0.866211 0.540413 0.301655 -0.590414 0.726922 
-0.078380 0.344827 0.575566 -0.191336 -0.049340 0.973173 
-0.634880 -0.590115 0.000452 0.106440 0.167343 -0.955539 
-1.722635 0.596521 -0.024108 0.228699 0.499507 -0.814330 
0.990436 0.008636 0.139019 0.250743 -0.364961 0.880551 
-0.929314 0.599583 0.193164 -0.432714 -0.505006 0.730313 
-1.173445 2.293045 1.534497 -0.128501 -0.265691 0.945327 
-1.084249 -0.264170 -0.046225 0.224406 0.301217 -0.897099 
1.185878 0.959229 0.625998 -0.126853 0.700233 -0.668231 
1.104122 0.684733 0.322193 -0.076778 0.664125 -0.720800 
2.057446 1.423430 0.718908 0.451659 -0.598489 0.623421 
-0.345198 -0.076209 0.050906 -0.418755 0.091594 -0.894797 
0.521378 0.127525 0.075074 0.365455 0.167715 -0.874290 
-0.144423 1.047702 0.549881 -0.012185 -0.105125 0.932840 
1.042171 1.063097 0.783814 -0.077652 0.779185 -0.598442 
-0.133176 -0.930493 -0.027280 -0.049066 0.041135 -0.989325 
1.362499 1.840261 1.647009 -0.220134 0.681629 -0.693113 
1.322863 0.091065 0.104889 0.263273 -0.357095 0.879633 
1.723703 1.023629 0.480544 0.361909 -0.624211 0.681468 
0.128172 -0.868529 0.095274 0.035157 -0.397216 0.906646 
-0.250533 0.134242 0.463748 -0.435755 -0.228938 0.846013 
1.627746 1.615092 1.274202 -0.334461 0.749940 -0.563566 
-0.449317 -0.304992 0.066103 -0.303901 0.105152 -0.890517 
1.907450 1.671784 1.174344 -0.407700 0.669475 -0.606811 
1.536341 0.293936 0.120257 -0.165574 0.378037 -0.884142 
-0.583983 1.128642 0.813913 0.662477 0.370032 -0.559407 
-1.665614 1.292037 0.558527 0.649770 0.332605 -0.602660 
0.765894 1.111854 0.978159 0.473281 -0.618054 0.618242 
0.209762 -0.716638 0.005199 -0.022636 -0.068835 -0.988318 
0.396907 -0.074997 0.294724 0.564213 -0.234813 0.786667 
0.965286 -0.528981 -0.011954 0.252664 -0.313086 0.911057 
0.227768 1.106182 0.293050 0.876912 0.444046 -0.077827 
-1.282086 2.453155 1.547573 -0.124299 -0.131478 0.963891 
-1.017273 0.545045 0.067589 0.047898 0.402482 -0.852358 
-0.908344 0.419501 0.068264 -0.031147 0.348852 -0.857756 
0.894299 0.534132 0.319692 0.337705 -0.559623 0.745348 
-1.994809 2.620237 1.119580 0.647692 0.180171 -0.721481 
-0.586965 1.708295 1.346499 0.210235 -0.025107 0.958523 
0.614931 1.233071 1.161637 0.511953 -0.622561 0.586661 
-2.107049 2.465750 0.960481 0.693551 0.280856 -0.642517 
1.031436 0.713470 0.441296 0.348842 -0.602416 0.702252 
0.410618 -0.124315 0.074552 0.456646 0.091168 -0.859721 
-0.872942 0.339751 0.072041 -0.062763 0.324419 -0.856243 
0.523949 0.154832 0.251440 0.428364 -0.396661 0.795698 
-1.746287 0.782234 -0.000787 0.221933 0.535012 -0.804088 
0.779899 0.291536 0.120593 0.203402 0.271408 -0.869260 
-0.430305 -0.521701 0.041643 -0.180356 0.093096 -0.924077 
-0.325629 0.108117 -0.008691 -0.418952 0.038502 -0.888912 
0.301403 -0.673417 0.159776 0.441477 -0.296699 0.819500 
1.113723 1.037833 0.736454 -0.108741 0.761647 -0.613202 
0.587250 0.247201 0.078530 0.314829 0.207914 -0.880182 
-0.743709 0.687336 0.230557 0.095849 0.595417 -0.709784 
-1.262662 1.229386 0.752372 0.284406 0.666425 -0.639156 
-1.713122 2.594299 1.355459 0.506078 0.126672 -0.840200 
0.509630 1.335675 1.338719 0.181985 -0.722288 0.633981 
0.775683 0.821415 0.691748 0.220243 -0.724118 0.632572 
-0.036316 0.542160 -0.125518 -0.394327 0.106385 -0.907904 
1.084342 1.101229 0.864929 0.392131 -0.664315 0.622402 
-1.238162 0.715114 0.068706 0.206545 0.497352 -0.839097 
1.412546 0.601012 0.199800 -0.148447 0.472124 -0.862088 
1.624142 1.840930 1.533320 -0.394206 0.713011 -0.557229 
-0.170932 0.101702 -0.090810 -0.475879 -0.018922 -0.873265 
-1.231215 0.330490 0.031331 -0.303447 -0.423652 0.833219 
0.307462 -0.477549 0.241679 0.560571 -0.302559 0.763942 
0.702148 1.195409 1.020659 0.105793 0.774699 -0.603830 
-1.144194 1.674539 1.204573 -0.393056 -0.494872 0.755009 
0.134376 -1.169888 -0.044324 -0.106741 -0.258891 0.901640 
-1.761110 1.842992 0.910078 -0.671791 -0.417398 0.539911 
-2.136431 2.250186 0.791565 0.730800 0.408862 -0.523835 
0.159960 -0.069742 0.447371 0.253400 -0.281502 0.917993 
-1.768236 2.474078 1.298881 -0.539777 -0.161561 0.818568 
0.416807 1.404541 1.395367 -0.265374 -0.888460 0.140942 
1.182841 1.307482 1.038775 -0.151550 0.658922 -0.695141 
-0.747673 0.604485 0.366791 -0.491161 -0.559264 0.637689 
-1.518448 1.980077 1.280352 0.341985 0.409265 -0.835239 
1.573956 1.458067 1.090075 -0.226357 0.873229 -0.408072 
0.332468 -0.871237 -0.001728 -0.074158 -0.011416 -0.985110 
-0.899870 0.958635 0.461944 0.048344 0.702217 -0.680681 
-2.068323 2.509941 1.013340 -0.663865 -0.172977 0.705025 
0.055350 -0.495958 0.298053 0.070715 -0.266310 0.951870 
-1.513111 0.336194 -0.025324 0.212830 0.432494 -0.842202 
0.210525 -0.157942 0.397362 0.367167 -0.285850 0.859631 
0.949830 -0.185043 0.092263 -0.087909 0.266698 -0.929023 
-1.836160 2.157259 1.165855 0.613105 0.437675 -0.649041 
-0.952703 0.446424 0.124062 -0.400423 -0.438175 0.782897 
-2.046721 2.216084 0.923537 -0.706217 -0.464192 0.511135 
1.216523 1.148393 0.838987 -0.150379 0.757238 -0.610116 
-1.338335 1.241581 0.753295 0.331439 0.652782 -0.640310 
0.913347 -0.036248 0.132070 0.281379 -0.345417 0.877337 
0.507146 1.462775 1.371741 0.017620 0.815051 -0.571247 
-0.293726 -0.727512 0.135951 -0.368059 -0.298553 0.830348 
-1.830882 1.531306 0.471034 0.772880 0.239430 -0.563318 
-0.004209 0.947802 -0.017900 -0.348886 0.532151 -0.768998 
1.469791 0.841105 0.386777 -0.217645 0.574269 -0.769386 
-1.748324 1.526962 0.621504 -0.649404 -0.603507 0.393470 
-1.611882 2.204101 1.336805 -0.420050 -0.223408 0.867422 
-1.313980 1.070831 0.519688 0.299579 0.616206 -0.694123 
-0.173360 0.339613 0.560010 -0.323335 -0.049561 0.940254 
-1.383244 1.200346 0.692906 0.361232 0.646958 -0.642957 
2.061180 1.926312 1.249055 0.532526 -0.584244 0.595037 
0.857181 1.445609 1.337921 0.425838 -0.671320 0.566044 
-0.135652 0.665625 -0.087561 -0.448612 0.162116 -0.844030 
0.909494 0.860893 0.648253 0.414757 -0.561871 0.702839 
0.218218 0.498239 -0.069875 0.497314 0.045533 -0.859437 
-1.312166 0.616081 0.061586 -0.292536 -0.481238 0.817691 
0.874634 -0.451699 0.042760 -0.091450 0.207240 -0.946676 
-0.125881 -0.393732 -0.085382 -0.397677 -0.217639 -0.872198 
1.978317 1.602836 1.044657 0.492782 -0.507281 0.689665 
0.618314 -0.531846 0.056508 -0.018815 0.174202 -0.953163 
2.000501 1.926042 1.297566 0.525770 -0.606877 0.576556 
-1.252097 2.385556 1.529769 0.428800 0.420990 -0.790091 
-1.073412 0.941517 0.449559 -0.417500 -0.550225 0.708767 
-0.918395 1.413563 1.018877 0.031064 0.654008 -0.685700 
-0.235045 1.088822 0.231657 -0.864568 0.442754 -0.229177 
0.321904 -1.375106 -0.020893 -0.348527 -0.595624 0.490594 
-0.501121 -0.805670 -0.005597 0.089176 0.111364 -0.976845 
-1.447911 2.217147 1.379747 -0.444650 -0.242787 0.856799 
-0.498543 0.021173 0.182653 -0.564115 -0.332183 0.739841 
-1.641787 1.758370 1.004615 -0.631693 -0.384626 0.604124 
-2.171755 2.308760 0.809674 -0.739472 -0.388917 0.534376 
0.400741 -0.277598 0.088182 0.480457 0.061199 -0.846372 
-0.261356 -0.391823 -0.021340 -0.536933 -0.088506 -0.832843 
0.111926 0.137475 -0.126656 0.469230 0.001760 -0.877545 
0.022200 0.452001 0.565048 0.089877 0.026114 0.987894 
-0.280654 -0.795600 0.109709 -0.233801 -0.312392 0.861359 
0.595048 1.562927 1.491315 -0.364729 0.817268 -0.326971 
-0.035064 -0.376751 0.332630 0.018973 -0.239101 0.964877 
-0.057536 -0.785010 0.163494 -0.216896 -0.396190 0.869033 
-0.687850 1.071596 0.651509 0.326929 0.644300 -0.656621 
0.633886 -0.275015 0.090829 0.153791 0.174942 -0.899510 
0.160791 1.188536 0.461003 0.928158 -0.294271 -0.110563 
-1.779848 1.292152 0.402567 -0.754689 -0.302904 0.464599 
-0.444198 0.557483 0.496164 0.011475 -0.544663 0.768018 
-1.706691 0.668798 -0.007128 -0.282540 -0.514097 0.795421 
-1.016915 0.231529 0.043071 0.169505 0.375183 -0.882101 
-1.631657 1.839317 1.065430 0.578162 0.601362 -0.547990 
-0.411777 0.020359 0.298033 -0.620452 -0.214655 0.752290 
-1.390221 1.057774 0.506729 -0.412285 -0.574108 0.693209 
-0.120520 0.423292 0.563466 -0.236156 0.008179 0.961829 
1.801878 1.976710 1.530759 -0.479946 0.673770 -0.540953 
0.785359 -0.633677 0.002727 -0.137500 0.220132 -0.944559 
-0.087391 -0.802889 -0.015917 -0.077134 -0.013597 -0.979432 
-0.084298 -1.031988 -0.015590 -0.072478 -0.380203 0.900166 
0.003543 -0.448876 0.317905 0.047473 -0.200148 0.971285 
1.755003 1.351778 0.841099 -0.425224 0.562642 -0.700941 
-1.833652 1.612113 0.514308 0.745377 0.346955 -0.547998 
-2.131266 2.324636 0.897898 0.708228 0.365827 -0.596364 
0.009400 1.093484 0.538846 0.070346 0.325448 0.922262 
2.003882 0.905988 0.221322 0.285519 -0.518400 0.799975 
-0.417337 0.147469 0.044466 -0.342736 0.159939 -0.906738 
0.532698 1.065716 0.972758 -0.233051 -0.695609 0.467044 
