0.383723 -0.045969 0.340285 0.659127 -0.248973 0.708422 
-0.076780 0.137059 0.542293 -0.191548 -0.229182 0.944318 
-1.211336 2.846909 0.602700 -0.755579 0.360512 0.539735 
1.156445 0.430119 -0.120969 0.560193 -0.240485 0.785248 
-1.350160 2.103527 -0.328505 0.989763 -0.056704 -0.118750 
-0.556317 1.737504 1.194148 -0.700428 -0.121902 0.695622 
-0.647849 0.800385 0.342294 -0.433469 -0.414022 0.789350 
-1.002027 1.471748 0.537030 -0.856293 -0.277479 0.435527 
1.569213 1.912115 0.438297 0.818257 -0.290441 0.438456 
1.758260 2.310559 0.669615 0.847440 -0.375548 0.369026 
0.674430 0.765025 0.283798 -0.304051 0.616811 -0.445137 
1.487710 1.738354 0.352493 0.696976 -0.581393 0.194204 
1.091150 1.376250 0.537952 -0.595562 0.600101 -0.509290 
0.774500 0.692396 0.333601 0.708323 -0.432515 0.531621 
0.568166 0.828332 0.576024 -0.695905 0.473258 -0.536383 
0.511920 0.462843 0.092296 0.084781 0.290394 -0.867864 
1.267693 2.110479 1.313752 0.618956 -0.431601 0.642811 
0.346407 0.646250 0.473396 0.650028 0.327082 0.671025 
1.480494 1.917989 0.715640 0.803427 -0.269192 0.488257 
-0.149802 -0.538586 0.294105 -0.169192 -0.366106 0.904242 
-0.161573 1.218860 0.425931 -0.405970 0.826505 0.146044 
-0.529215 0.152216 0.018090 -0.000117 0.180873 -0.862959 
0.091387 -0.362424 -0.083094 0.385718 -0.211796 -0.881673 
1.690710 2.275595 0.789171 0.836074 -0.414368 0.350602 
0.047917 0.727243 0.511145 0.061663 0.028733 0.993440 
1.616302 2.385346 0.966956 0.838053 -0.252849 0.474740 
0.671424 0.858445 0.514129 0.340322 -0.611661 0.682053 
0.889815 -0.377686 -0.150952 0.440467 -0.162247 0.879139 
0.667841 1.084463 0.754540 0.799722 -0.333320 0.494310 
1.450623 1.767991 0.505088 0.622509 -0.730247 0.129965 
-0.814800 0.569970 -0.029096 -0.738287 -0.327204 0.579749 
0.415732 -0.249403 0.082077 0.256013 0.097378 -0.895579 
-0.983795 3.142118 0.781432 0.700144 -0.338393 -0.600470 
-0.036310 0.861499 -0.040331 -0.435815 0.377510 -0.809567 
-1.510356 1.343322 -0.399550 -0.764651 -0.382692 0.501603 
-0.807062 1.614343 0.873565 -0.855605 -0.286662 0.430422 
-1.104125 1.660745 0.565964 0.714619 0.290009 -0.557074 
-1.472495 1.148166 -0.469988 0.655918 0.411044 -0.617054 
-0.157790 1.123104 0.495928 -0.895589 0.124124 -0.207860 
-0.496471 -0.773981 -0.064276 -0.597378 -0.126038 0.787985 
1.134514 1.834846 1.149772 0.596066 -0.650101 0.446826 
-1.293682 1.531118 0.234148 -0.841821 -0.287323 0.449631 
1.105351 0.729609 -0.013095 -0.526972 0.360139 -0.755444 
1.601165 1.705024 -0.019165 -0.868917 0.243414 -0.370268 
0.139010 1.068973 0.569071 -0.068382 -0.028225 0.927863 
-0.380029 0.438077 0.147029 -0.268325 0.351994 -0.828520 
1.317876 1.578084 0.503432 0.683917 -0.584889 0.354329 
1.161359 0.801435 -0.001595 0.617559 -0.357993 0.696578 
0.043607 0.030135 0.514760 0.128959 -0.290462 0.944999 
0.149841 0.505387 -0.070968 0.491612 0.074870 -0.857413 
-1.311942 2.185368 0.207927 -0.898758 0.249381 0.224027 
-0.325070 -0.165847 0.087396 -0.281454 0.092986 -0.950947 
-0.619077 0.721747 0.139527 0.388153 0.423018 -0.679541 
-1.314410 2.708349 0.409248 0.881389 -0.183118 -0.392040 
0.507574 0.561239 0.483704 0.104182 -0.595123 0.780518 
-1.289544 2.274117 0.329041 0.951463 0.187595 -0.201523 
-0.480669 -0.472895 0.003431 -0.690350 -0.165193 0.688703 
0.502031 -0.412462 0.036631 0.614059 -0.205627 0.753349 
-1.266964 0.643892 -0.390278 0.602373 0.309858 -0.692061 
-0.246060 1.659701 1.381423 0.648202 0.411290 -0.535158 
0.108977 -0.045626 -0.106728 0.505922 -0.029105 -0.853745 
0.027359 0.716477 -0.080913 0.290751 0.243515 -0.911120 
1.475704 1.259464 -0.090021 -0.667205 0.265869 -0.678823 
-0.240164 0.450291 0.529354 -0.347861 -0.065396 0.922573 
0.927846 0.745384 0.046336 -0.344454 0.381446 -0.764645 
1.111604 2.283314 1.628346 -0.685587 0.574503 -0.435490 
-0.905194 0.759059 -0.060165 -0.727720 -0.354594 0.580204 
-0.827901 1.111151 0.268159 0.561447 0.517555 -0.609471 
-0.655625 1.123843 0.486050 0.467315 0.631353 -0.605949 
-0.137900 -0.080990 0.463346 -0.217099 -0.277609 0.931449 
-0.378191 -0.149077 0.280435 -0.719129 -0.239881 0.649262 
0.424709 1.512113 1.315861 -0.401917 0.722264 -0.547419 
0.141341 0.837115 0.004100 0.518147 0.414208 -0.728346 
-0.462864 0.117248 0.248138 -0.764668 -0.276781 0.562759 
-0.861970 1.602825 0.755929 0.553702 0.435961 -0.622977 
0.111910 -0.596155 0.013221 0.003813 -0.162158 -0.978574 
0.622102 0.973968 0.614021 -0.835784 0.287361 -0.444729 
1.491293 1.347650 -0.059435 -0.725632 0.238813 -0.632317 
-1.363591 1.590683 0.100752 -0.880058 -0.125186 0.349279 
-1.124438 1.306730 0.162498 0.734568 0.348696 -0.554155 
0.582895 1.292471 0.955817 -0.300445 0.716665 -0.613354 
-0.673161 1.328339 0.675618 0.460022 0.581383 -0.629060 
-0.974232 3.390446 0.583763 0.759806 -0.389696 -0.503944 
1.400116 0.989586 -0.116525 0.593664 -0.306087 0.738637 
-1.261278 1.169871 -0.247818 0.722928 0.375172 -0.560161 
0.190206 0.306844 0.558127 0.333580 -0.091728 0.925074 
-0.476530 1.845040 1.223652 0.829711 0.294608 -0.359362 
-1.269948 0.969119 -0.340022 -0.690524 -0.378264 0.604940 
1.578678 2.405298 1.074892 0.808294 -0.201034 0.542869 
1.452351 1.970078 0.832037 -0.694049 0.623897 -0.316271 
0.883554 0.749588 0.222013 0.685354 -0.441154 0.573234 
-1.213398 1.980325 0.560466 -0.809334 0.218175 0.469632 
-0.295230 0.240820 0.005523 -0.455159 -0.007789 -0.880715 
1.223894 1.729483 0.796953 -0.559358 0.762529 -0.302344 
-0.400084 -0.280122 0.059830 -0.127184 0.107287 -0.913290 
0.592969 0.268119 0.048661 0.066735 0.198484 -0.875084 
0.434077 1.438971 1.323961 -0.079905 -0.786012 0.415556 
0.264646 1.003039 0.247173 0.875491 0.398621 -0.223282 
0.076220 -1.017524 0.010816 0.127024 -0.332889 0.912010 
-1.040325 0.175649 -0.298039 -0.589602 -0.229494 0.730513 
1.241466 0.520081 -0.156560 -0.433669 0.212997 -0.851231 
0.776936 0.496560 0.028651 -0.139064 0.265182 -0.831618 
1.605057 1.976860 0.447687 -0.719391 0.611695 -0.259446 
-0.607691 0.462199 0.201798 -0.795109 -0.387533 0.458899 
-0.096753 -0.962545 -0.022667 -0.089785 0.020433 -0.988848 
-0.841181 2.322215 1.052181 0.595238 0.157196 -0.764537 
1.674437 2.160311 0.668504 -0.781963 0.485919 -0.343301 
1.564829 2.619270 1.246575 -0.813456 0.333116 -0.461116 
1.650025 1.940378 0.244520 0.809608 -0.410562 0.356103 
1.079565 0.245419 -0.125083 0.548343 -0.217145 0.801948 
1.715713 1.987641 0.126222 -0.782400 0.547536 -0.292103 
-1.013013 3.163080 0.720746 0.725547 -0.340563 -0.569273 
1.549402 2.314548 1.041179 -0.829889 0.337674 -0.429140 
-0.726149 -0.006448 -0.090846 -0.648921 -0.232353 0.704827 
-0.612338 1.220687 0.631405 0.432335 0.633954 -0.626192 
-0.970712 1.711293 0.721769 0.621172 0.241821 -0.648924 
-1.315229 2.606766 0.379200 0.905103 -0.097720 -0.328836 
0.599879 1.532399 1.267281 0.798376 -0.472164 0.333870 
-1.275700 2.416045 0.475119 -0.946775 -0.109355 0.272411 
-1.278556 2.005381 0.242681 0.959417 0.032056 -0.261193 
0.013538 1.241775 0.446147 0.042481 0.740405 0.659995 
-1.309186 1.021445 -0.370755 0.635447 0.396245 -0.639903 
-1.314113 2.540188 0.345888 0.928272 -0.022068 -0.274850 
-0.964794 1.275342 0.365469 -0.827106 -0.293603 0.469717 
-0.044416 0.256235 -0.148529 -0.494310 0.049004 -0.866789 
1.607302 2.693280 1.213223 0.825833 -0.309752 0.459533 
0.115773 -0.242155 0.407235 0.130005 -0.294887 0.945799 
-0.234578 -0.842277 0.016067 0.107627 0.011785 -0.985423 
0.414206 -0.280818 0.158471 0.669516 -0.236582 0.703120 
0.446532 0.035462 0.268597 0.660080 -0.262186 0.697554 
-0.245289 -0.129619 -0.023805 -0.537672 -0.067626 -0.837401 
-0.383253 0.022806 0.359399 -0.704715 -0.238806 0.667091 
-0.635174 1.128734 0.614339 -0.802831 -0.330164 0.469595 
-0.474900 1.290331 0.898900 -0.172654 -0.590578 0.607507 
1.199669 1.177939 0.273956 0.666951 -0.455076 0.570091 
-1.328018 2.323435 0.077703 0.976646 0.094898 -0.143648 
-0.639531 0.385096 0.120336 -0.776988 -0.342833 0.511959 
0.819289 1.233308 0.665905 -0.451080 0.669834 -0.559534 
0.726059 0.328898 0.132894 0.655078 -0.349761 0.660981 
-0.569445 1.967994 1.219755 -0.641101 -0.084882 0.754896 
0.946897 0.396619 -0.004806 -0.449663 0.307106 -0.795812 
-1.199147 2.120628 0.661489 -0.855519 -0.025316 0.471305 
1.720175 1.948293 0.056526 -0.808622 0.474296 -0.308034 
0.304491 -0.183894 0.026487 0.434500 0.007167 -0.881216 
0.807481 1.543680 1.014076 -0.413970 0.599736 -0.633569 
0.586248 0.194465 0.054570 0.080019 0.186644 -0.870116 
-0.330150 -0.860306 -0.004133 0.264064 -0.001955 -0.956875 
0.773845 0.636319 0.057762 -0.180381 0.339053 -0.808134 
-0.803954 1.316016 0.538130 0.551149 0.540916 -0.574018 
-1.111002 1.901659 0.650464 0.794375 0.279167 -0.524237 
0.270294 -0.857399 0.003426 -0.159253 0.008390 -0.975976 
0.261671 0.316501 0.517160 0.403562 -0.109272 0.887421 
0.870051 0.811991 0.293694 0.728368 -0.452141 0.513496 
-1.220931 2.057853 0.574688 -0.836856 0.141435 0.438049 
-0.702814 0.613876 0.150598 -0.790445 -0.376941 0.472427 
1.391660 1.665920 0.450101 -0.788269 0.348514 -0.476780 
-0.839380 2.451931 1.078105 0.605966 0.102691 -0.773619 
-1.318603 2.774125 0.371619 0.885605 -0.202161 -0.389451 
-0.201624 0.044858 -0.051144 -0.516922 -0.029693 -0.851570 
-0.328731 0.824926 0.358336 -0.880150 0.355159 0.268247 
-0.343656 -0.237854 0.089133 -0.262784 0.091560 -0.936610 
-1.372583 1.581483 0.028414 0.876226 0.076876 -0.340000 
-1.266635 1.617698 0.380924 0.828663 0.294715 -0.466320 
1.103342 0.847160 0.005038 -0.505412 0.385857 -0.741742 
0.188776 -0.250672 0.387384 0.290240 -0.288792 0.880488 
0.292380 1.447394 1.418332 -0.616618 -0.242612 -0.650650 
0.445409 -0.151731 0.165924 0.665820 -0.238570 0.703561 
-0.848149 0.800068 0.047815 -0.773511 -0.353615 0.511907 
1.331602 1.455798 0.319235 -0.693314 0.452313 -0.528770 
0.151330 0.202834 -0.086031 0.467612 0.003489 -0.880251 
-0.749325 1.711008 0.932301 0.470099 0.308970 -0.739342 
0.070413 1.031677 0.567022 0.046682 0.012279 0.959391 
-0.528948 0.011575 0.088567 -0.775670 -0.255548 0.563746 
-0.535059 0.092519 0.119914 -0.781784 -0.283177 0.538686 
0.524970 1.215990 0.907493 -0.739408 0.357920 -0.487458 
-1.146846 2.338562 0.802091 0.771292 0.104641 -0.599399 
-0.397316 -0.082719 0.265778 -0.729149 -0.220259 0.645115 
-0.889652 0.599191 -0.099569 -0.705989 -0.315949 0.623730 
0.330136 -1.186055 0.009074 0.088974 -0.192987 0.958709 
-1.039974 1.670239 0.632432 0.670388 0.292727 -0.590329 
-0.607165 1.276251 0.689378 0.421595 0.619159 -0.642196 
1.449962 2.344666 1.306485 0.757150 -0.311835 0.563446 
0.575705 1.099966 0.735322 -0.721625 0.427232 -0.542036 
-0.381816 -1.188774 -0.031982 0.466283 0.067976 -0.880604 
-0.304158 -0.015022 0.402838 -0.579854 -0.254892 0.741617 
-0.797622 2.612130 1.139747 0.674458 0.047492 -0.732558 
1.555341 1.675822 0.054371 -0.867181 0.223520 -0.397511 
-0.766416 0.913512 0.158265 0.621801 0.517065 -0.582246 
-0.869128 2.539042 1.025312 -0.752332 0.138819 0.634637 
-0.174216 0.568419 -0.051422 -0.498592 0.077962 -0.834721 
0.620354 -0.528000 -0.040384 0.529501 -0.184171 0.821335 
1.256143 1.806769 0.922501 -0.557500 0.766772 -0.253724 
1.528507 2.928217 1.476643 -0.767079 0.262224 -0.568252 
-0.933644 1.693680 0.793253 -0.807945 -0.379917 0.422822 
0.300994 0.739936 0.451875 0.639716 0.291701 0.657894 
0.701778 1.035609 0.672904 0.794141 -0.322962 0.512444 
1.445961 2.030058 0.951037 -0.723573 0.560471 -0.385556 
-0.131695 1.158579 0.561416 0.383696 0.420748 0.777014 
1.725862 2.621094 0.843586 0.868995 -0.216407 0.431955 
-0.623181 -0.468726 -0.105062 -0.614388 -0.169830 0.755862 
-0.336281 -0.763745 0.107574 -0.574974 -0.242861 0.769003 
0.262367 -0.454237 0.297827 0.455622 -0.307819 0.809360 
-0.402189 -0.285319 0.144204 -0.755978 -0.209400 0.617135 
0.852074 1.775900 1.327627 0.653032 -0.415790 0.622572 
-0.192653 -0.495769 0.000989 -0.089844 -0.239650 -0.911624 
1.323970 2.112188 1.261360 -0.661266 0.572195 -0.460382 
0.780966 0.628971 0.238669 0.677050 -0.439972 0.585672 
-0.649556 1.074075 0.561641 -0.778453 -0.359923 0.482168 
0.199682 1.088146 0.187464 0.707055 0.424953 -0.504056 
0.540702 0.986234 0.750425 -0.796644 0.301486 -0.455432 
-0.060011 -0.735480 0.213740 -0.251181 -0.398415 0.867697 
0.300771 -0.755832 0.131459 0.436925 -0.296862 0.803326 
-1.071536 1.101850 0.011508 -0.747628 -0.338328 0.561012 
0.090693 0.685560 -0.074094 0.388128 0.200582 -0.868183 
-0.394899 -0.446886 0.093669 -0.724803 -0.205316 0.647559 
-1.371879 1.286308 -0.252428 -0.809419 -0.335377 0.465019 
-0.395267 1.642187 1.284455 -0.443603 -0.371676 0.752964 
0.498628 0.099532 0.228465 0.665608 -0.323889 0.660629 
0.733811 1.248986 0.838132 0.788733 -0.393763 0.457019 
0.469411 1.239677 1.074339 -0.111191 -0.726519 0.478695 
0.735851 1.861984 1.519192 0.242912 -0.407684 0.840489 
-0.472622 0.556772 0.144618 0.031622 0.382819 -0.756242 
1.692488 2.131784 0.566162 0.832932 -0.354727 0.395855 
-1.224986 3.147379 0.299400 -0.874186 0.287365 0.360843 
1.538561 1.067501 -0.193499 0.574897 -0.265925 0.770624 
0.022669 0.148765 0.550533 0.113800 -0.226232 0.959646 
1.306574 1.331981 0.257936 0.699188 -0.422311 0.545038 
-1.342651 2.751735 0.196588 -0.966673 0.042388 0.205361 
1.035112 -0.000293 -0.152763 -0.424075 0.181697 -0.873244 
-0.949162 -0.089860 -0.264768 -0.541319 -0.166480 0.785694 
-0.477837 1.642858 1.238211 -0.525151 -0.436146 0.709550 
-0.724465 1.121714 0.402628 0.505079 0.586246 -0.606526 
0.575534 1.214952 1.002397 0.602241 -0.505168 0.580355 
0.565699 1.364205 1.124149 0.816450 -0.405707 0.402636 
-0.779988 1.850718 1.002984 -0.821300 -0.098728 0.529474 
0.368018 -0.355791 0.221541 0.673373 -0.270194 0.686822 
-1.124030 1.336129 0.232945 -0.807095 -0.303081 0.493358 
-0.398276 -1.318380 -0.034820 -0.397655 -0.232497 0.616656 
-0.352907 -0.433754 0.172127 -0.714450 -0.252108 0.646846 
1.733934 2.757405 0.949298 -0.875753 0.276342 -0.383162 
-0.969606 0.946326 -0.043478 -0.729903 -0.351179 0.579827 
-0.833193 1.789160 0.874554 0.600018 0.454235 -0.589201 
1.565266 2.997331 1.450126 0.836553 -0.298888 0.455692 
-1.003899 0.720569 -0.167031 -0.689688 -0.335558 0.629844 
-0.651353 1.426156 0.789885 0.432421 0.559624 -0.662278 
-1.121516 1.598647 0.528975 -0.857382 -0.275772 0.434457 
-0.958982 0.209871 -0.246170 0.494960 0.265250 -0.766449 
-1.033218 3.006586 0.820492 0.742486 -0.276432 -0.594103 
0.258061 1.032277 0.314355 0.896842 0.383773 -0.031633 
1.119381 1.140406 0.324524 0.685471 -0.430016 0.566287 
-0.751520 0.765755 0.175319 -0.830026 -0.333190 0.438571 
-0.973397 1.104421 0.142728 -0.772306 -0.325316 0.532342 
-0.610124 0.224732 0.081939 -0.770523 -0.296540 0.548197 
-0.888630 -0.056484 -0.230539 0.470991 0.207087 -0.804513 
0.317054 -0.920210 -0.004768 -0.232232 0.026236 -0.967974 
-0.916248 1.289623 0.446477 -0.843325 -0.284836 0.450954 
0.164138 -0.800458 0.158236 0.114406 -0.392757 0.906303 
0.780186 -0.271388 -0.077266 -0.318860 0.146791 -0.914105 
0.172218 0.379862 0.577195 0.295523 -0.043453 0.953050 
-0.212236 -1.010918 -0.008870 0.082872 0.047482 -0.985927 
-0.473182 0.076786 0.037029 -0.075541 0.158739 -0.888818 
-0.355433 -1.270229 -0.069448 0.129987 0.237280 -0.951747 
-0.570534 1.602308 1.110866 -0.854558 -0.293698 0.427910 
-0.752338 0.810452 0.234885 -0.868634 -0.287526 0.400402 
-0.436771 -0.222322 0.101080 -0.779849 -0.209152 0.583526 
1.120209 2.183775 1.515066 0.692940 -0.509257 0.493960 
0.601308 1.027220 0.763386 0.223978 -0.739259 0.561135 
-0.456388 0.472205 0.079492 0.018301 0.253483 -0.870064 
0.479997 -0.207652 0.095902 0.668727 -0.242395 0.698891 
-1.156929 1.849660 0.589949 0.754363 -0.054703 -0.617138 
0.273481 -0.273831 -0.004905 0.497150 -0.058117 -0.849874 
0.174057 -0.519177 0.299016 0.213265 -0.351145 0.901230 
-1.298507 1.805629 0.340413 -0.897983 -0.284214 0.270414 
-0.314858 -0.536477 0.038952 -0.207135 0.029117 -0.916083 
-0.123947 -0.742356 0.012109 0.037634 -0.050388 -0.993808 
0.497217 1.054802 0.872205 -0.787060 0.239401 -0.398508 
0.145640 1.109453 0.382088 0.723265 0.036184 0.606306 
0.341833 -0.446611 0.215373 0.658094 -0.285050 0.695410 
-1.453712 1.454588 -0.161139 -0.857021 -0.309103 0.409040 
-0.491870 1.204619 0.812264 -0.300847 -0.568211 0.618351 
-0.054451 0.027804 -0.132848 -0.478497 -0.024187 -0.863240 
-1.081914 2.986799 0.762184 -0.771221 0.266261 0.566086 
0.670295 0.461646 0.234708 0.660766 -0.425466 0.615548 
0.427023 0.151224 0.361500 0.653604 -0.255842 0.707463 
-0.088624 1.289142 0.369264 -0.408388 0.757710 0.490081 
-1.176847 2.471107 0.792379 -0.667236 0.158998 0.697809 
-1.262660 2.519774 0.678584 -0.938586 -0.150885 0.295230 
0.577512 -0.754592 -0.068434 -0.301031 0.115378 -0.937519 
0.697105 0.331604 0.042553 -0.043948 0.226761 -0.843872 
-0.906857 3.206386 0.839845 -0.779164 0.327227 0.528151 
1.321800 2.480457 1.554088 -0.679023 0.340980 -0.634020 
-0.906851 2.647452 1.047204 0.658843 -0.012937 -0.739988 
1.370641 2.445060 1.478483 -0.719577 0.355061 -0.584803 
-0.578542 -0.756416 -0.106804 0.381439 0.076729 -0.910834 
0.508576 1.287965 0.992595 -0.617408 0.537838 -0.546278 
0.453607 -0.626418 0.013283 -0.115848 0.112272 -0.932289 
-1.117178 1.154386 -0.032166 0.713178 0.354885 -0.587349 
0.747094 -0.361446 -0.079249 -0.310073 0.135646 -0.922273 
1.011372 1.609227 0.905097 -0.536487 0.508861 -0.639666 
-1.226443 0.864138 -0.326056 -0.684669 -0.363207 0.615987 
0.591907 0.705627 0.400941 -0.606004 0.596585 -0.232527 
-0.823424 2.128920 1.035711 -0.688345 0.070345 0.713274 
-0.024595 0.448279 -0.126246 -0.438945 0.097338 -0.891243 
-0.284640 0.890516 0.194835 -0.833659 0.371804 -0.328342 
-0.447474 0.334521 0.374867 -0.645383 -0.255210 0.684431 
-1.061051 2.130625 0.845777 -0.735838 -0.214040 0.626607 
1.233127 1.975295 1.231676 -0.565497 0.561579 -0.593173 
1.559657 2.473980 1.170614 0.802948 -0.247190 0.528420 
1.636365 2.272570 0.886088 -0.784813 0.267341 -0.526118 
1.600716 2.475580 1.076371 -0.835801 0.427779 -0.305203 
0.063901 0.512242 -0.100348 0.427044 0.102539 -0.892972 
-0.618933 1.332960 0.732157 0.422303 0.598307 -0.651759 
0.755582 1.691393 1.326855 0.655308 -0.414327 0.622210 
-0.058400 -0.664537 0.262685 -0.294147 -0.414045 0.855935 
0.754136 0.710821 0.170344 -0.261611 0.506140 -0.708948 
-0.747524 -0.307898 -0.170403 0.420578 0.172348 -0.845352 
-1.062188 3.296781 0.535735 -0.806159 0.366929 0.460136 
-1.263597 2.335397 0.446728 0.942199 0.156689 -0.264100 
-0.432176 1.726162 1.224528 0.793939 0.313818 -0.413427 
0.769065 1.833099 1.462594 0.693667 -0.475662 0.525774 
-0.794626 1.585277 0.803931 0.509877 0.463910 -0.645320 
-0.834548 -0.405787 -0.222047 -0.489190 -0.095128 0.847210 
-0.603942 1.040114 0.438507 0.719546 0.437803 -0.507139 
-0.911587 1.332257 0.502922 -0.855272 -0.278099 0.437178 
1.668239 1.830295 0.004643 -0.839516 0.360870 -0.334590 
-1.051162 3.171747 0.657009 0.758647 -0.336217 -0.533615 
-0.603647 1.789935 1.167669 -0.705496 -0.129945 0.689506 
-0.170725 -0.036636 -0.069977 -0.527856 -0.031310 -0.843996 
0.933778 0.795414 0.204048 0.684404 -0.437517 0.575963 
-0.086759 -0.283929 -0.091521 -0.414645 -0.166232 -0.873793 
-0.838732 -0.023947 -0.191030 -0.636703 -0.234976 0.709295 
1.061041 2.068826 1.393674 0.738698 -0.383589 0.553533 
-1.143958 1.025078 -0.212138 -0.712475 -0.373745 0.590474 
-0.574578 1.066753 0.520769 0.863726 0.250033 -0.396345 
-0.037700 0.460697 0.580199 -0.107420 0.016442 0.984730 
1.328045 0.824502 -0.129205 -0.499958 0.284058 -0.799207 
0.823891 1.090245 0.593834 0.767678 -0.359658 0.517708 
-0.362588 0.706926 0.238963 -0.926494 0.308721 -0.162420 
-0.870140 1.830424 0.921896 -0.826326 -0.023026 0.538157 
-1.153489 2.866253 0.703885 0.838543 -0.155001 -0.480584 
-1.059378 0.890055 -0.176912 -0.700321 -0.359229 0.611894 
-1.369705 1.062308 -0.404887 -0.690837 -0.394276 0.595602 
0.393117 0.408386 0.103972 0.342845 0.304197 -0.825092 
0.020159 -0.054363 0.482721 0.069439 -0.300770 0.949133 
-0.861745 0.856233 -0.044691 0.548411 0.394621 -0.671699 
1.090177 1.477592 0.673326 0.729727 -0.515278 0.440117 
-0.883203 0.293207 -0.158590 -0.661342 -0.276702 0.675251 
-0.551725 0.615070 0.437759 -0.397868 -0.515387 0.748158 
-0.024144 0.068617 0.531050 -0.120040 -0.290497 0.946093 
-0.141067 -0.188970 -0.080824 -0.512797 -0.073394 -0.842892 
0.751537 0.527184 0.198563 0.655121 -0.417015 0.626739 
0.148198 0.032700 0.503342 0.258241 -0.270112 0.925899 
-0.274263 -0.449616 0.292592 -0.521509 -0.305534 0.764227 
0.438472 0.097620 0.314965 0.656953 -0.261285 0.701246 
-0.315030 -0.675166 0.157836 -0.613678 -0.271343 0.732082 
1.510973 2.437450 1.242250 -0.799154 0.414998 -0.399450 
0.519060 0.525294 0.142150 0.069807 0.401152 -0.773598 
-0.882506 1.160184 0.330317 -0.811623 -0.303704 0.486991 
0.591241 1.200421 0.858007 -0.317065 0.720255 -0.608226 
0.296974 0.930988 0.280360 0.920184 0.352971 -0.093230 
0.135381 -0.855639 0.119180 0.075031 -0.386172 0.911798 
0.163420 0.006210 -0.076985 0.499701 -0.030538 -0.859743 
-0.239215 -0.665074 0.202491 -0.407361 -0.359338 0.807109 
-0.685419 0.422569 -0.038273 0.215667 0.249433 -0.796003 
1.530285 1.612426 0.019040 -0.884589 0.161875 -0.409994 
-1.276840 3.077560 0.221764 0.904602 -0.239260 -0.321595 
-0.398803 0.248980 0.046012 -0.150641 0.160449 -0.946413 
0.054931 -0.677772 0.028173 0.155619 -0.061760 -0.972991 
0.022167 -0.849487 0.001948 0.325987 0.009163 -0.935493 
-0.088315 -0.485477 -0.023474 -0.153049 -0.414135 -0.890948 
-1.291814 1.438583 0.105579 -0.827709 -0.301431 0.461422 
-0.547230 1.448443 1.030647 -0.557030 -0.533332 0.623090 
-0.896845 0.965238 0.016337 0.608313 0.452001 -0.637592 
0.802012 0.946447 0.481175 0.752982 -0.360367 0.540570 
1.190893 2.414128 1.647445 -0.760343 0.545451 -0.329935 
1.478623 2.122971 1.045494 0.771558 -0.526081 0.347491 
-1.167745 2.907797 0.644677 0.850541 -0.165185 -0.453754 
-0.591520 0.510518 0.318551 -0.710676 -0.434778 0.500930 
-0.969108 0.369061 -0.215427 -0.661221 -0.289940 0.667687 
-1.003615 1.654108 0.695431 -0.836787 -0.320428 0.428857 
1.249648 1.421599 0.450457 0.690900 -0.524748 0.485963 
-0.059541 0.887849 0.556937 -0.201414 -0.125947 0.960912 
-1.122647 0.386229 -0.328802 0.550889 0.274135 -0.733889 
0.791478 1.150796 0.612914 -0.444598 0.680559 -0.562655 
-0.343570 0.405191 0.050369 -0.360013 0.152407 -0.869869 
-0.341458 -0.780427 -0.017103 0.016479 0.020542 -0.910573 
-0.707347 0.788473 0.293756 -0.606699 -0.371279 0.634667 
-0.181153 -0.123722 -0.063334 -0.538489 -0.046676 -0.836712 
-1.320647 2.513210 0.267650 -0.976915 -0.077488 0.170061 
-0.404485 0.366078 0.430592 -0.530103 -0.193369 0.814518 
0.177257 -0.535924 0.009588 -0.013604 -0.249016 -0.941100 
-0.626733 2.237070 1.209659 -0.322285 0.046428 0.904126 
-0.895196 0.095781 -0.212834 -0.642834 -0.252445 0.696748 
-0.069558 0.963226 0.040469 -0.451042 0.492854 -0.725262 
0.344622 -0.447226 0.077235 0.265871 0.069284 -0.920468 
0.771272 -0.439603 -0.106332 0.487434 -0.165517 0.853336 
0.910776 0.597254 0.019286 -0.283005 0.304274 -0.793421 
-0.331109 0.556559 0.102372 -0.587128 0.282893 -0.694618 
-0.937361 1.480667 0.566935 0.621135 0.446884 -0.562366 
-0.038156 -0.292205 0.381971 0.002191 -0.310254 0.946098 
0.938763 2.087377 1.595117 -0.693124 0.625729 -0.292655 
-0.227801 1.030853 0.463783 -0.789100 0.195347 0.450815 
-0.994478 1.291533 0.296176 0.662293 0.431464 -0.558491 
-0.207181 -0.073684 0.446116 -0.425911 -0.272641 0.832490 
1.239887 1.264261 0.304398 0.675366 -0.468628 0.547311 
1.605358 1.875686 0.255305 0.726992 -0.597210 0.212061 
0.176161 1.184495 0.258735 0.801783 0.539327 -0.239328 
1.397871 2.017185 1.027573 -0.701206 0.538408 -0.429099 
0.266186 -0.522029 -0.015403 0.298092 -0.092329 -0.869409 
0.169423 1.007493 0.540218 0.381223 -0.177759 0.852388 
1.596442 2.232619 0.952870 0.820013 -0.465216 0.327029 
0.971195 0.329596 -0.016734 0.585892 -0.295429 0.741537 
-1.332811 1.137852 -0.356407 -0.700501 -0.402160 0.587128 
-0.895129 2.268548 0.997030 -0.688650 0.080448 0.709924 
-0.965097 3.467589 0.530951 0.779015 -0.402750 -0.475975 
-0.385110 0.629605 0.262228 -0.793813 0.130657 -0.255280 
-0.017525 -0.927184 0.086146 -0.421819 -0.305928 0.848640 
-0.651363 0.127812 -0.040643 0.264090 0.219085 -0.811759 
0.547594 1.247285 1.079208 0.499685 -0.614548 0.608733 
-0.794219 0.248302 -0.113929 0.519101 0.272393 -0.764160 
0.913072 1.815348 1.319944 0.640063 -0.421232 0.631674 
-0.935632 2.362095 0.995557 0.633321 0.130255 -0.746614 
-1.223028 2.304870 0.619575 0.917396 0.155209 -0.351636 
0.612872 0.799667 0.494637 -0.715388 0.475322 -0.487794 
0.257779 0.690560 0.498037 0.451622 0.291557 0.816175 
0.793387 0.186718 0.016871 -0.263347 0.246490 -0.827048 
1.491699 2.089234 0.971966 0.759740 -0.524104 0.371992 
0.718729 0.641719 0.372266 0.588191 -0.474972 0.592144 
-0.118240 -0.850190 -0.005002 -0.004496 -0.018004 -0.994939 
-0.752816 -0.601868 -0.189982 0.466164 0.062492 -0.877929 
0.076308 -0.290801 -0.095266 0.390396 -0.184228 -0.882994 
0.840635 1.890328 1.444586 0.705157 -0.451905 0.533115 
-0.472814 1.596186 1.099714 0.491603 0.528869 -0.645937 
1.242231 1.332175 0.335371 -0.648460 0.493675 -0.554923 
1.034301 1.433850 0.691791 0.738983 -0.493773 0.444975 
-0.547351 -0.434814 -0.047689 0.360313 0.156808 -0.873683 
0.955097 0.144554 -0.075946 -0.395642 0.215468 -0.860374 
-1.105788 2.293498 0.854943 0.723475 0.137153 -0.672097 
-1.406723 1.442050 -0.104300 0.827937 0.327494 -0.445648 
1.386889 0.683326 -0.199287 0.536698 -0.226181 0.807324 
1.346720 2.061523 1.183556 0.684660 -0.643741 0.317140 
0.451476 1.343187 1.189553 -0.320640 -0.764927 0.439316 
-0.278355 0.694078 0.490598 -0.488475 0.301487 0.798868 
1.242253 1.179285 0.212149 0.669072 -0.429704 0.583393 
0.104405 -0.121248 -0.101220 0.476789 -0.072984 -0.860561 
0.862406 1.725065 1.265133 0.729522 -0.574037 0.319150 
0.854520 1.036369 0.510050 0.749725 -0.352262 0.545961 
0.288754 -0.369872 0.055795 0.457253 -0.004847 -0.881001 
0.090372 -0.677483 0.245340 0.218531 -0.423994 0.872845 
0.383245 -1.157768 -0.027767 0.742061 0.117625 0.627580 
0.065384 -0.870489 0.118491 0.176523 -0.367407 0.889380 
0.108193 -0.493012 0.317871 0.084117 -0.325154 0.935871 
-0.245565 0.610905 -0.037217 -0.601091 0.112773 -0.763843 
-0.732303 1.118279 0.474425 -0.835258 -0.291998 0.459255 
1.665344 2.528186 0.934716 0.843974 -0.209223 0.477971 
1.636533 2.589238 1.078247 0.833641 -0.227538 0.489512 
-0.125867 1.050234 0.556838 -0.016705 -0.039518 0.942425 
-0.558644 -0.588427 -0.076325 -0.608904 -0.152015 0.768345 
0.463054 -1.069658 -0.052436 0.691956 0.085445 0.666023 
1.321792 1.513997 0.367452 -0.723775 0.453864 -0.473478 
-0.607748 1.865494 1.125267 0.521645 0.378021 -0.741548 
-0.267865 -0.215213 -0.010444 -0.495874 -0.050868 -0.846164 
-0.290451 0.947600 0.277986 -0.914456 0.362146 -0.105994 
-0.397774 -0.156114 0.070313 -0.189119 0.113952 -0.912393 
1.236189 1.674873 0.839765 0.602775 -0.692334 0.338926 
-0.504546 -0.361222 0.006416 -0.705351 -0.180462 0.669628 
0.617131 0.468470 0.301051 0.662031 -0.446066 0.590284 
0.296992 0.893930 0.363619 0.901349 0.229597 0.266536 
0.409112 -0.349876 0.069485 0.194568 0.094751 -0.906395 
-0.759539 1.072668 0.300700 0.521873 0.557304 -0.620359 
-0.492880 0.352227 0.318935 -0.737637 -0.323167 0.554508 
-0.397959 0.555121 0.441235 -0.545747 0.014087 0.822980 
-1.001344 2.886302 0.945156 0.720857 -0.222608 -0.646054 
-0.442441 0.586039 0.542527 -0.301823 -0.547878 0.779733 
-0.779324 0.993178 0.285811 -0.818493 -0.308359 0.472973 
0.786793 1.763586 1.353338 0.691591 -0.400297 0.593840 
-0.518744 1.544764 1.141015 -0.442270 -0.573572 0.640891 
-0.502433 1.914168 1.233178 -0.149086 0.078243 0.957864 
0.692854 0.541747 0.025936 -0.058211 0.256237 -0.866500 
1.062009 0.962895 0.167460 -0.529795 0.471099 -0.682466 
0.180992 -0.448799 0.328934 0.195246 -0.313537 0.920710 
1.420797 2.071055 1.080533 0.734013 -0.570304 0.351871 
0.368250 0.575855 0.466816 0.588716 0.049401 0.790517 
0.687622 1.373129 0.931413 -0.353754 0.689689 -0.593345 
-0.788725 2.922998 1.119884 -0.391287 0.247340 0.859309 
-1.340873 2.664188 0.185496 0.961164 -0.024039 -0.206087 
1.450985 1.182433 -0.088676 0.664571 -0.276764 0.679912 
-1.388129 1.715268 -0.192788 0.940556 -0.270845 -0.167609 
-0.501527 1.388444 0.859144 0.718394 0.446890 -0.511300 
-0.778515 2.456742 1.122605 -0.760171 -0.001024 0.636140 
1.605333 2.608559 1.162071 -0.832439 0.367979 -0.382351 
-0.355973 0.758652 0.288771 -0.924145 0.320075 -0.052578 
0.580492 1.160162 0.948869 0.322325 -0.652236 0.560520 
-1.096554 1.517115 0.448665 0.725384 0.382314 -0.508288 
-0.221927 -0.417609 -0.019956 -0.451793 -0.152308 -0.841182 
-0.730372 0.696651 -0.046508 0.319225 0.307660 -0.775427 
-0.788305 3.582629 0.687350 0.750423 -0.405537 -0.513296 
0.846874 -0.205362 -0.099146 -0.339603 0.150425 -0.907624 
-0.963814 2.741909 0.977921 -0.755729 0.146316 0.627086 
-1.298544 2.639911 0.521499 0.853681 -0.202277 -0.449119 
-1.003646 2.349487 0.938707 -0.661790 0.050837 0.738588 
-0.914218 1.782903 0.887133 -0.751829 -0.216339 0.552414 
-0.669018 2.379986 1.204990 -0.321942 0.046547 0.926184 
-0.871920 2.705086 1.072881 0.669978 -0.043757 -0.726251 
0.386100 -1.287159 -0.037630 0.862030 0.364803 0.007900 
1.162336 1.930927 1.256830 0.624744 -0.654580 0.411625 
1.538256 1.947767 0.627303 0.828403 -0.221999 0.487843 
-1.350258 2.058190 -0.274180 -0.983373 0.047837 0.104946 
-0.894837 0.019456 -0.229516 -0.636078 -0.242851 0.705020 
-0.330603 0.797294 0.213233 -0.895841 0.327984 -0.257070 
-1.060913 3.106642 0.696512 0.766859 -0.309267 -0.542771 
-1.124730 0.795888 -0.253961 -0.686729 -0.350240 0.622606 
-0.465122 -1.054759 -0.067532 -0.686604 0.108246 0.681858 
-0.645261 2.013361 1.131439 -0.736074 0.124928 0.661731 
-1.168643 1.368355 0.186979 0.762031 0.327560 -0.536743 
-0.767951 0.312545 -0.087821 0.448609 0.270772 -0.764879 
-0.245553 -0.731324 0.168217 -0.332316 -0.354632 0.837351 
-1.308130 2.888759 0.305113 0.928847 -0.131021 -0.315408 
0.300724 0.779108 0.139429 0.784989 0.376254 -0.399137 
-0.237284 -0.017918 -0.029017 -0.523904 -0.049603 -0.846844 
1.155949 1.498726 0.623246 0.718847 -0.531166 0.442884 
0.479602 1.321166 1.054569 -0.730906 0.371454 -0.479723 
-0.642390 0.301984 0.075636 -0.767728 -0.310006 0.544769 
0.909112 1.534176 0.895847 -0.474342 0.593080 -0.595064 
0.192805 -0.684327 0.219304 0.267383 -0.402284 0.869164 
-1.395690 1.569889 -0.042272 -0.892933 -0.035960 0.298976 
-0.097170 0.809098 -0.022840 -0.475253 0.362552 -0.779237 
-0.982179 0.515251 -0.210340 0.558294 0.315104 -0.721049 
1.053509 1.294659 0.541016 0.730208 -0.455465 0.490439 
0.361270 0.574150 0.174953 0.571053 0.490081 -0.584760 
1.754441 2.010092 0.065893 0.800342 -0.533676 0.266531 
0.553996 0.107504 0.173661 0.666191 -0.335174 0.654822 
1.550434 2.163136 0.952300 0.791103 -0.491759 0.350571 
0.271047 -0.942651 0.055329 0.096956 -0.324444 0.919911 
1.442040 2.270682 1.243808 -0.761711 0.492540 -0.379815 
-1.425332 1.248408 -0.381463 -0.731071 -0.395245 0.545591 
0.394267 0.046253 0.362920 0.654829 -0.238713 0.716384 
-0.678371 -0.434974 -0.141152 0.396428 0.153908 -0.865801 
0.602332 0.547977 0.112097 -0.035932 0.356438 -0.817342 
-0.044881 -0.669335 0.031770 -0.188348 -0.061135 -0.969714 
0.962378 1.315838 0.605623 -0.527392 0.634590 -0.531203 
-0.931684 0.876059 -0.031779 -0.748085 -0.352668 0.550926 
-0.964556 0.623533 -0.154870 -0.684206 -0.321678 0.640062 
-0.716028 -0.150222 -0.113837 -0.635282 -0.213819 0.722044 
0.394864 0.357529 0.051566 0.284442 0.188091 -0.923758 
-0.371445 0.137605 0.402350 -0.661560 -0.230465 0.698534 
-0.275952 0.985816 0.384608 -0.923410 0.319325 0.196943 
-0.684952 -0.362183 -0.137648 0.398556 0.173057 -0.856202 
-0.798492 0.664662 0.039715 -0.753099 -0.370974 0.532253 
-0.992321 2.636631 0.944304 -0.726538 0.155729 0.659115 
-0.386392 -0.931719 -0.012428 0.264153 0.075622 -0.950626 
0.650833 -0.714535 -0.097711 0.457586 -0.148297 0.874746 
-0.969690 0.832530 -0.112484 -0.714023 -0.350900 0.603147 
1.564299 2.681448 1.282352 0.825509 -0.322901 0.452803 
-1.268972 2.116455 0.454471 -0.861618 0.242724 0.326773 
1.325120 1.715348 0.744162 0.686884 -0.586244 0.355093 
0.148024 0.637667 -0.063869 0.460958 0.152162 -0.841100 
1.270075 1.833102 0.994406 0.654660 -0.559302 0.494322 
0.202037 -1.032916 -0.006404 -0.052250 0.042258 -0.987191 
0.163061 -1.120845 -0.007348 -0.039290 -0.204966 0.973403 
-0.657256 1.022218 0.386906 0.529153 0.610574 -0.576456 
1.574412 1.733005 0.095488 -0.850475 0.279999 -0.388464 
0.036740 1.285095 0.388505 0.225042 0.773112 0.582464 
0.394487 0.616349 0.396489 0.650279 0.278225 0.684152 
1.210642 1.829728 1.033881 -0.569024 0.707906 -0.384531 
-0.066512 1.228948 0.184377 -0.557254 0.346593 -0.747024 
-1.334996 0.857968 -0.414344 -0.661330 -0.355760 0.629455 
-1.023921 2.211667 0.899868 0.654974 0.164613 -0.708840 
-0.982814 2.138811 0.911358 0.628343 0.195930 -0.715796 
-1.453556 1.510438 -0.212845 -0.890334 -0.078509 0.301656 
-1.211740 1.709930 0.515592 -0.807787 -0.374438 0.425517 
-1.282871 0.883903 -0.374806 0.608452 0.373874 -0.660674 
-1.419622 1.581136 -0.255171 -0.933962 0.278260 0.147775 
1.236453 0.800837 -0.057547 0.600631 -0.322378 0.724372 
-0.075189 0.101776 -0.129183 -0.512871 0.017897 -0.854100 
1.609196 2.197317 0.877850 0.807589 -0.463537 0.352324 
-0.967378 1.568990 0.663421 -0.856587 -0.280047 0.433241 
1.481490 2.176531 1.105511 0.783090 -0.528057 0.314574 
0.375739 -1.405159 -0.082822 -0.254504 0.068715 -0.958646 
-1.266157 1.774190 0.398465 0.849291 0.046174 -0.440575 
-0.721255 0.954040 0.253029 0.585004 0.553668 -0.581986 
-1.017783 1.826453 0.741979 0.651250 0.033157 -0.707939 
-1.311656 1.764332 0.276067 -0.898730 -0.213840 0.270798 
0.324630 0.667306 -0.000106 0.727039 0.187100 -0.636435 
1.622680 1.944837 0.314989 -0.722600 0.622187 -0.248503 
-0.719878 2.174352 1.091161 -0.739680 0.140845 0.654185 
1.200063 1.123572 0.183216 -0.605452 0.449440 -0.635895 
-0.947301 2.047845 0.918330 -0.776799 -0.194072 0.569805 
-0.870944 3.063713 1.013707 0.602036 -0.330996 -0.720271 
-1.164595 2.155009 0.720587 -0.823505 -0.117678 0.522154 
-0.681999 0.363226 0.051416 -0.760932 -0.313835 0.552924 
-0.905279 3.127935 0.909424 0.633787 -0.347539 -0.671886 
0.003698 1.010719 0.581280 0.126247 0.070278 0.975489 
0.237371 0.023658 0.456845 0.429281 -0.263087 0.836482 
-0.637967 0.795091 0.174198 0.510575 0.500047 -0.585811 
-1.016744 1.070898 0.044689 -0.751419 -0.336864 0.556411 
-0.843405 1.389283 0.570089 0.568661 0.505792 -0.576742 
-0.263096 -0.286468 -0.009148 -0.504193 -0.057998 -0.842456 
1.327682 1.401234 0.267696 -0.684203 0.433280 -0.552360 
1.688792 2.876894 1.156716 0.866371 -0.278801 0.412708 
-1.084200 1.851915 0.763077 -0.780621 -0.282509 0.524337 
-0.649260 2.310192 1.199989 0.832466 0.182299 -0.445972 
-0.484306 1.596124 1.185163 -0.059486 -0.645478 0.641658 
0.310777 -0.257284 0.062738 0.416249 0.034371 -0.897889 
1.751631 2.382706 0.698992 0.856220 -0.350408 0.366017 
1.104354 1.591088 0.782621 -0.591565 0.511423 -0.595137 
-0.658831 0.938076 0.282518 0.669657 0.527767 -0.506304 
1.399131 2.552158 1.508033 0.802903 -0.368106 0.463721 
0.018486 -0.240591 0.402790 -0.003280 -0.313917 0.945468 
1.524417 1.839216 0.450058 0.726060 -0.594602 0.255970 
-0.157476 0.044406 0.505227 -0.301350 -0.265038 0.910448 
1.614942 2.313050 0.941173 0.833363 -0.428542 0.328716 
1.031669 1.340049 0.607004 0.739468 -0.464271 0.470850 
-1.304030 2.326751 0.276326 0.960612 0.166317 -0.179331 
1.529402 2.223758 1.079328 0.812492 -0.494277 0.307455 
-1.164369 2.775851 0.752478 -0.743665 0.298557 0.590776 
1.154082 0.224635 -0.170028 0.505617 -0.199942 0.832369 
-1.215071 1.561258 0.371505 0.797415 0.321290 -0.482270 
-1.332408 2.820243 0.303326 -0.952614 0.061502 0.258043 
0.762403 1.096209 0.665136 0.784091 -0.350375 0.503499 
-0.308707 -1.166658 -0.029802 0.341233 0.081964 -0.913134 
0.658738 1.581341 1.273436 0.774397 -0.504562 0.331576 
0.105527 1.281046 0.367959 0.497193 0.751035 0.369099 
1.000512 1.090376 0.350521 -0.521841 0.548902 -0.618216 
-0.527058 0.296948 0.232804 -0.800821 -0.359601 0.465612 
0.113454 0.752476 0.514141 0.135301 -0.020197 0.980352 
-1.081373 0.457151 -0.292162 -0.660082 -0.305853 0.658998 
0.023843 -0.521926 0.315777 0.152607 -0.278842 0.925193 
-0.686643 0.193343 -0.025287 -0.734480 -0.257761 0.616654 
-0.980672 1.432895 0.479732 0.656972 0.446489 -0.533171 
0.724079 -0.244643 -0.023515 0.550867 -0.226685 0.790479 
0.534984 0.909103 0.691936 -0.733567 0.435849 -0.515255 
0.184598 -0.341631 0.355624 0.248468 -0.294980 0.891171 
-0.529518 0.900967 0.553918 -0.704472 -0.366721 0.591048 
0.694706 1.521503 1.095684 -0.346436 0.637103 -0.644063 
-1.127832 2.623861 0.833941 0.787491 -0.032705 -0.576758 
-0.347018 -0.335058 0.262552 -0.711402 -0.269790 0.646477 
-1.328783 2.061683 -0.124389 0.963380 -0.120377 -0.184107 
1.399451 1.454639 0.205968 -0.713556 0.380604 -0.552308 
-1.200001 2.923160 0.565641 0.874896 -0.155475 -0.410572 
-1.249935 1.688848 0.437138 0.815096 0.197242 -0.507647 
0.260913 -0.650135 0.198206 0.454477 -0.342095 0.787668 
0.016313 1.213404 0.158245 0.439402 0.284821 -0.836677 
-0.767747 1.734717 1.006146 -0.754580 0.001626 0.635345 
-0.990008 1.005533 -0.001319 -0.737770 -0.345152 0.571866 
-0.749099 0.755295 -0.002232 0.410260 0.361971 -0.721210 
0.845911 0.567877 0.141223 0.648202 -0.393261 0.647267 
-0.885554 3.425633 0.682968 -0.765109 0.385113 0.508868 
0.006817 0.301578 -0.166457 0.467277 0.068239 -0.880650 
-0.949879 0.908873 -0.110201 0.613685 0.389417 -0.661888 
-0.801175 3.189848 1.000391 -0.466042 0.385410 0.766725 
1.000454 1.017934 0.336182 0.702228 -0.376266 0.586934 
1.077426 1.099766 0.284508 -0.553882 0.510703 -0.626011 
-1.079787 2.224008 0.857983 -0.774390 -0.278706 0.546018 
-1.432130 1.304562 -0.333538 0.752944 0.380609 -0.516563 
-1.314909 1.507755 0.162882 -0.841867 -0.292243 0.445847 
-1.344434 0.947476 -0.408763 -0.682649 -0.378772 0.607858 
-0.592924 -0.874570 -0.123075 0.471003 0.058559 -0.879999 
0.973022 -0.048463 -0.132789 0.512042 -0.187639 0.833061 
-0.613630 0.668357 0.091075 0.300134 0.362936 -0.742909 
0.455777 -0.087122 0.078241 0.236531 0.122125 -0.888940 
1.656170 2.078524 0.536016 -0.756554 0.540787 -0.301749 
-1.274710 2.658425 0.593842 0.911753 -0.033819 -0.389568 
1.597206 3.062969 1.429687 -0.803730 0.263559 -0.520198 
1.480350 2.264285 1.185121 0.759483 -0.235844 0.594612 
-0.221871 1.206607 0.618167 -0.803398 -0.359881 -0.457562 
-0.247256 0.992826 0.206634 -0.787244 0.380544 -0.386613 
0.381822 -0.113790 0.310965 0.662230 -0.252586 0.704095 
-0.590895 0.119356 -0.005385 0.111114 0.195827 -0.831658 
0.183562 0.890836 0.056558 0.603308 0.426972 -0.656534 
1.164609 0.877670 0.027566 0.629717 -0.373549 0.679998 
-0.432655 0.471285 0.423006 -0.503824 -0.133731 0.830956 
0.321994 0.857221 0.259733 0.924255 0.326432 -0.124940 
0.713920 1.509304 1.165844 0.668938 -0.456406 0.464940 
-1.280294 3.020684 0.262947 0.909018 -0.206929 -0.325213 
-0.312247 0.736961 0.076329 -0.743590 0.480658 -0.412405 
0.072976 0.440384 -0.101594 0.413409 0.080160 -0.904067 
-1.371903 1.520717 0.079434 -0.853278 -0.293817 0.426519 
0.209817 1.064017 0.412115 0.268510 0.693062 0.482029 
-1.272357 2.130208 0.379414 0.936875 0.248984 -0.215903 
1.637852 3.083745 1.368103 0.844301 -0.277208 0.456325 
0.109217 -0.608636 0.272616 0.154964 -0.402927 0.896645 
-1.184256 0.972054 -0.265827 -0.697632 -0.374924 0.603963 
1.524263 2.542107 1.285867 0.792349 -0.327378 0.502885 
-0.643332 0.689658 0.347697 -0.454137 -0.467449 0.748934 
-1.049848 3.247144 0.596298 0.759686 -0.364117 -0.513237 
-0.566780 0.503633 0.428475 -0.466783 -0.558467 0.681225 
-0.285856 0.384986 0.511822 -0.396254 -0.120682 0.899508 
0.150020 1.159968 0.182316 0.595643 0.485835 -0.591257 
1.602324 1.209091 -0.199664 -0.543532 0.291065 -0.784021 
0.708416 0.920579 0.423109 -0.563411 0.581402 -0.549567 
0.180749 -0.605499 0.027306 -0.014159 -0.104163 -0.982875 
0.346652 0.061504 0.029001 0.356784 0.077148 -0.909960 
1.563214 1.818896 0.261629 -0.814044 0.374713 -0.399854 
0.546371 -0.626139 -0.024491 -0.273994 0.130700 -0.933993 
-0.717275 0.280160 -0.031807 -0.737523 -0.269911 0.609758 
0.674285 1.012586 0.585253 -0.396690 0.705529 -0.581751 
0.236192 0.861457 0.468409 0.689610 0.055606 0.694393 
-0.722019 2.424097 1.188447 -0.621322 -0.034127 0.777836 
0.048061 0.442430 0.581609 0.122849 0.005039 0.982772 
0.422774 -0.455042 0.049231 0.083862 0.100128 -0.916444 
-0.713017 0.491417 -0.049482 0.255728 0.263953 -0.785975 
-0.349160 -1.000396 0.016906 -0.390240 -0.214193 0.879345 
0.287636 0.111225 0.453469 0.485359 -0.248019 0.811460 
-0.862649 0.669865 -0.045639 -0.732674 -0.341628 0.580063 
1.180808 0.498848 -0.123684 -0.442351 0.235456 -0.838120 
1.163291 2.166328 1.399662 0.742254 -0.383465 0.548745 
-1.412686 1.126884 -0.427397 -0.693144 -0.404241 0.588931 
0.047618 -0.441108 0.338968 0.027769 -0.226274 0.971470 
1.128039 1.719264 0.970627 -0.467966 0.816248 -0.278799 
-0.401339 -0.357032 0.098078 -0.757202 -0.204637 0.616189 
-1.209364 1.610490 0.429283 0.790507 0.316451 -0.486923 
-0.229230 -0.962188 0.046709 -0.061396 -0.343124 0.934727 
-1.316792 3.022892 0.162765 -0.924776 0.213073 0.290622 
-0.597991 1.647249 1.039953 0.369844 0.465977 -0.754325 
-0.852247 0.964530 0.078121 0.600877 0.478337 -0.624160 
-0.550356 1.675468 1.086414 0.407479 0.623183 -0.642105 
1.722887 2.668270 0.897283 0.868541 -0.226736 0.429122 
-1.318163 2.057619 -0.049981 0.960192 -0.107682 -0.203404 
1.240042 0.878353 -0.034530 0.612033 -0.345700 0.706805 
1.520055 0.940671 -0.216659 -0.508910 0.246608 -0.815813 
0.238298 -0.040003 -0.032389 0.496797 -0.061995 -0.860429 
-0.340387 -0.845755 0.077163 -0.528763 -0.232035 0.805750 
-1.181391 1.778762 0.591111 -0.761100 -0.469007 0.416560 
-1.266231 2.989110 0.329324 -0.860481 0.275555 0.384071 
0.876078 1.231255 0.608095 -0.485739 0.657875 -0.547041 
1.520844 2.089406 0.886344 -0.748392 0.512702 -0.392998 
-1.061032 1.307799 0.280076 -0.813692 -0.300098 0.485513 
-1.293757 2.850281 0.378920 -0.839514 0.274671 0.417344 
0.334901 0.734223 0.182829 0.878898 0.323150 -0.275567 
1.419181 2.361482 1.367912 0.738181 -0.365071 0.558077 
0.460539 1.365849 1.109234 -0.707692 0.442626 -0.512907 
0.821690 -0.531365 -0.145680 -0.424372 0.157566 -0.889692 
0.827631 0.423499 0.093192 0.648150 -0.344176 0.672283 
0.062395 1.135727 0.125959 0.400589 0.408314 -0.809450 
-0.275415 -1.037546 0.016114 0.046132 -0.339043 0.858251 
-1.342745 2.370813 -0.033454 0.988579 0.031778 -0.128492 
0.320533 0.527340 0.485941 0.437375 -0.019291 0.876172 
0.120810 -0.425661 -0.049606 0.318490 -0.270718 -0.888756 
-1.171510 1.201588 -0.017107 -0.772355 -0.330333 0.527612 
-0.899568 1.424982 0.601363 -0.855642 -0.279902 0.435242 
0.599231 1.044250 0.660614 -0.736443 0.392055 -0.531437 
1.423691 1.561104 0.207100 0.804570 -0.329225 0.376723 
-1.233774 1.753750 0.459774 0.812235 0.089900 -0.511036 
-0.055587 -0.197929 -0.111002 -0.404953 -0.144245 -0.880488 
-1.057080 1.728838 0.687907 -0.789389 -0.414678 0.420589 
0.885143 1.523969 0.976465 0.649573 -0.621562 0.302011 
0.455889 0.303698 0.047255 0.201914 0.178418 -0.928129 
-0.086240 -0.500329 0.315328 -0.078906 -0.308527 0.939293 
-0.625829 1.403540 0.869032 -0.854371 -0.287978 0.432477 
0.367897 0.647839 0.185930 0.901654 0.216257 -0.259314 
0.935388 1.897302 1.356620 0.691039 -0.401393 0.592125 
-0.438034 0.049669 0.255177 -0.750468 -0.244992 0.600470 
0.161351 0.599900 0.555541 0.144558 0.350247 0.907750 
-1.226879 2.348263 0.681215 -0.912376 -0.158276 0.365775 
-0.395461 0.574607 0.323696 -0.259145 0.609745 -0.554004 
0.711212 1.452277 0.985277 -0.358101 0.680058 -0.591026 
-0.780588 2.839602 1.140187 -0.398656 0.183715 0.873852 
-0.236567 -0.002215 0.447342 -0.461476 -0.261504 0.814151 
-0.284143 -0.915235 0.060692 -0.174305 -0.319774 0.896422 
0.242369 -0.208630 -0.028344 0.525230 -0.089126 -0.842360 
1.539496 1.501819 -0.061466 0.848429 -0.142377 0.486916 
-0.666898 2.148609 1.146429 -0.749326 0.071977 0.648571 
-1.292112 2.202610 0.355337 -0.887150 0.214725 0.269307 
-0.854211 2.607716 1.095720 0.640694 0.033580 -0.765409 
-1.420093 1.559600 -0.172924 -0.909204 0.082969 0.237279 
-0.608177 0.986386 0.511534 -0.457095 -0.531910 0.692853 
1.452793 1.499051 0.113972 -0.778789 0.286193 -0.506643 
0.011191 -1.173257 -0.029920 0.338746 -0.036577 -0.911540 
0.298706 0.453632 0.497306 0.355450 -0.074292 0.923719 
1.061562 1.748681 1.092129 -0.471545 0.727714 -0.445088 
-0.235831 0.530380 0.520311 -0.332745 -0.030073 0.926029 
-0.634525 0.881635 0.356122 0.929270 0.234224 -0.209486 
-0.140142 0.737228 -0.041639 -0.442243 0.325419 -0.781011 
1.617517 1.790304 0.073826 -0.840562 0.330642 -0.364355 
1.803975 2.679825 0.669319 -0.898257 0.217597 -0.380485 
0.429251 -0.153327 0.083763 0.269141 0.107718 -0.891867 
-0.516021 -0.059937 0.071189 -0.772726 -0.234813 0.580051 
0.138724 -0.033945 0.480229 0.225168 -0.276430 0.931016 
1.042714 0.808650 0.015097 -0.445936 0.377800 -0.753621 
-0.007125 0.302593 0.589011 -0.090815 -0.100397 0.987596 
-0.471895 -0.696343 -0.034689 0.333975 0.117587 -0.911198 
-1.335303 1.951831 -0.054573 0.945963 -0.187696 -0.207894 
1.098527 2.094708 1.454439 -0.529680 0.590136 -0.596989 
0.028746 -0.581531 0.017376 0.257364 -0.221730 -0.921907 
-0.462361 -0.102765 0.044347 -0.080208 0.138094 -0.884274 
0.135801 -1.056263 -0.002406 -0.032130 -0.306669 0.947435 
-0.437859 -0.014203 0.218764 -0.757475 -0.236690 0.596282 
0.218141 0.653396 -0.047487 0.560712 0.167532 -0.777007 
-0.766186 -0.172012 -0.166211 0.431555 0.203756 -0.826567 
0.332718 -1.349142 -0.035407 -0.431525 -0.610829 0.408072 
-0.379652 0.648527 0.406087 -0.818656 0.333849 0.362053 
0.084967 1.198802 0.171598 0.507551 0.334827 -0.780007 
-0.874901 3.317349 0.791353 0.676129 -0.379773 -0.608996 
-0.768530 0.583783 0.041081 -0.754778 -0.355011 0.538802 
-0.015568 -0.968073 -0.025667 -0.431912 0.053113 -0.880225 
0.192727 -0.467529 -0.009645 0.224434 -0.237273 -0.888610 
0.359745 0.305427 0.453347 0.488286 -0.159239 0.838613 
0.720924 1.175497 0.783195 0.790902 -0.369116 0.475863 
0.407926 0.523676 0.412794 0.537594 0.072831 0.804797 
-0.755142 -0.392576 -0.180891 -0.564356 -0.147838 0.787829 
1.783212 2.494210 0.665314 0.873994 -0.295811 0.373119 
-1.024230 1.368590 0.356738 0.682593 0.421660 -0.536728 
-1.370730 1.901428 -0.258486 -0.967712 0.131302 0.114174 
-0.307850 0.131906 0.439520 -0.554059 -0.238601 0.763653 
1.668817 1.906850 0.125064 -0.810049 0.442672 -0.338123 
0.829769 0.764863 0.334224 0.746915 -0.419647 0.502463 
1.759570 2.130435 0.340706 -0.809720 0.477435 -0.328812 
0.537550 -0.817975 -0.060622 -0.289484 0.109492 -0.943320 
-0.953567 3.356565 0.642952 -0.781785 0.372793 0.492506 
-0.607131 1.584006 0.982962 0.381698 0.527558 -0.719470 
0.744513 -0.515222 -0.106933 0.475485 -0.160283 0.861358 
1.504503 1.505145 0.010590 0.833104 -0.190790 0.478554 
-0.341225 0.191877 0.031184 -0.269462 0.102138 -0.934970 
-0.315324 -0.315861 0.101075 -0.304584 0.075818 -0.946279 
-0.835171 1.886875 0.948432 0.521188 0.328653 -0.717139 
0.896281 0.959289 0.325270 -0.463350 0.563345 -0.655147 
1.693259 2.020988 0.293848 0.815940 -0.419725 0.347801 
-1.436255 1.511896 -0.097022 -0.871938 -0.216887 0.370211 
0.344200 -1.025831 0.021449 0.332259 -0.218054 0.902989 
