-0.599098 0.491207 0.154805 -0.877204 -0.325318 0.341278 
0.604110 0.923010 0.504298 -0.919811 0.189884 -0.289144 
1.369995 2.150250 0.358611 -0.827457 0.504617 -0.118885 
0.375795 -0.724134 0.081960 0.631554 -0.216707 0.736112 
0.754013 1.390346 0.678779 -0.610620 0.570973 -0.497632 
0.929899 1.545716 0.570023 -0.710383 0.506663 -0.433043 
-0.512013 0.831861 0.469711 0.932263 0.136541 -0.293452 
1.355682 3.204209 1.301017 -0.902901 0.151295 -0.388912 
0.002007 -0.433166 -0.059969 0.168581 -0.464360 -0.853284 
0.843745 1.738787 1.066588 0.788182 -0.461773 0.350961 
0.982959 0.890264 -0.000519 0.777674 -0.313057 0.541999 
-0.192199 1.042489 0.582703 -0.276293 -0.475071 0.765115 
0.242934 -0.676334 0.026154 -0.202525 -0.097477 -0.961499 
-0.476340 0.956337 0.591539 0.922260 0.140324 -0.357181 
-0.477314 0.186628 0.006356 0.098587 0.157661 -0.842786 
-0.611091 0.450577 0.095292 -0.870078 -0.297200 0.376781 
-0.585946 0.213522 -0.009711 -0.855126 -0.219769 0.461851 
0.083008 0.974122 0.578510 0.185744 -0.117896 0.968680 
-0.794802 0.867551 -0.080625 -0.864212 -0.275487 0.409729 
0.975003 1.767848 0.857367 -0.556151 0.810537 -0.133956 
1.032414 1.751232 0.724793 -0.750889 0.378280 -0.535628 
-0.452852 0.025687 0.189831 -0.847958 -0.239178 0.446251 
-0.551848 0.171646 0.047262 -0.860785 -0.233098 0.438820 
-0.430270 0.091922 0.281519 -0.795807 -0.234400 0.533437 
1.099918 2.326411 1.326306 0.844084 -0.306634 0.430294 
0.229968 -0.789379 0.020474 -0.091703 0.005419 -0.982895 
-0.758865 1.376117 0.396770 0.744116 0.378432 -0.468412 
-0.360727 0.707436 0.419356 -0.787211 0.368355 0.422869 
0.670247 0.965443 0.574391 0.708262 -0.470610 0.505066 
0.459396 1.523408 1.207760 -0.398868 0.799787 -0.398457 
-0.338862 0.156817 0.430911 -0.622694 -0.229282 0.714002 
0.901604 1.647481 0.834418 0.682692 -0.631094 0.164665 
-0.824811 0.941043 -0.202644 0.749942 0.293752 -0.546064 
-0.726619 1.846999 0.770880 0.671917 0.050410 -0.629943 
-1.019500 1.523693 0.142847 -0.921883 -0.135581 0.343760 
-0.990895 2.157201 -0.015870 0.984453 -0.010294 -0.013125 
1.258207 0.846527 -0.327815 0.635693 -0.124711 0.754342 
-0.771360 1.183957 0.156322 0.751725 0.368163 -0.500166 
-0.963975 0.395229 -0.432576 0.666998 0.173176 -0.654578 
-0.625884 0.901055 0.151534 0.771468 0.428810 -0.456792 
-0.915960 2.758677 0.072800 -0.969130 0.205741 0.024494 
0.536240 1.565649 1.150599 -0.434668 0.811847 -0.345459 
1.113099 0.640448 -0.260627 -0.547549 0.139369 -0.799006 
-0.300302 0.515849 0.012119 -0.653053 0.060484 -0.736152 
-0.900592 2.503048 0.604171 0.854996 -0.157011 -0.435510 
0.210256 -0.036089 -0.038483 0.509351 -0.048213 -0.854297 
-0.314534 3.411884 0.703548 -0.530164 0.571570 0.564263 
-1.072917 1.862122 -0.431860 -0.904107 0.404188 -0.060168 
0.001968 -0.812007 -0.002645 0.642604 -0.005650 -0.751445 
-0.190410 -1.047654 0.010867 -0.056489 -0.278648 0.952744 
0.986433 0.369248 -0.215791 -0.508769 0.133330 -0.821707 
-0.209640 -0.354464 -0.028995 -0.548710 -0.101060 -0.823145 
1.165547 2.383890 1.291759 0.847230 -0.281522 0.445801 
-1.150590 1.711577 0.064766 -0.949429 -0.103944 0.293464 
-1.171274 1.559503 -0.213787 0.926902 0.169325 -0.320114 
0.333355 0.810253 0.365933 0.888292 0.337045 0.250989 
1.187636 2.635143 1.481587 -0.779075 0.211896 -0.573958 
0.673896 0.721237 0.355184 0.401249 -0.474891 0.774819 
-0.907965 1.468367 0.243241 0.827492 0.257563 -0.423237 
0.552362 0.512763 0.455971 0.374944 -0.540391 0.747771 
-0.987914 1.460267 0.131305 -0.916277 -0.147094 0.351926 
-0.734519 0.642736 -0.082002 -0.853358 -0.266127 0.440061 
-0.807398 2.137545 0.757234 -0.834187 0.022016 0.534669 
-0.407054 3.194642 0.900645 -0.449408 0.525988 0.695475 
0.504505 0.062393 0.177608 0.767382 -0.301896 0.553316 
-0.964731 2.236940 -0.217177 0.977305 -0.126712 0.025498 
0.991931 0.716484 -0.080534 0.743369 -0.268031 0.601366 
1.492978 2.421502 0.553036 -0.915833 0.271819 -0.260858 
0.226317 0.980941 0.162843 0.701858 0.393239 -0.546290 
-0.274027 -0.430139 0.313930 -0.527464 -0.305181 0.752603 
-0.625658 1.407990 0.699432 -0.943013 -0.124882 0.307908 
-0.068002 -0.569050 0.015851 -0.064485 -0.217860 -0.958944 
-0.515081 0.293463 0.227064 -0.878941 -0.315302 0.339253 
-0.118406 -0.867280 0.118037 -0.087572 -0.381424 0.913308 
0.386780 0.386859 0.105170 0.255749 0.271239 -0.879670 
1.439422 2.200977 -0.069059 0.908132 -0.384322 0.123951 
-0.360429 0.529227 0.261594 -0.380208 0.482513 -0.750508 
0.393257 -0.139132 0.085796 0.212471 0.105021 -0.911567 
0.815337 0.713142 -0.036389 -0.400304 0.262179 -0.741200 
0.418677 -0.069376 0.239997 0.720342 -0.220853 0.654215 
-0.611655 0.707979 -0.022317 0.447203 0.270052 -0.693865 
-0.651545 2.010660 0.930597 -0.909196 0.029995 0.371223 
-0.451024 2.302482 1.133296 0.927488 0.005959 -0.270317 
0.511595 -0.904477 -0.081414 -0.427599 0.083371 -0.895571 
1.257622 2.791605 1.409458 0.921521 -0.228453 0.310368 
-0.219019 3.661219 0.466777 -0.684407 0.628633 0.368841 
-1.030617 2.062662 -0.025759 -0.969422 0.016799 -0.021238 
-1.081146 0.753215 -0.519868 -0.739336 -0.217074 0.565860 
0.323151 -0.809712 0.004626 -0.272047 -0.017350 -0.947930 
0.484442 0.084798 0.056813 0.077228 0.144080 -0.879614 
0.417579 0.289190 0.054110 0.149899 0.162727 -0.947972 
-0.643901 0.709615 -0.090001 0.437361 0.244782 -0.709053 
0.526498 0.724422 0.480042 -0.789372 0.483923 -0.275201 
0.552869 1.325998 0.994477 0.902262 -0.265809 0.324307 
0.847353 0.816705 0.011729 -0.508519 0.352932 -0.674844 
-1.212616 1.497966 -0.396693 -0.940372 -0.172342 0.283276 
-0.047258 0.662744 0.543260 -0.040132 0.173611 0.970994 
-0.831664 -0.007827 -0.334155 0.601749 0.113431 -0.731810 
-0.130344 0.183887 -0.085941 -0.519185 0.013555 -0.851892 
-0.308039 -0.126345 0.378108 -0.631294 -0.265080 0.696732 
-1.013708 1.308042 -0.165261 0.867676 0.222904 -0.416572 
-0.601124 -0.606364 -0.167169 0.491144 0.052329 -0.846419 
-0.902981 0.692059 -0.319735 -0.806034 -0.249641 0.511984 
-0.954630 2.184602 -0.442893 -0.964104 0.226477 -0.079502 
-0.937504 1.367600 0.122651 -0.909037 -0.162598 0.362381 
-1.211655 1.597082 -0.263745 0.938964 0.163915 -0.297766 
0.778095 1.335054 0.596947 -0.632266 0.564151 -0.488577 
1.009460 1.701213 0.678825 -0.742010 0.415456 -0.503163 
-0.736627 0.496924 -0.141218 -0.823580 -0.229808 0.502252 
-0.653693 3.089364 0.622191 0.761138 -0.471657 -0.428693 
-0.562227 2.337467 1.003451 0.695929 0.017461 -0.683967 
-0.557385 3.123860 0.751784 -0.762404 0.481461 0.423314 
-0.837464 2.404137 0.740662 0.793408 -0.055478 -0.590152 
-1.118347 1.764330 0.202371 -0.945977 -0.059082 0.287645 
-0.830421 1.221827 0.162557 -0.903852 -0.178406 0.369210 
1.304880 2.586434 1.244659 0.871206 -0.250534 0.414974 
-0.624269 0.240012 -0.063839 -0.839179 -0.209472 0.491698 
-0.598889 2.065796 0.954245 0.728075 0.028348 -0.666513 
-0.453406 1.063772 0.686145 -0.740414 -0.350983 0.536049 
-0.111769 0.870843 0.013641 -0.512698 0.413513 -0.734456 
-0.884325 2.782399 0.527970 0.928230 -0.230082 -0.259958 
0.364403 0.626668 0.192717 0.790626 0.248871 -0.399757 
-0.692159 1.269431 0.481688 -0.943255 -0.121330 0.308466 
-0.333317 -0.769360 -0.014317 0.110071 0.003594 -0.890333 
0.568619 1.206409 0.775782 -0.507568 0.639281 -0.565657 
0.954985 1.921433 1.157997 0.781597 -0.550577 0.234600 
-0.505735 1.289699 0.682167 0.618708 0.516936 -0.574223 
0.113634 0.549726 -0.066912 0.446484 0.102712 -0.871867 
-1.091278 1.859475 -0.202036 -0.919194 0.251619 -0.031664 
0.178927 -1.052804 0.012035 0.025235 -0.273574 0.955803 
0.757210 1.211561 0.518622 -0.625244 0.566861 -0.506810 
-0.940632 2.624032 0.502864 -0.977529 0.084519 0.166001 
-0.998842 0.801881 -0.428913 -0.805428 -0.263429 0.504754 
-0.842078 1.815925 0.607453 0.744668 0.059305 -0.552331 
-0.942326 2.466764 0.437696 0.955149 -0.104875 -0.216415 
0.302858 0.915092 0.302585 0.926424 0.337632 -0.050809 
-0.690938 1.494875 0.669930 -0.943962 -0.118908 0.307070 
-0.872310 1.272213 0.081746 0.808096 0.286346 -0.464993 
-0.769594 3.061732 0.273128 -0.776495 0.529025 0.297508 
0.143781 1.208592 0.241101 0.711146 0.538485 -0.388269 
1.339604 1.500361 -0.249099 0.823803 -0.050786 0.545984 
-1.114462 1.778643 -0.248930 -0.901935 0.323302 -0.014656 
-0.871955 2.193263 0.670662 0.850331 0.076791 -0.500098 
-0.499663 3.355076 0.460298 0.708778 -0.567332 -0.381775 
-0.575625 2.544068 0.951649 -0.797574 0.293037 0.508630 
-0.222604 0.214263 0.518813 -0.415159 -0.173867 0.858540 
0.188128 1.078641 0.618794 -0.130699 -0.168060 0.906069 
0.608359 1.227285 0.830311 0.894770 -0.237358 0.362993 
-0.059847 0.062353 0.531153 -0.166178 -0.281353 0.939202 
0.369445 -0.115915 0.343769 0.690814 -0.262306 0.672220 
0.346973 -0.201528 0.097176 0.277434 0.091773 -0.934035 
-0.581505 0.941586 0.253339 0.850194 0.337181 -0.322290 
0.561173 0.342482 0.253924 0.772691 -0.378764 0.503774 
-0.429977 3.455128 0.420114 -0.734843 0.586256 0.330996 
1.099069 1.783201 0.763608 0.743784 -0.518657 0.326773 
-0.579866 0.001794 -0.085610 0.460230 0.174253 -0.750706 
1.205824 1.956480 0.660345 -0.727454 0.658359 -0.114730 
-0.467410 -0.284918 0.014378 -0.817805 -0.159070 0.536795 
-0.174563 -0.455365 0.337809 -0.181048 -0.321808 0.919840 
0.321782 -0.992186 -0.012109 -0.262599 0.076942 -0.958418 
0.254942 0.588945 -0.025417 0.599574 0.115373 -0.768296 
-0.559467 0.986280 0.313394 0.844446 0.333908 -0.380203 
-0.351634 -1.300169 -0.070274 0.391463 0.091657 -0.893513 
-0.035866 0.822155 0.555123 -0.153264 -0.238410 0.952351 
0.865337 0.365212 -0.092649 -0.574055 0.227272 -0.740947 
0.548089 0.719102 0.256750 -0.079610 0.635430 -0.545600 
0.152920 -0.779203 0.178850 0.138817 -0.402780 0.899863 
0.201264 0.932986 0.105002 0.642131 0.437228 -0.617225 
1.344406 2.155462 0.623513 0.892956 -0.257032 0.302252 
-0.470366 -0.129724 0.039865 -0.855634 -0.179752 0.483426 
-0.937496 2.632267 0.022719 -0.983200 0.158556 -0.012225 
-0.350797 -0.015574 0.379693 -0.682690 -0.249952 0.668011 
0.254723 -1.030674 0.024123 0.045883 -0.294444 0.929296 
1.263649 1.526764 -0.085557 0.847185 -0.119796 0.477412 
-0.618678 2.792318 0.888873 -0.805896 0.280259 0.496248 
-0.704726 2.182469 0.896658 -0.874146 -0.062767 0.447275 
-0.986484 1.204326 -0.241056 0.850453 0.250830 -0.438560 
-0.653477 2.524719 0.915960 0.718662 -0.077416 -0.675305 
0.524456 0.879915 0.613065 -0.827929 0.331488 -0.445338 
-0.257984 -0.174835 0.396841 -0.552418 -0.274837 0.745537 
0.151400 0.791437 0.003019 0.523272 0.404776 -0.711640 
-0.118574 0.728416 -0.044319 -0.411182 0.271271 -0.826033 
1.275751 1.145406 -0.268910 -0.660195 0.208350 -0.706945 
-0.651754 0.192487 -0.128406 0.586478 0.204553 -0.691709 
1.390917 2.196385 0.411641 -0.840199 0.473932 -0.136261 
0.832488 1.875412 1.231201 -0.598469 0.637034 -0.433455 
-0.746555 1.694196 0.690824 0.703078 0.288580 -0.550123 
1.186529 0.867708 -0.264588 -0.598121 0.170235 -0.757727 
-1.062524 1.022249 -0.463327 -0.822897 -0.286687 0.474486 
-0.330644 0.728179 0.165691 -0.821379 0.381533 -0.350726 
1.082331 2.005821 1.092377 -0.678499 0.548077 -0.464897 
0.876275 1.211111 0.355528 -0.674440 0.489465 -0.514746 
-0.510875 0.091981 -0.015351 0.180873 0.156994 -0.802269 
0.377377 0.663470 0.295784 0.634622 0.065067 -0.136531 
-0.232089 0.349531 0.547096 -0.382892 -0.104743 0.898888 
-0.141514 -0.397210 0.360413 -0.095456 -0.301642 0.947607 
-0.834721 2.860009 0.526227 0.895568 -0.284680 -0.285053 
0.207041 1.210421 0.590299 0.825562 -0.391733 -0.366383 
-0.615681 0.586162 0.173041 -0.890564 -0.309080 0.320353 
-0.893310 2.583782 0.629982 -0.855621 0.157487 0.426721 
0.891920 1.885002 1.178923 -0.545566 0.566769 -0.555030 
1.137215 1.112712 -0.144001 -0.732427 0.251570 -0.616913 
1.471952 2.582339 0.628819 0.942105 -0.230530 0.207970 
0.156453 0.192446 -0.073527 0.479718 0.002413 -0.874043 
-0.859014 2.938539 0.178741 -0.812685 0.479370 0.251167 
0.123357 -0.212337 0.425838 0.148876 -0.286935 0.944173 
-1.093373 1.864637 0.046483 -0.943310 0.048288 0.098950 
0.821444 1.014233 0.262559 -0.629146 0.476358 -0.586991 
-0.937740 1.277821 0.019727 -0.891067 -0.192779 0.389498 
0.487476 0.296283 0.345555 0.718208 -0.314490 0.600618 
-0.162632 1.094349 0.495653 -0.842037 0.301382 -0.168774 
-0.573756 1.192181 0.506498 0.640130 0.526364 -0.539662 
1.264865 0.981878 -0.309159 -0.600628 0.153049 -0.765185 
1.221236 2.701938 1.476480 0.913363 -0.249982 0.319850 
-0.821134 0.540725 -0.267316 0.693283 0.247840 -0.615515 
1.266335 1.864073 0.197181 0.801373 -0.439434 0.067275 
-0.069422 0.188141 -0.124355 -0.514191 0.033069 -0.854530 
0.253162 0.669620 -0.029285 0.618283 0.178740 -0.737240 
-0.709546 1.518946 0.593061 0.696784 0.360526 -0.531315 
-1.151884 1.451348 -0.296514 -0.927048 -0.177518 0.311873 
1.409130 2.830317 1.019879 -0.926037 0.210067 -0.277187 
0.888194 1.736898 1.005105 0.794162 -0.437072 0.378334 
-0.920040 2.158296 0.617651 -0.838785 0.118267 0.507416 
0.658746 1.125827 0.671461 0.887897 -0.207401 0.401504 
1.399340 2.100639 -0.077172 0.898060 -0.360238 0.114036 
-0.860900 0.437507 -0.325161 -0.781283 -0.223853 0.550802 
0.543347 0.155970 0.177118 0.768393 -0.314439 0.545681 
-0.262366 0.431293 0.528629 -0.379464 -0.100148 0.903774 
-0.250944 1.049813 0.313280 -0.888588 0.398212 -0.071237 
-0.720507 3.090607 0.417538 0.835450 -0.418618 -0.288220 
-0.149949 1.008828 0.111694 -0.567137 0.430950 -0.686203 
0.779121 0.673256 0.149552 0.781052 -0.356756 0.507886 
1.341047 2.928212 1.235445 -0.870073 0.143930 -0.436697 
-0.680464 0.850431 0.229244 -0.887118 -0.166172 0.352814 
-0.605689 1.139057 0.392497 0.658903 0.502506 -0.540120 
-0.059472 0.279501 -0.130987 -0.505828 0.047987 -0.860520 
0.703007 1.532706 0.961403 0.847850 -0.398800 0.265799 
1.371769 2.937745 1.154938 0.938200 -0.177464 0.290708 
-0.937484 2.716080 0.355639 -0.982963 0.133626 0.087983 
-0.088028 -0.020581 0.498398 -0.173506 -0.280861 0.938595 
-0.422043 0.546286 0.183494 0.022318 0.384233 -0.758092 
-0.093297 -0.448190 0.345847 -0.044389 -0.281691 0.955270 
0.158743 -0.774543 0.022900 -0.086150 -0.030792 -0.988871 
0.926322 1.213486 0.289162 -0.695413 0.457567 -0.517094 
-0.242568 1.639403 1.337100 0.810224 -0.135363 -0.469582 
0.455691 -0.045229 0.069813 0.124142 0.124141 -0.882446 
0.784281 1.043808 0.416728 0.852337 -0.223368 0.459606 
0.541040 0.195836 0.040640 -0.004708 0.164737 -0.856373 
-0.843591 0.659921 -0.242812 -0.810762 -0.244532 0.510262 
-0.823686 -0.080194 -0.326697 -0.628146 -0.084672 0.720292 
0.620478 0.732762 0.189411 -0.373052 0.510552 -0.619249 
-1.064228 0.685321 -0.506518 -0.725521 -0.202581 0.582620 
0.652691 -0.008946 -0.020366 -0.349508 0.183547 -0.805701 
1.426369 2.307122 0.577594 -0.882684 0.385648 -0.210603 
0.195248 0.335914 -0.044651 0.447904 0.015446 -0.891730 
1.002958 1.636881 0.629969 0.756432 -0.533657 0.251542 
-0.506539 1.109403 0.501065 0.868426 0.243681 -0.394689 
0.968024 1.392449 0.432018 0.844945 -0.343297 0.386896 
-0.954664 0.964401 -0.323490 -0.831547 -0.277459 0.471269 
0.086610 -0.515474 -0.003210 0.049861 -0.328275 -0.940027 
1.382320 1.291022 -0.324463 0.700053 -0.170592 0.686212 
-0.241476 1.068717 0.384130 -0.898202 0.409622 0.101583 
0.694626 -0.159419 -0.082274 -0.457972 0.156963 -0.835423 
-0.646119 3.257947 0.312157 0.801282 -0.508570 -0.272234 
1.411127 2.163828 0.000602 -0.870489 0.462108 -0.111089 
-0.139065 1.218001 0.243707 -0.707673 0.551571 -0.386578 
1.264914 1.268810 -0.213520 0.769860 -0.169653 0.592898 
-0.698718 -0.045316 -0.217247 -0.746298 -0.172118 0.614344 
0.108267 0.887527 0.559683 0.240144 -0.156385 0.951839 
1.296839 2.097021 0.637632 -0.801570 0.542648 -0.158786 
1.145532 1.245040 -0.073180 -0.771151 0.239926 -0.558521 
-0.536774 0.205395 0.109716 -0.868134 -0.261110 0.402769 
-0.779092 1.953814 0.740833 0.746921 0.266757 -0.504330 
1.445504 2.284353 0.403281 0.926940 -0.231125 0.245727 
-0.447978 0.345880 0.016023 0.063447 0.168263 -0.892782 
0.593895 1.388584 0.899909 -0.505230 0.625898 -0.556818 
-0.720748 1.214757 0.279157 0.723229 0.409236 -0.504457 
-0.913871 2.811625 0.320379 -0.920724 0.278643 0.178571 
0.300917 -0.878057 0.001798 -0.264651 0.008086 -0.958057 
0.855040 1.568272 0.693848 -0.658672 0.531737 -0.460778 
-0.122106 0.651255 -0.060566 -0.447409 0.144927 -0.849608 
-0.476571 1.618399 1.144665 -0.667238 -0.447484 0.584304 
-0.083063 0.508071 -0.082289 -0.487311 0.088744 -0.858085 
-0.739401 0.711168 -0.045638 -0.858339 -0.290643 0.412454 
0.105547 -0.260799 -0.077024 0.438338 -0.143447 -0.867465 
1.433708 3.083346 1.043568 0.944749 -0.144525 0.290731 
1.496148 2.370432 0.330766 -0.917807 0.332993 -0.192106 
-0.928439 2.196984 0.549268 0.919377 0.142887 -0.309112 
0.792866 0.816924 0.087351 -0.503259 0.429375 -0.645203 
1.033601 2.195899 1.283705 0.820207 -0.300884 0.475104 
0.269158 0.541803 0.518019 0.376241 -0.014372 0.905843 
0.029190 -0.201939 0.428469 0.025919 -0.304229 0.948112 
0.388486 1.490035 1.244818 -0.692846 0.463036 -0.406043 
-0.278675 0.059120 0.008344 -0.496428 -0.029533 -0.851837 
-0.948650 2.520380 0.319424 -0.974376 0.112483 0.137465 
-1.045893 1.207473 -0.379363 0.836245 0.283869 -0.452240 
1.343937 1.177266 -0.322796 0.689531 -0.160116 0.700163 
0.383361 -0.046211 0.345547 0.691020 -0.250596 0.676238 
0.074107 -0.115517 0.466081 0.119057 -0.290889 0.947973 
0.374723 -0.505916 0.122073 0.695963 -0.237878 0.669431 
0.602120 0.643189 0.411287 0.348895 -0.514218 0.774489 
1.260762 2.040870 0.660403 -0.780375 0.583861 -0.147502 
0.438907 1.431511 1.273097 0.339174 -0.616285 0.520808 
-0.345227 0.780227 0.385659 -0.867145 0.371327 0.317375 
-0.346305 0.761844 0.232421 -0.912929 0.325085 -0.236559 
0.142897 -0.994606 0.030848 0.020105 -0.337446 0.938234 
0.373788 -0.885672 0.000960 -0.222974 0.085157 -0.946029 
-0.675280 0.761779 0.131198 -0.909586 -0.241875 0.320036 
-0.024711 -0.524480 0.324413 -0.152617 -0.283084 0.923659 
0.525269 0.361963 0.318932 0.731951 -0.348833 0.560759 
1.030359 2.303158 1.491189 0.785615 -0.494334 0.361173 
-0.791927 0.576712 -0.190180 -0.808176 -0.234804 0.518308 
-0.496923 2.516256 1.064305 0.806087 -0.093694 -0.572714 
0.461868 0.018635 0.221298 0.742251 -0.266289 0.602844 
-0.940639 1.544958 0.273779 0.845588 0.231115 -0.403314 
0.884029 1.923597 1.242750 0.749034 -0.349332 0.550142 
-0.799073 1.757703 0.644790 0.726829 0.171420 -0.548650 
0.298377 0.301044 0.498724 0.460270 -0.141036 0.848082 
-0.554504 0.489123 -0.045695 0.254275 0.200770 -0.792764 
1.024116 1.892382 1.019130 -0.658776 0.633836 -0.391796 
1.094492 1.608088 0.395869 -0.810298 0.446012 -0.376092 
0.831697 0.677410 0.080539 0.771279 -0.336881 0.535338 
-0.058536 -0.937133 0.078571 -0.226289 -0.328181 0.897048 
-0.015304 0.980611 0.044044 -0.336431 0.508821 -0.783580 
1.258380 2.521953 1.316979 0.855536 -0.292245 0.419446 
-0.968407 2.294508 -0.159012 -0.903184 0.351147 -0.002739 
-0.604648 -0.410007 -0.177847 0.498403 0.130848 -0.808650 
1.300325 2.830040 1.307673 -0.840847 0.147152 -0.490704 
-0.613159 0.529273 -0.078250 0.355955 0.214859 -0.733316 
1.288086 1.676388 -0.216572 -0.930377 -0.019238 -0.333763 
0.704478 1.399059 0.829458 0.883808 -0.307627 0.331969 
-0.987362 2.356609 0.124123 -0.857430 0.419417 0.074888 
1.333680 2.824507 1.222918 0.922680 -0.204736 0.315054 
-0.217111 0.571934 -0.030396 -0.569847 0.078214 -0.788216 
1.410939 2.253725 0.512316 -0.856288 0.434479 -0.166718 
-0.494326 3.400399 0.391832 -0.749871 0.575785 0.316420 
-0.931826 0.622943 -0.390720 0.691096 0.254968 -0.606603 
-0.293054 0.803622 0.148266 -0.761434 0.400955 -0.432228 
1.225416 1.772159 0.192504 0.827295 -0.362387 0.142614 
-0.901949 2.713717 0.543207 0.929223 -0.184653 -0.284489 
-0.611127 0.348056 0.022097 -0.860558 -0.253777 0.427573 
0.615891 -0.249624 -0.035923 -0.423748 0.169699 -0.830887 
0.327977 0.798025 0.219240 0.893138 0.323050 -0.260929 
-0.771886 3.088627 0.169351 -0.811857 0.499699 0.237325 
1.358692 2.669830 1.110264 0.893698 -0.181668 0.390334 
0.809829 1.568844 0.763222 -0.628471 0.542912 -0.484616 
-0.432465 1.358162 0.920936 -0.280635 -0.559705 0.604523 
-0.822924 1.050570 -0.084959 0.781074 0.326248 -0.513930 
-0.354746 -0.415164 0.160666 -0.780411 -0.229262 0.567405 
1.461591 2.804744 0.735678 -0.949245 0.175615 -0.215246 
-0.717570 0.096466 -0.207643 -0.760750 -0.186324 0.592161 
1.224415 1.038962 -0.233464 0.712497 -0.203115 0.659551 
1.186626 2.444790 1.351962 -0.807336 0.342226 -0.459303 
0.196031 0.884590 0.518170 0.497683 -0.036262 0.832624 
0.951515 1.699295 0.902288 0.738523 -0.534326 0.335395 
-1.021917 2.033740 -0.279860 -0.946742 0.203766 -0.050978 
0.334023 0.105429 0.027685 0.329723 0.057360 -0.914377 
0.928375 0.715011 -0.025470 0.768582 -0.288423 0.568576 
-0.352795 -0.333986 0.241466 -0.762057 -0.249294 0.588241 
1.256182 1.692082 -0.148415 -0.937285 0.018476 -0.292319 
1.310216 2.904633 1.310614 0.927482 -0.201326 0.308677 
1.374718 2.216660 0.584473 -0.846397 0.455350 -0.181057 
0.617250 1.085590 0.719193 0.805451 -0.302750 0.465436 
0.181986 1.227088 0.515977 0.871943 -0.449383 -0.182815 
-0.912853 1.920832 0.549198 0.772181 -0.141253 -0.563736 
-1.158579 1.380786 -0.425706 0.886014 0.239735 -0.370602 
1.433281 2.791567 0.895745 0.927673 -0.104849 0.338599 
0.920216 0.169532 -0.206933 0.637002 -0.131904 0.757357 
-0.410599 3.289943 0.742316 -0.738300 0.534562 0.403097 
-0.254474 0.949294 0.195473 -0.774692 0.378883 -0.416671 
0.263061 -0.463544 -0.008940 0.436306 -0.075159 -0.843384 
1.300368 2.984106 1.369706 0.922569 -0.198405 0.325221 
0.878797 1.374221 0.491184 -0.694219 0.528172 -0.452095 
-0.656712 -0.530593 -0.204458 0.515775 0.038653 -0.831973 
-0.738605 -0.160453 -0.272621 -0.688146 -0.127033 0.673045 
-0.498142 1.936831 1.068852 0.680205 0.208436 -0.674375 
0.783638 1.692186 1.037072 -0.448490 0.736416 -0.379350 
0.461005 0.552796 0.191964 0.116914 0.474852 -0.702197 
-0.504047 0.168412 0.166685 -0.873864 -0.275260 0.379076 
0.329651 -0.606602 0.167781 0.662568 -0.272701 0.692345 
-0.900087 0.477795 -0.370984 -0.780477 -0.229049 0.548642 
-0.288137 -0.932590 0.052931 -0.205066 -0.320226 0.897269 
-0.488633 3.323662 0.535778 0.686477 -0.559687 -0.423706 
1.087830 2.373055 1.466660 0.801737 -0.455489 0.365649 
0.965547 0.239762 -0.225033 0.628458 -0.128039 0.762980 
-0.637858 0.310846 -0.103550 0.472190 0.205411 -0.700241 
0.282211 0.713609 0.494363 0.520022 0.284488 0.795105 
1.343111 2.747008 1.184478 0.901828 -0.218253 0.357247 
-1.172251 1.441852 -0.364659 -0.929336 -0.182870 0.304112 
0.636478 -0.181283 -0.028629 0.686772 -0.196622 0.683358 
0.211658 0.749404 0.501095 0.369761 0.201147 0.881745 
0.348046 -0.032552 0.084530 0.265273 0.111825 -0.952256 
0.714869 0.156009 -0.029603 -0.399905 0.205270 -0.776045 
-0.106541 -0.696455 0.024352 0.031604 -0.063617 -0.996364 
-0.205722 0.689089 0.526195 -0.315276 0.297934 0.874911 
0.874504 0.791669 0.089877 0.784424 -0.335684 0.516467 
1.193671 1.685421 0.083835 -0.897975 0.181328 -0.307005 
1.306385 2.742606 1.269044 -0.858691 0.184256 -0.451621 
0.465788 -0.333279 0.032607 -0.073238 0.119437 -0.885695 
0.949317 1.253785 0.345002 0.833795 -0.313142 0.430195 
-0.639298 3.302295 0.204738 -0.793720 0.544384 0.245176 
0.162084 1.214967 0.325695 0.717895 0.650084 -0.107342 
-0.054892 0.391810 0.594569 -0.143613 -0.039950 0.979662 
0.660911 0.700313 0.128447 -0.334889 0.415037 -0.704460 
-0.071568 -0.790099 0.012591 -0.106353 -0.029137 -0.975829 
0.596251 1.093397 0.638548 -0.537576 0.632737 -0.555130 
0.678019 -0.233718 -0.074639 0.652194 -0.175401 0.723198 
0.644776 1.290162 0.828165 0.890604 -0.263212 0.351869 
0.602554 -0.399563 -0.063212 -0.412533 0.135768 -0.869191 
1.336321 2.049542 0.178608 -0.901549 0.327023 -0.239955 
-0.593274 0.373747 0.085880 -0.867938 -0.280909 0.391945 
1.233091 1.697421 -0.072021 0.938413 -0.063457 0.253228 
-0.535986 -0.295567 -0.062874 -0.764825 -0.149313 0.603497 
-0.709534 0.562087 -0.075885 -0.852869 -0.254746 0.447918 
0.089221 -0.969455 -0.015066 0.112483 0.002160 -0.985358 
1.449836 2.526716 0.691918 -0.902983 0.141194 -0.356461 
1.175527 2.139474 1.146991 0.700089 -0.426847 0.550986 
0.760925 -0.013434 -0.088148 0.668358 -0.189123 0.702961 
0.387012 -1.399190 -0.091958 -0.121689 -0.737414 -0.506026 
-0.943103 2.585709 0.191973 -0.979327 0.133795 0.066474 
-0.686876 1.234636 0.360527 0.704162 0.436722 -0.507459 
-0.662923 1.532573 0.744570 -0.943794 -0.120635 0.306963 
-1.258694 1.375678 -0.653476 -0.837259 -0.327211 0.437459 
-0.375244 -0.157931 0.073139 -0.102425 0.106113 -0.915196 
0.395891 -0.256667 0.081504 0.174055 0.096833 -0.905049 
-1.101487 1.831713 -0.136063 -0.920514 0.212186 0.011105 
-0.170166 -0.025152 0.483190 -0.325310 -0.267264 0.889265 
-0.474941 3.030895 0.955615 -0.676413 0.409602 0.563582 
0.456276 0.154130 0.313569 0.718814 -0.276361 0.624739 
-0.983779 2.303676 0.176464 0.988986 0.014790 -0.051179 
-0.089883 -0.013929 -0.106795 -0.515541 -0.015635 -0.847216 
-0.323745 -0.321021 0.319004 -0.704418 -0.282578 0.642161 
-0.307069 0.338376 0.495410 -0.475809 -0.151418 0.837443 
0.126240 -1.096039 -0.015257 0.055120 -0.007475 -0.997854 
-0.106431 1.129867 0.560326 0.324243 0.302046 0.885465 
0.814298 0.739523 0.141675 0.788930 -0.348149 0.501163 
0.249463 0.737654 0.005996 0.606815 0.419284 -0.632651 
1.418410 2.643864 0.844152 0.915564 -0.084484 0.371084 
0.127049 0.598789 0.571738 0.075556 0.334825 0.935975 
0.920626 1.320943 0.443340 0.848978 -0.315566 0.399240 
-0.865599 0.541249 -0.323338 0.684020 0.246706 -0.619190 
-1.013495 2.024598 0.285610 0.852713 -0.356266 -0.284173 
0.743773 1.753120 1.247259 0.764389 -0.524522 0.328119 
-0.982333 1.351843 -0.024488 0.866771 0.204497 -0.427488 
-0.454852 0.326577 0.362058 -0.723921 -0.263719 0.583736 
-0.606895 3.336397 0.274484 -0.768531 0.572214 0.282656 
1.355199 2.998514 1.224948 0.932686 -0.178348 0.306781 
0.261717 -0.331806 0.343328 0.510247 -0.291056 0.755708 
-0.979490 2.366433 0.235815 -0.886937 0.324916 0.126507 
-1.087135 0.838602 -0.527663 -0.774641 -0.249278 0.529029 
-0.538174 1.515467 0.924050 -0.942456 -0.130388 0.307639 
1.222661 2.028538 0.858871 0.821593 -0.452857 0.325764 
-0.667719 3.243613 0.240183 0.814376 -0.500932 -0.243094 
1.334768 3.090662 1.318202 -0.873244 0.141005 -0.442254 
-1.049953 1.972428 -0.130783 0.888256 -0.433177 -0.058728 
0.247392 -0.176887 0.402947 0.510317 -0.281475 0.773477 
0.530743 1.237981 0.997517 0.558854 -0.550163 0.543317 
-0.433145 1.437062 0.974294 -0.147663 -0.628957 0.628531 
0.530231 1.142988 0.861357 0.236757 -0.711307 0.529492 
0.535684 1.324034 0.924425 -0.473582 0.647522 -0.578158 
0.836864 1.996199 1.356571 -0.593190 0.604639 -0.489849 
0.212069 1.134564 0.294116 0.853614 0.477613 -0.167455 
0.907745 1.734762 0.860032 -0.638963 0.632212 -0.369874 
-0.285565 0.690494 0.499876 -0.490355 0.312299 0.794074 
1.382320 2.498922 0.925048 0.892108 -0.074829 0.433028 
0.795229 1.614135 0.959220 0.706894 -0.594500 0.162518 
0.201783 -1.122231 0.004940 -0.039334 -0.216087 0.910643 
-0.602748 1.605493 0.820609 0.615767 0.384345 -0.621911 
-0.323952 -0.441519 0.253839 -0.729058 -0.279182 0.620409 
-0.510876 3.427080 0.314184 -0.751945 0.585397 0.297480 
-0.425729 0.261152 0.386732 -0.705142 -0.240346 0.640290 
1.147624 1.369284 0.081284 0.817277 -0.280823 0.462543 
1.362348 2.101553 0.117726 -0.870767 0.459174 -0.151223 
1.285417 2.023438 0.576665 0.898976 -0.137649 0.361930 
1.050008 0.776614 -0.126698 0.730384 -0.244660 0.623854 
0.000151 0.040774 -0.144971 -0.421381 -0.059205 -0.882622 
1.137861 1.805268 0.689754 0.743252 -0.578095 0.220630 
0.721715 1.601786 0.959955 -0.564430 0.539687 -0.571161 
0.863830 0.167343 -0.141016 0.664510 -0.173711 0.713908 
1.170855 1.875804 0.679561 0.845676 -0.229527 0.429174 
1.135780 2.054985 1.089518 0.725018 -0.620595 0.279046 
0.707791 0.229702 0.009371 0.758841 -0.242151 0.600039 
-0.017489 -0.057265 -0.128679 -0.409804 -0.097425 -0.883193 
-0.203714 -0.834327 0.017727 0.142485 -0.000270 -0.982108 
-0.019768 0.205213 0.571279 -0.110046 -0.181489 0.968894 
-0.565750 0.293548 -0.044438 0.255957 0.183468 -0.758398 
1.104163 1.485808 0.260846 -0.796626 0.393240 -0.431491 
-0.746481 1.303713 0.417720 -0.938935 -0.125018 0.315496 
0.433475 0.193342 0.375843 0.695234 -0.261682 0.660747 
0.818188 -0.110240 -0.175455 -0.457902 0.107157 -0.863315 
-0.506542 2.021245 1.059765 0.679749 0.169002 -0.680283 
1.112016 1.871117 0.762914 -0.644924 0.739452 -0.115364 
0.994002 1.545695 0.480860 -0.752651 0.484693 -0.409346 
0.869138 2.095740 1.461954 0.791361 -0.456336 0.388808 
0.657914 0.814487 0.333171 -0.913949 0.328590 -0.131928 
0.384700 0.448151 0.172705 0.330961 0.414281 -0.773559 
1.097407 0.842096 -0.157980 0.724022 -0.231332 0.635819 
-0.924580 2.507969 0.537695 0.889609 -0.175206 -0.344533 
0.471309 0.227859 0.049593 0.084103 0.160946 -0.905585 
0.776768 1.976711 1.404019 -0.589409 0.619382 -0.469972 
0.931797 0.093513 -0.218983 -0.500970 0.111303 -0.840681 
-0.304028 -0.422079 0.082792 -0.224595 0.048444 -0.939294 
-0.761249 0.783676 -0.049572 -0.858950 -0.301435 0.404601 
-1.008897 1.815501 0.413195 -0.923201 -0.177332 0.307803 
-0.766090 1.437036 0.441531 0.743509 0.359113 -0.474522 
-0.252116 -0.169169 -0.007798 -0.557850 -0.070028 -0.825492 
-1.025553 1.644865 0.269485 -0.944714 -0.096816 0.309367 
-0.323751 3.529058 0.495146 -0.710758 0.598584 0.361177 
-1.075098 1.905814 -0.119109 0.876311 -0.464038 -0.063745 
0.479177 -0.142938 0.100498 0.762869 -0.234845 0.596896 
0.136726 -0.718224 0.220787 0.163107 -0.423297 0.888387 
-0.832011 0.890333 -0.153720 -0.849039 -0.282135 0.442618 
-0.624415 1.539134 0.809761 -0.943419 -0.123514 0.307098 
-0.788171 -0.278938 -0.295787 0.576178 0.036342 -0.783867 
0.545338 1.043536 0.746805 0.390892 -0.680743 0.546476 
-0.212291 -0.236184 0.394271 -0.396541 -0.281118 0.822897 
-0.848769 1.732710 0.569268 0.766181 0.204733 -0.498623 
-0.513632 0.762977 0.228258 0.362189 0.484746 -0.519915 
0.538260 0.979316 0.660377 -0.903479 0.166011 -0.372623 
1.477731 2.846962 0.677267 0.953143 -0.093809 0.272050 
-0.610875 0.626375 0.250940 -0.895351 -0.263026 0.309486 
0.463677 -0.787493 -0.040712 0.614659 -0.136913 0.773339 
-0.957501 1.698182 0.424255 -0.947353 -0.096207 0.304589 
0.856498 0.080380 -0.173155 -0.464708 0.122965 -0.849277 
-0.047890 -0.133854 -0.109924 -0.421615 -0.113832 -0.876235 
0.180900 1.051112 0.146971 0.608185 0.395249 -0.683195 
-0.912616 2.785836 0.142472 -0.965901 0.208590 0.053340 
1.320820 2.137299 0.693046 0.875838 -0.315646 0.297994 
-1.027046 2.003128 -0.359396 -0.935582 0.274664 -0.059086 
0.699679 0.638694 0.000112 -0.256970 0.255989 -0.794304 
-1.091121 1.866647 0.230567 -0.959724 -0.107395 0.214637 
-1.117208 1.705105 0.146164 -0.943767 -0.101387 0.307788 
0.488066 1.440584 1.092546 -0.430027 0.660825 -0.596083 
-0.550172 0.832647 0.405486 -0.731071 -0.247204 0.597778 
1.480772 2.657209 0.599527 0.949404 -0.192002 0.212911 
0.636818 1.159495 0.731919 0.890827 -0.216781 0.387743 
0.797965 1.266130 0.580487 0.871382 -0.271336 0.387599 
0.056296 -0.200759 -0.100653 0.398260 -0.148370 -0.883502 
1.057195 0.901603 -0.121052 -0.683171 0.285495 -0.656136 
-1.045392 0.617448 -0.492019 0.706382 0.199248 -0.612017 
-0.508317 2.188400 1.055749 0.684886 0.090957 -0.684204 
-0.046500 -0.288182 0.393368 -0.010740 -0.302883 0.948200 
1.169403 1.662257 0.148035 -0.877064 0.245041 -0.321027 
0.779673 1.878921 1.294721 -0.573188 0.653476 -0.444720 
-0.458132 1.310646 0.731222 0.878942 0.251396 -0.388356 
-0.032338 0.383353 -0.126519 -0.472760 0.082201 -0.875015 
-0.038482 0.582830 -0.090199 -0.396069 0.124557 -0.897880 
0.629958 1.546777 1.142433 0.787688 -0.339047 0.387462 
-1.042154 1.707970 0.300959 -0.948255 -0.089609 0.304141 
0.398698 0.516240 0.225800 0.343595 0.530909 -0.679378 
-0.713650 0.848520 -0.073730 0.640088 0.306299 -0.590734 
0.095320 0.723501 0.519626 0.088162 0.057277 0.992396 
-0.800790 2.368900 0.796650 -0.872599 -0.034444 0.480623 
0.537612 0.521032 0.081579 -0.084135 0.281902 -0.838491 
1.479307 2.328696 0.272601 0.925381 -0.305250 0.187439 
0.028460 0.680547 0.535433 0.033020 0.129256 0.980655 
1.437200 2.944021 0.985229 0.936609 -0.148615 0.304188 
-0.674028 1.164273 0.302699 0.697171 0.447095 -0.522449 
-0.526141 1.511495 0.849522 0.574216 0.449866 -0.648719 
-0.554496 2.420000 0.982122 -0.792966 0.300919 0.514814 
-0.579588 0.641737 -0.032659 0.350059 0.239726 -0.750921 
-0.121970 -0.106700 0.463841 -0.187492 -0.279336 0.936954 
-0.011927 1.126708 0.555903 -0.032481 0.434899 0.883385 
0.729913 1.009386 0.379603 -0.591121 0.554800 -0.567516 
-0.266921 -0.033033 0.001075 -0.536133 -0.052043 -0.836729 
0.295622 -0.214809 0.037646 0.409214 0.004108 -0.888805 
1.237668 2.146359 0.996662 0.807014 -0.527085 0.238038 
1.417800 2.189500 0.083195 -0.871998 0.449790 -0.122592 
0.209052 0.049339 -0.040229 0.496222 -0.035246 -0.862830 
0.335950 0.667233 0.482776 0.625758 0.329770 0.687137 
0.079719 -0.044161 0.490862 0.149671 -0.285667 0.942897 
0.594211 0.040399 0.018376 -0.153340 0.164533 -0.822682 
-0.202674 -0.516589 0.307749 -0.293698 -0.353060 0.883824 
0.820982 0.196402 -0.078346 0.693040 -0.216668 0.668735 
-1.001858 2.213308 0.329209 -0.826751 0.432433 0.200985 
1.159675 1.691524 0.276332 -0.863533 0.302202 -0.340902 
0.421540 0.331734 0.425065 0.549518 -0.197132 0.796191 
0.630128 1.517632 0.962349 -0.515659 0.610137 -0.543781 
-1.069473 1.135699 -0.443965 -0.835643 -0.297776 0.455739 
1.234803 2.325682 1.181360 -0.811112 0.415113 -0.367872 
0.413301 -0.487387 0.038220 -0.041509 0.100996 -0.911522 
0.793969 1.469452 0.692378 -0.628713 0.555229 -0.483081 
-0.981045 2.213368 -0.138575 -0.871816 0.415681 0.020972 
-0.576067 1.125363 0.601275 -0.781047 -0.373502 0.483922 
-0.554973 2.650326 1.015496 -0.846308 0.136936 0.503761 
-0.342509 0.400701 0.486326 -0.459564 -0.166000 0.858891 
-0.498624 1.496062 1.011575 -0.660155 -0.448377 0.568800 
-0.795419 1.806204 0.722634 -0.908381 -0.237217 0.310936 
-0.521807 2.933392 0.937541 0.663053 -0.351904 -0.630545 
-0.433709 -0.187887 0.022556 0.088888 0.121218 -0.866988 
1.355697 2.028843 0.028786 0.859808 -0.405138 0.092451 
0.483509 0.651366 0.335886 -0.171096 0.548100 -0.367902 
-0.524342 1.723758 0.993838 0.585740 0.356674 -0.652430 
1.035092 0.289943 -0.257457 -0.538223 0.115690 -0.820414 
0.042005 0.251342 0.580284 0.135569 -0.143730 0.971777 
1.464095 2.425327 0.657987 0.928280 -0.306853 0.199833 
0.533257 1.654682 1.321197 -0.470913 0.754291 -0.426158 
1.351896 1.951257 -0.158359 -0.935001 0.175624 -0.191755 
-1.179284 1.297422 -0.558003 -0.840313 -0.315049 0.439666 
-0.606337 0.604315 0.342253 -0.752151 -0.358268 0.466203 
-0.865403 2.905601 0.251562 0.925356 -0.299642 -0.176924 
1.360570 3.072673 1.240105 0.930932 -0.170599 0.316705 
1.237508 2.853027 1.475263 0.704350 -0.097292 0.665098 
0.202381 -0.854534 0.018910 -0.134986 0.002455 -0.982897 
-0.546678 3.366830 0.350066 0.743825 -0.571735 -0.322237 
-0.549751 0.795568 0.172636 0.572119 0.428573 -0.515287 
-0.515196 0.066583 0.065684 -0.861297 -0.222010 0.443788 
-0.642798 0.358039 -0.051437 -0.852620 -0.229161 0.463275 
0.532846 1.575731 1.232131 -0.309852 0.691066 -0.609467 
0.342749 0.448306 0.080228 0.450342 0.216064 -0.794359 
-0.492696 0.541318 0.504066 -0.546959 -0.458937 0.690750 
-0.652017 0.767992 -0.037379 0.530809 0.288169 -0.648143 
0.750412 0.814875 0.143581 -0.496213 0.485157 -0.624591 
-0.692420 0.847994 0.137701 -0.927160 -0.198145 0.306855 
1.476806 2.729853 0.606047 -0.938669 0.095577 -0.295816 
1.073141 1.281473 0.143711 -0.763372 0.376493 -0.501707 
1.358192 2.865335 1.170404 0.928188 -0.192090 0.307162 
0.180093 1.080908 0.534017 0.767547 0.484082 -0.315447 
0.524725 0.632490 0.467163 0.249501 -0.551886 0.782721 
1.105846 1.792790 0.615211 -0.808443 0.337785 -0.460119 
-0.500755 3.162823 0.790725 0.623318 -0.519199 -0.563011 
-1.018986 1.906054 0.423967 -0.898007 -0.272207 0.299139 
1.475007 1.391242 -0.395212 0.679797 -0.135674 0.720034 
1.182415 0.612952 -0.308095 -0.584049 0.124315 -0.792710 
-0.487306 1.110975 0.621492 0.959455 -0.031943 -0.215907 
0.200402 0.592160 0.550831 0.339014 0.051840 0.920499 
0.325703 -0.682700 0.150798 0.626046 -0.269373 0.722428 
-0.009948 -0.985467 0.061892 -0.533221 -0.254211 0.789447 
-0.660213 2.879853 0.818079 0.752673 -0.338022 -0.541366 
0.081354 -0.429201 -0.050019 0.260813 -0.303665 -0.907577 
0.196144 0.552204 -0.038002 0.510542 0.086577 -0.831080 
-0.137317 -0.432462 -0.029218 -0.336509 -0.253768 -0.882294 
-0.464360 3.238713 0.729261 0.629632 -0.539212 -0.531412 
1.456319 2.940829 0.899113 -0.947387 0.168016 -0.248334 
0.174141 0.066875 0.510912 0.325660 -0.264139 0.895986 
0.936092 1.782537 0.955980 -0.550092 0.731590 -0.291234 
-0.113327 -0.626945 0.274536 -0.166795 -0.425648 0.885937 
1.464312 2.755460 0.671041 0.943377 -0.083215 0.298058 
-0.317480 0.399870 0.023791 -0.420508 0.052480 -0.851435 
1.102231 1.288280 0.077040 -0.769415 0.328954 -0.515316 
-0.111528 1.270003 0.296079 -0.709411 0.612659 0.043080 
-0.516239 -0.071325 -0.000972 -0.837484 -0.181404 0.504696 
-0.630262 0.539877 0.110150 -0.872996 -0.317537 0.357180 
-0.421896 3.129699 0.952238 0.822711 -0.419231 -0.374226 
1.385791 2.856051 1.095593 -0.910753 0.176377 -0.350365 
0.714608 1.405273 0.746629 -0.583081 0.584092 -0.512240 
-0.053126 -0.121378 0.464389 -0.087295 -0.294477 0.950202 
1.123505 1.870204 0.839423 0.791155 -0.430651 0.423028 
0.070252 1.206795 0.182547 0.496686 0.316988 -0.793566 
-0.126009 -0.331055 0.381467 -0.108084 -0.292905 0.948406 
0.215971 -0.690194 0.213896 0.323633 -0.390667 0.844701 
-0.295525 -0.173844 0.049182 -0.327462 0.029121 -0.911162 
0.314643 -0.930523 0.051319 0.349470 -0.270467 0.864055 
1.131874 1.255852 0.019160 0.805454 -0.271230 0.495219 
0.055672 1.179996 0.518051 -0.156615 0.651614 0.728757 
-0.812351 2.027566 0.745868 -0.852473 0.129250 0.477408 
0.422009 0.494510 0.429564 0.522713 -0.037286 0.822845 
0.347707 0.558780 0.162791 0.550197 0.422490 -0.649492 
-0.746322 0.628769 -0.164893 0.645175 0.252433 -0.610668 
-1.101598 1.792015 -0.390291 -0.893720 0.416560 -0.051132 
-0.320922 0.709533 0.066865 -0.742811 0.323277 -0.515189 
-0.579585 -0.827301 -0.155094 -0.612014 0.087642 0.759072 
0.599542 0.474288 0.289057 0.768874 -0.393912 0.489164 
0.063768 -0.895681 -0.002576 0.165930 -0.003668 -0.970414 
0.798459 0.461279 0.007958 0.766780 -0.270644 0.578264 
-0.565633 1.130173 0.453499 0.638161 0.533932 -0.547719 
-0.293507 -0.557314 0.001024 -0.240051 -0.021647 -0.864298 
-0.388974 0.449607 0.456585 -0.489118 -0.180350 0.841514 
-0.153616 -0.959311 0.053273 -0.062329 -0.349157 0.930559 
0.491318 0.663808 0.266191 0.103971 0.640911 -0.560779 
-1.050733 1.997976 0.138249 0.878498 -0.392855 -0.168600 
-1.050017 1.932978 -0.377186 0.909909 -0.390325 0.023490 
-0.599104 1.865195 0.956434 0.571795 0.209664 -0.722808 
0.807324 0.527139 -0.024841 -0.383286 0.238444 -0.725231 
-0.966475 2.374885 0.450397 -0.937976 0.156234 0.227118 
0.663227 -0.577894 -0.134827 -0.431507 0.091014 -0.888871 
-1.139071 1.693408 -0.409006 -0.878833 0.450675 -0.033404 
-0.276758 -0.058533 0.414696 -0.559391 -0.261566 0.745582 
-0.670631 0.838788 0.007494 0.640725 0.333532 -0.578902 
-0.410809 0.019622 0.047749 -0.027348 0.129732 -0.896463 
-0.487849 1.785843 1.135254 -0.840979 0.061454 0.503732 
-0.436780 -0.640550 -0.028505 0.361126 0.102577 -0.872995 
-0.456252 0.576872 0.454983 -0.520809 -0.150017 0.785770 
-0.174798 -1.119949 -0.004286 0.034254 -0.001635 -0.993943 
-0.733281 -0.236682 -0.265676 -0.656600 -0.098262 0.705949 
-0.690361 1.971979 0.863950 0.663555 0.166957 -0.655002 
0.151494 -0.603566 0.028959 0.053623 -0.106528 -0.984128 
1.316597 1.978938 0.163134 0.809391 -0.492152 0.057673 
-0.727160 2.048172 0.844820 -0.862990 0.040319 0.470852 
0.037796 0.781037 -0.043880 0.415954 0.305571 -0.843252 
0.127630 0.264193 -0.091693 0.471710 0.022066 -0.879514 
1.064055 1.189476 0.120937 0.796643 -0.338979 0.482917 
-1.047711 1.859427 0.374179 -0.910666 -0.219082 0.309324 
1.204512 1.242298 -0.162021 0.801624 -0.165071 0.550895 
-0.175835 0.346581 -0.047875 -0.498898 0.026074 -0.863319 
1.342934 1.425960 -0.262664 0.786472 -0.098568 0.586029 
1.257441 1.888169 0.268147 -0.915226 0.199229 -0.310187 
-0.511989 0.732613 0.308953 0.583222 0.299984 -0.209798 
1.274612 2.666411 1.330552 -0.842638 0.200155 -0.481481 
0.866998 0.863526 0.145336 0.807989 -0.334340 0.480271 
-0.300178 0.124878 0.022351 -0.387763 0.017636 -0.886599 
1.404279 3.336924 1.226644 -0.926533 0.133988 -0.348838 
-0.362928 3.401349 0.641590 0.646372 -0.573092 -0.476428 
0.510492 0.450274 0.446744 0.442372 -0.417205 0.764434 
0.784930 1.617492 1.029058 0.768941 -0.438913 0.360803 
0.565548 0.465913 0.400245 0.535131 -0.490058 0.647293 
1.042898 2.025975 1.158278 -0.693962 0.516158 -0.491243 
-0.961145 1.247012 -0.117151 0.850570 0.233699 -0.446731 
1.478774 2.350442 0.422275 0.931088 -0.254504 0.227732 
-0.985609 2.272950 0.067621 0.988564 -0.002539 -0.017729 
-0.932465 2.404256 0.523331 0.952783 -0.045693 -0.270290 
0.982336 1.890053 1.078415 0.734839 -0.558715 0.341248 
-0.456101 -0.970664 -0.077269 -0.700271 0.052059 0.685693 
0.177545 1.137542 0.212110 0.674010 0.471149 -0.488191 
-0.446478 1.414264 0.881037 0.898501 -0.156927 -0.050881 
0.760920 1.554455 0.900712 0.826463 -0.429944 0.259772 
-0.032268 -0.732603 0.031764 -0.246488 -0.038592 -0.962086 
1.194291 0.942853 -0.234817 0.702476 -0.192502 0.673159 
0.577340 1.500746 1.123843 0.859460 -0.378779 0.248381 
-0.798496 1.103934 0.018157 0.767201 0.346098 -0.509156 
-0.902974 1.819581 0.570322 -0.912689 -0.217932 0.309835 
-0.794206 -0.195018 -0.303120 0.581103 0.066229 -0.767736 
0.968852 1.328499 0.377813 0.837352 -0.332441 0.409365 
-0.630752 -0.108777 -0.155911 0.565970 0.173095 -0.744260 
-0.303163 1.653985 1.269069 0.742138 -0.052828 -0.525230 
-1.075406 1.295984 -0.338631 0.878048 0.236159 -0.388562 
-0.366154 -0.778760 0.062791 -0.654183 -0.192435 0.719908 
0.069591 0.359220 0.596976 0.165439 -0.061057 0.977037 
1.358561 2.567370 1.062964 0.886873 -0.136637 0.424048 
-0.945129 0.308735 -0.417295 0.656839 0.152613 -0.671174 
-0.340946 0.569011 0.154979 -0.513250 0.340209 -0.727152 
0.282026 0.959166 0.388955 0.917078 0.293614 0.216561 
1.262038 1.605665 -0.032974 -0.844993 0.154389 -0.462866 
-0.958417 2.454514 0.151803 0.985744 -0.059844 -0.051319 
-0.828347 0.374208 -0.294810 -0.778336 -0.216683 0.557750 
-0.311919 3.469369 0.621342 0.648027 -0.586952 -0.462212 
-0.672235 1.089170 0.315880 -0.912694 -0.174031 0.354400 
1.075799 0.964801 -0.084271 0.766296 -0.290836 0.570976 
-0.980278 1.682241 0.345542 0.861549 0.181384 -0.395262 
0.003874 -0.558233 0.004528 0.637239 -0.205827 -0.709086 
-1.224342 1.319718 -0.618645 -0.835463 -0.320682 0.442919 
-0.848011 0.728001 -0.264073 0.735914 0.270147 -0.576003 
0.094428 0.802338 0.542940 0.206899 -0.192667 0.949328 
-1.109382 1.798678 0.112859 -0.940915 0.011989 0.198912 
0.733258 -0.434126 -0.161108 0.544483 -0.103567 0.826191 
-0.841794 3.048518 -0.110399 -0.913941 0.396026 0.075355 
0.261783 0.224591 0.503224 0.450110 -0.171345 0.841810 
1.214270 0.695475 -0.317791 -0.591795 0.126881 -0.787076 
1.330629 1.006540 -0.352344 0.641496 -0.125278 0.749314 
0.186089 -0.505378 0.012976 0.036039 -0.253452 -0.920105 
-0.960938 1.602291 0.339660 -0.947082 -0.097014 0.305169 
-0.321246 0.465265 0.089231 -0.490445 0.166699 -0.784091 
1.002461 0.654865 -0.117164 0.722297 -0.238395 0.633675 
-0.866561 2.945124 -0.085771 -0.932718 0.335172 0.045919 
-0.191281 0.235170 -0.047735 -0.519556 0.001221 -0.852659 
1.384884 3.244185 1.242499 -0.910626 0.136409 -0.375277 
-0.943854 2.509146 -0.117921 0.983230 -0.154150 0.030350 
0.637308 1.428840 0.953977 0.892350 -0.310776 0.310798 
-0.910862 1.690067 0.489933 -0.946847 -0.099873 0.304852 
-0.825097 1.662215 0.550729 0.759299 0.261234 -0.491242 
-1.017584 1.136369 -0.357252 -0.850260 -0.282501 0.438275 
-0.925714 2.773034 0.397560 -0.881133 0.337642 0.258551 
0.746011 0.363659 -0.015853 -0.334186 0.217017 -0.754519 
0.698546 0.512450 0.165820 0.771971 -0.357451 0.519831 
-0.476647 1.676890 1.047143 0.533079 0.403480 -0.709223 
-0.000493 -1.253459 0.002670 -0.530507 -0.784920 0.117783 
-0.296027 0.830458 0.418642 -0.800906 0.257156 0.469658 
0.644441 1.618088 1.066846 -0.488095 0.788306 -0.326385 
-0.655818 0.757444 0.224005 -0.937669 -0.182259 0.275534 
0.649815 0.139716 0.003032 -0.233473 0.183626 -0.798733 
0.238506 1.041624 0.420872 0.853413 0.451352 0.225673 
0.269322 0.079660 0.460352 0.477836 -0.254591 0.808331 
0.971149 2.288824 1.554565 -0.792893 0.529487 -0.286531 
0.802952 1.494022 0.761570 0.872101 -0.351358 0.323357 
1.106336 2.090528 1.156284 -0.721559 0.504255 -0.469020 
-0.194441 1.055447 0.161186 -0.646267 0.394192 -0.636726 
0.810339 0.557034 0.043829 0.768882 -0.301867 0.557972 
0.069209 0.509765 0.583024 0.141684 0.037633 0.979602 
-0.949063 2.453213 0.290576 0.980228 -0.063237 -0.123170 
-0.517267 2.429525 1.044290 0.708564 -0.024189 -0.672037 
0.476519 -1.030268 -0.073267 -0.482087 0.079788 -0.872460 
-0.304578 0.908544 0.299517 -0.925260 0.333035 -0.052044 
1.198277 1.836769 0.502360 0.694637 -0.691605 0.035179 
-0.682135 -0.605674 -0.217128 -0.533663 0.017808 0.839078 
1.023828 2.369508 1.557341 0.616255 -0.381010 0.668914 
0.713702 1.270922 0.630425 -0.596499 0.587883 -0.512203 
0.483395 1.181979 0.944731 0.166944 -0.711038 0.520852 
-0.977862 0.855273 -0.384998 -0.814948 -0.267817 0.492961 
-0.735242 3.140202 0.204352 -0.798276 0.519030 0.254175 
-0.877107 2.382954 0.676203 -0.901112 -0.067896 0.395779 
-0.553014 0.793477 0.283311 0.777496 0.220973 -0.090296 
-0.118588 0.690534 0.533810 -0.094326 0.135330 0.975948 
-0.647217 2.959713 0.798905 0.742171 -0.404585 -0.517726 
0.368634 -0.404026 0.167878 0.720557 -0.253844 0.641526 
-0.438896 -0.351871 0.000477 0.200925 0.115715 -0.866020 
-1.100777 1.834387 -0.032340 -0.931269 0.123852 0.075013 
0.460211 0.623975 0.507862 -0.729361 0.632546 -0.179285 
-0.745072 2.413183 0.826813 -0.734180 0.235643 0.625818 
0.209058 0.500311 0.549556 0.303176 -0.021158 0.943748 
0.018229 -0.739990 0.230376 0.409555 -0.356327 0.834389 
1.167772 1.783065 0.462874 -0.859749 0.332300 -0.370683 
0.357949 0.741528 0.335491 0.925647 0.306166 0.075120 
0.502547 -0.724251 -0.055516 0.611711 -0.137846 0.775489 
-0.267144 0.949970 0.442333 -0.850106 0.091518 0.455831 
1.334658 2.051116 0.254214 0.909817 -0.182040 0.282798 
-0.776772 2.196813 0.792037 0.744149 0.042314 -0.622207 
1.056496 0.999399 -0.025263 0.776673 -0.303479 0.547054 
0.051493 -0.680337 0.262831 0.297237 -0.409426 0.855067 
0.056540 0.949910 0.038711 0.434770 0.496426 -0.734304 
0.271124 -0.398961 0.030546 0.448479 -0.039005 -0.867834 
0.922258 2.169959 1.489643 0.774998 -0.498776 0.376002 
0.612752 0.767733 0.361305 -0.838212 0.399694 -0.143278 
-0.368476 -0.338815 0.063752 -0.038474 0.094680 -0.920114 
0.159044 -0.080741 0.466851 0.253732 -0.274143 0.917687 
0.996641 1.165051 0.151762 -0.718935 0.399943 -0.540331 
0.096698 -0.858566 0.128217 0.106662 -0.376007 0.906619 
-1.097356 1.791600 0.273507 -0.939426 -0.117758 0.304981 
-0.695194 3.098950 0.484480 -0.756331 0.514444 0.384608 
0.010289 -0.337797 0.369835 -0.051157 -0.315368 0.945738 
0.755616 0.941312 0.371537 0.849663 -0.278688 0.438308 
0.797847 1.804388 1.223163 0.809749 -0.504923 0.231734 
