0.975178 0.268199 0.392545 -0.097817 -0.202312 0.971782 
-2.057062 0.311035 0.571905 0.166601 -0.145011 0.948045 
2.265188 -0.053439 0.589458 0.690644 -0.049742 -0.715863 
-3.376113 0.076411 0.672517 -0.470468 -0.139578 -0.862765 
-0.803401 0.286682 0.258927 -0.495877 0.027009 -0.845729 
1.719730 -0.539280 0.513930 -0.335880 0.245104 0.891563 
-0.586140 0.234668 0.147363 -0.621686 -0.079104 -0.735928 
0.550519 -0.325658 0.150039 0.044134 -0.095904 0.968259 
0.934700 0.626285 0.372487 -0.172619 0.043558 0.980613 
1.172193 0.389601 0.422473 -0.034797 -0.259250 0.961660 
0.482532 0.052356 0.236316 -0.129544 -0.223178 0.939518 
1.908635 0.399627 0.514521 -0.194085 -0.191137 0.927044 
-2.242546 0.199644 0.550249 -0.231838 -0.051746 0.935126 
-1.951318 -0.304404 0.576148 0.007373 -0.254551 -0.942298 
0.716971 -0.482318 0.245683 0.347896 -0.077898 -0.925166 
-3.139605 0.343792 0.515235 -0.251080 -0.058503 -0.949393 
-1.896435 -0.252399 0.570286 -0.056981 -0.236896 -0.953811 
-2.638809 0.722241 0.516752 -0.115956 0.234899 -0.932138 
0.350387 -0.877833 0.104633 0.050247 0.034902 0.991577 
3.252503 0.030634 1.419788 0.813044 -0.238148 -0.518796 
-0.354555 -0.225196 0.109101 -0.196232 -0.168941 0.949766 
-0.753986 -0.326460 0.277318 0.177664 -0.044887 0.953970 
-1.015912 0.080645 0.403760 0.208026 -0.141149 0.954968 
2.830831 0.562908 0.857655 0.586055 0.019013 -0.808833 
-0.369327 0.612708 0.325428 -0.390673 0.081179 0.823310 
0.095025 0.287649 -0.333489 0.598706 0.070668 -0.776738 
2.931222 -0.498373 1.318232 0.666367 -0.404406 -0.606740 
-0.336079 0.144142 0.225953 -0.089184 -0.296266 0.950633 
-2.449362 -0.317038 0.569688 -0.153256 -0.298281 -0.934945 
-2.399463 -0.116919 0.543368 -0.184073 0.177125 0.945490 
-0.062748 1.064221 -0.053685 -0.392127 0.189775 -0.888568 
1.250266 0.115709 0.383414 0.287289 -0.150619 -0.940053 
-2.713038 0.703988 0.531071 -0.042490 0.161822 0.952208 
-1.942139 -0.697261 0.767578 0.276578 0.387730 0.872628 
-0.056952 -0.956687 0.162791 -0.311242 0.026278 0.940892 
-2.266893 -1.021054 0.919866 0.013344 -0.446097 -0.893345 
-3.369479 -0.319410 0.818642 -0.316359 -0.363698 -0.859891 
-0.350634 -0.341633 -0.048347 -0.680466 -0.051681 -0.728372 
0.450592 0.547292 0.338673 -0.120232 0.267703 0.888559 
0.538373 0.229026 0.116518 0.645523 -0.066744 -0.716688 
-2.464289 0.268873 0.519290 -0.105834 -0.070484 0.966473 
-0.853103 -0.501766 0.311406 -0.403179 -0.043204 -0.910915 
2.117208 -0.791872 0.867253 0.482105 -0.460272 -0.731630 
-3.223392 -0.505022 0.833143 -0.298365 -0.358222 -0.871606 
-0.264749 0.318695 0.316026 -0.107894 -0.274529 0.951777 
0.085373 -0.440619 0.229604 0.138956 -0.169427 0.973412 
-3.435958 0.360244 0.617797 0.478455 -0.005972 0.862576 
0.499328 0.005297 0.080293 0.644829 -0.036419 -0.724368 
-2.504594 -0.545788 0.669298 -0.185554 -0.370795 -0.907296 
3.133128 0.021061 1.239820 -0.666577 0.363574 0.626870 
-2.647138 -0.608004 0.700814 -0.063140 0.360579 0.883615 
-0.209615 -1.022542 0.118165 0.004589 0.063987 0.989578 
-0.778653 -0.042709 0.260469 -0.501654 -0.052308 -0.834007 
1.461003 0.352740 0.413309 0.262962 -0.226843 -0.937488 
-3.659073 0.243436 0.796872 -0.517429 -0.160233 -0.834033 
-0.542922 0.525535 0.159338 -0.680230 0.316418 -0.606524 
2.717849 -0.213697 0.897408 -0.592277 0.228912 0.739906 
1.313139 0.604573 0.413623 -0.008495 0.383475 -0.896226 
-1.739720 -0.368823 0.576677 0.161943 0.197014 0.960364 
3.176909 -0.291137 1.516050 0.789333 -0.330397 -0.507250 
-1.053416 -0.300380 0.395682 -0.376852 -0.075723 -0.916833 
2.241943 0.606134 0.622316 -0.236605 -0.307212 0.879132 
-0.236746 -0.402582 0.199051 -0.453877 -0.109302 0.863702 
0.134886 0.907689 -0.052162 0.544354 0.299404 -0.759473 
3.409625 0.014886 1.737009 0.868149 -0.243332 -0.428344 
-0.166397 1.115857 0.308513 -0.807369 0.359182 -0.227111 
1.648392 0.662331 0.429878 0.026970 0.284698 -0.910097 
0.490387 0.652347 0.278854 0.600236 0.650201 -0.410816 
0.082494 -0.049633 0.250008 0.137547 -0.136023 0.974119 
-0.090273 -0.849752 0.031070 -0.048174 -0.405730 -0.900404 
1.744076 -0.599521 0.559153 0.367117 -0.344767 -0.842737 
-1.224847 -0.657359 0.508888 -0.393597 -0.163318 -0.899570 
2.526018 0.326303 0.726215 -0.362156 -0.065132 0.895731 
-0.007073 -1.106815 0.185969 -0.642126 -0.135491 0.699116 
-1.722726 -0.686020 0.723877 0.208775 0.326857 0.907774 
0.520161 0.512143 0.116460 0.740069 0.209866 -0.614894 
-2.125764 0.266228 0.571100 0.021712 -0.053224 0.949113 
2.265864 0.336114 0.621681 -0.262687 -0.155856 0.911991 
-0.207132 -0.592383 -0.061240 -0.056962 -0.404401 -0.892984 
-2.613089 0.592958 0.572825 -0.059382 0.000346 0.935355 
-1.043338 0.012418 0.405976 0.236758 -0.115369 0.949383 
-0.121933 0.660851 -0.183148 -0.411731 0.478983 -0.756093 
1.717638 0.473970 0.494791 -0.126785 -0.247084 0.935432 
-0.981083 0.376788 0.363522 -0.166479 0.438002 -0.877038 
-0.835888 -0.424456 0.308031 -0.397134 -0.059541 -0.913099 
0.456013 0.359877 0.072636 0.742908 0.064180 -0.634085 
-0.492404 -0.098520 0.069157 -0.653061 -0.046372 -0.729993 
-0.442776 -0.754463 0.111060 -0.435119 -0.142804 -0.874273 
-1.629506 -0.066995 0.543299 0.107839 0.050967 0.965273 
0.543737 -1.053901 0.171803 -0.200531 -0.059343 0.974598 
-0.151438 0.948592 -0.039227 -0.570199 0.259727 -0.759850 
-0.992076 -0.661518 0.379920 0.385378 -0.029402 0.917119 
0.218580 1.273427 0.384055 0.799415 -0.493512 -0.297087 
-0.213519 0.733073 0.400614 -0.332383 0.299981 0.870620 
-0.390829 -0.858759 0.097689 -0.415098 -0.164898 -0.883267 
0.312152 0.881281 0.159857 0.918373 0.316841 -0.124999 
2.648590 -0.156405 0.810397 -0.536331 0.216437 0.798239 
-0.257972 0.561335 0.386593 -0.179624 -0.179595 0.948060 
-3.190875 -0.346422 0.752743 0.328983 0.263894 0.884510 
3.219328 -0.271339 1.569875 -0.792189 0.334100 0.506314 
1.055164 -0.713446 0.350675 0.294011 -0.029734 -0.951919 
-0.591234 0.039226 0.148069 -0.627962 -0.043040 -0.737586 
1.113497 0.264786 0.409418 -0.080784 -0.219739 0.962871 
0.909749 0.092345 0.373475 -0.162010 -0.159675 0.970369 
0.838118 -0.746854 0.286495 0.303811 -0.017282 -0.947302 
1.924375 -0.360007 0.520736 -0.405672 0.216137 0.853428 
-0.113551 0.725534 0.418312 -0.108957 0.125420 0.981267 
-0.017414 -0.050672 0.253912 -0.095453 -0.118695 0.982570 
-1.824278 0.769444 0.544667 0.359220 0.667686 0.593635 
-0.675148 0.209867 0.199965 -0.558236 -0.088458 -0.784194 
3.124874 -0.293460 1.440312 -0.777090 0.306947 0.535358 
-1.750458 -0.615235 0.692905 -0.188111 -0.330704 -0.912767 
2.091911 -0.403835 0.603343 0.192419 -0.357276 -0.907748 
0.310028 0.830008 0.291644 0.772261 0.390111 0.423405 
-3.606881 -0.112993 0.868360 0.466320 0.269531 0.833301 
-0.005406 1.237106 0.279727 -0.016758 0.820131 0.559697 
-3.219603 0.020057 0.597935 -0.364642 -0.207772 -0.898563 
2.486025 -0.150417 0.719872 -0.393875 0.205889 0.877468 
-0.340059 -0.133458 -0.037044 -0.718470 -0.058093 -0.685589 
2.634248 0.327379 0.771435 -0.395619 -0.023318 0.889652 
-3.322532 -0.214833 0.756197 0.406897 0.216374 0.873090 
-0.761664 0.356173 0.391121 0.197143 0.171854 0.941282 
-3.132448 -0.393149 0.744076 -0.211548 -0.390235 -0.881561 
3.294046 0.405021 1.267907 0.830769 -0.091110 -0.538908 
1.852672 -0.391321 0.505803 -0.347984 0.215560 0.892205 
2.820979 -0.176394 0.960296 0.500619 -0.407189 -0.754865 
2.265543 -0.821375 0.956508 0.476420 -0.468169 -0.735435 
-0.440149 0.614940 0.280938 -0.161214 0.415061 0.793082 
1.272757 -0.217125 0.406600 -0.250807 0.002005 0.956057 
-0.251211 1.058146 0.203716 -0.907701 0.390621 0.010865 
1.030556 0.644080 0.386541 -0.167995 0.051258 0.982353 
-0.011342 0.948776 0.429770 -0.136446 0.073508 0.974929 
1.148687 0.579584 0.389025 0.031184 0.303093 -0.939860 
0.351848 0.599867 -0.084341 0.643048 0.313737 -0.683502 
-1.668417 0.120460 0.517256 -0.190798 -0.258217 -0.942289 
2.036993 0.557256 0.503503 0.190396 -0.228579 -0.950571 
-0.276516 0.760019 0.381668 -0.482630 0.340242 0.803222 
2.768402 0.401101 0.817457 0.639800 0.124092 -0.749075 
-0.301991 0.144261 -0.146402 -0.739834 -0.049574 -0.651712 
0.171516 -0.750639 0.151183 0.107254 -0.090041 0.972738 
0.223469 0.239316 0.299985 0.128535 -0.297650 0.944856 
-1.050743 -0.697307 0.406986 -0.416146 -0.054813 -0.901236 
2.484898 -0.731546 1.000525 -0.469681 0.429537 0.752820 
-1.602493 0.435562 0.530498 0.062701 -0.214365 0.955287 
-0.759993 0.087910 0.353323 0.248405 -0.174629 0.943246 
0.230661 0.318614 -0.239303 0.718250 0.063803 -0.666660 
0.617223 -0.640107 0.214544 0.336527 -0.119541 -0.927168 
-0.216624 -0.169881 0.213064 -0.383033 -0.146604 0.859690 
-1.438503 -0.468248 0.517413 -0.284839 -0.181353 -0.926517 
-1.102959 -0.637795 0.453236 0.379869 0.050723 0.915162 
2.305506 0.621783 0.650224 -0.256954 -0.284635 0.875091 
0.183723 -0.126842 0.228623 0.282874 -0.140079 0.912145 
-0.643452 0.415788 0.380768 0.244855 0.245295 0.928320 
-0.973888 -0.734242 0.362114 0.395001 -0.048287 0.913662 
-2.147001 -0.342652 0.607621 0.313020 0.241882 0.907362 
3.012777 -0.198853 1.215685 -0.763043 0.228227 0.574395 
0.104057 0.911712 0.419390 0.242454 0.045073 0.961885 
-0.082310 1.099113 0.392880 0.011542 0.259646 0.914250 
0.970108 -0.242766 0.369640 -0.255637 -0.056408 0.963906 
0.362966 0.730549 0.088280 0.820504 0.466217 -0.311780 
-0.343983 -0.607830 -0.000572 -0.566019 -0.104554 -0.796331 
-0.200757 1.123342 0.193319 -0.450444 0.406019 0.675802 
-1.392394 -0.856134 0.616940 0.369317 0.224046 0.893396 
-0.811060 0.575572 0.356086 -0.272155 0.275768 -0.857279 
-0.786562 -0.557068 0.284442 -0.397706 -0.065040 -0.910934 
0.194207 0.716341 0.408771 0.277474 0.289260 0.892697 
2.303454 0.115235 0.611422 0.560870 -0.057487 -0.797019 
-1.126558 -0.524631 0.459025 -0.398705 -0.123437 -0.903969 
-3.141895 0.568681 0.522446 0.110611 0.107168 0.973934 
0.762643 -0.584926 0.267470 0.321805 -0.061415 -0.938674 
0.032328 -0.833980 0.178047 0.371214 -0.026050 0.921623 
0.533717 0.565712 0.332035 -0.220863 0.342947 0.903377 
0.059163 0.887313 -0.089797 0.431457 0.338596 -0.817837 
-0.000132 -0.772117 0.203987 -0.572755 -0.046204 0.809038 
-3.228107 0.439443 0.532967 -0.277173 -0.073582 -0.943675 
2.181025 -0.546492 0.732984 0.581022 -0.401842 -0.697065 
0.619953 -0.030432 0.275993 -0.167995 -0.176331 0.947123 
-1.921323 0.776321 0.535848 0.014612 0.437421 -0.793129 
0.751626 -0.335020 0.230516 0.399784 -0.039892 -0.899579 
1.504218 0.184027 0.453888 -0.110982 -0.120437 0.950237 
0.321506 -0.367296 0.159045 0.701298 -0.127337 0.696954 
0.318278 0.728745 -0.005429 0.675720 0.505790 -0.493314 
-0.309186 -1.424355 0.171186 0.368303 -0.847708 -0.225302 
0.857836 0.184165 0.296751 0.403112 -0.109234 -0.893445 
-0.232869 -0.253268 0.201755 -0.447816 -0.117593 0.833562 
0.959805 0.347812 0.397486 -0.148089 0.199064 0.945298 
-1.973843 -0.043256 0.577161 0.164688 0.047280 0.958366 
-0.474377 0.385008 0.083946 -0.744097 0.087675 -0.628452 
-1.572854 -0.364600 0.525966 -0.219572 -0.194888 -0.942295 
0.387395 -0.546030 0.068422 0.144562 -0.055665 0.978313 
-2.581375 0.335297 0.501074 0.073958 -0.232915 -0.947647 
-0.296814 -0.229520 0.184086 -0.530428 -0.165934 0.775461 
-0.000572 0.111542 0.275128 -0.052020 -0.207745 0.973800 
-3.748372 0.190897 0.886462 0.568284 0.097250 0.804726 
-0.338261 0.509603 -0.121163 -0.679961 0.169353 -0.698758 
1.209159 -0.419034 0.380019 0.307460 -0.082510 -0.944243 
0.261751 1.020157 0.266020 0.879255 0.266106 0.261586 
2.209259 -0.080064 0.545598 0.414155 -0.126717 -0.875126 
0.498059 -0.676667 0.134650 0.401711 -0.130616 -0.888659 
0.076229 1.016652 0.418904 0.183800 0.105914 0.970057 
-1.238892 0.245938 0.453273 0.122884 -0.176048 0.957841 
-0.056106 1.332216 0.036577 -0.622394 0.654329 -0.170879 
-0.106025 0.130177 0.272411 -0.104052 -0.242566 0.960738 
2.503394 0.758180 0.739378 -0.282589 0.420473 0.818825 
-1.971120 0.783780 0.618156 0.218452 0.236543 0.903784 
-1.008429 0.517822 0.382127 -0.125709 0.298918 -0.927201 
0.753688 0.428807 0.351431 -0.175860 0.375473 0.906841 
1.909168 0.278452 0.508461 -0.213536 -0.129637 0.928782 
-2.956726 0.393339 0.537017 0.103499 0.055013 0.953450 
-2.300978 -0.314709 0.598541 -0.416463 0.269405 0.843132 
-0.080637 -0.176568 -0.273433 -0.463863 -0.191826 -0.833450 
2.417716 0.470790 0.688582 -0.309246 -0.175122 0.885049 
-0.317343 -0.064740 -0.055476 -0.693543 -0.120955 -0.688524 
-0.834653 -0.859288 0.290476 -0.418953 -0.009340 -0.902785 
-0.122454 -0.742455 0.163703 -0.179465 -0.095837 0.968976 
-3.445198 0.150546 0.685961 -0.414160 -0.201292 -0.880619 
3.364961 0.270601 1.496681 0.850853 -0.158471 -0.490835 
-0.841860 -0.292822 0.298648 -0.422583 -0.052085 -0.898739 
1.287203 0.533829 0.463390 -0.219938 0.163244 0.943473 
-0.326523 -0.822265 0.117872 -0.158646 -0.007348 0.953879 
0.363897 0.740814 0.271611 0.804141 0.414534 0.297612 
-3.163010 -0.288414 0.716259 0.338874 0.232582 0.887879 
-1.210846 0.160123 0.406969 -0.325685 -0.177114 -0.920312 
-0.360735 0.774224 0.199799 -0.886013 0.414008 0.020426 
-2.763695 -0.712916 0.744763 -0.120191 -0.401089 -0.906796 
0.712586 -0.662050 0.264031 -0.157793 -0.016992 0.976286 
-1.277526 0.031612 0.427976 -0.302722 -0.170876 -0.926221 
-1.219228 0.478885 0.378741 -0.176766 0.089270 -0.961210 
-3.619424 0.301944 0.750945 -0.503112 -0.146347 -0.845674 
-3.303500 0.543123 0.564094 0.115514 0.362355 0.893831 
0.627005 0.595389 0.322572 -0.190282 0.355886 0.902276 
-1.557645 0.040411 0.527045 0.096920 -0.012998 0.964545 
1.694050 0.268779 0.481518 -0.152610 -0.145282 0.939590 
-1.303547 0.346169 0.469113 0.078642 -0.206198 0.961019 
-3.891078 0.105375 1.014672 -0.600563 -0.182654 -0.776456 
-0.323425 0.809919 0.105499 -0.838440 0.413397 -0.307863 
-1.834504 -0.058052 0.563546 -0.137775 -0.260973 -0.953858 
-0.357696 0.431101 -0.066362 -0.732017 0.092763 -0.661026 
0.160329 -0.614065 -0.070571 0.226950 -0.396307 -0.885131 
3.368011 0.084155 1.615418 -0.862276 0.171318 0.452826 
-2.658148 0.533850 0.553902 -0.052530 -0.002313 0.947372 
-1.275968 0.520315 0.491055 0.222525 0.081741 0.967912 
0.386678 0.620993 -0.021180 0.679690 0.378119 -0.591149 
-2.201581 0.743084 0.576077 -0.295579 -0.092111 0.940678 
0.143922 1.254203 0.188221 0.483342 0.830269 0.044889 
-0.319592 0.034282 -0.047811 -0.714120 -0.113220 -0.668036 
-0.238175 0.186719 0.272288 -0.121218 -0.282623 0.950207 
0.314664 0.099773 -0.079710 0.728081 -0.080562 -0.658674 
-0.110415 0.619402 0.441891 -0.170374 -0.244567 0.952094 
-0.359585 0.691750 0.333214 -0.605540 0.171915 0.679725 
1.940970 -0.286646 0.488538 0.239259 -0.208334 -0.941675 
-2.590006 -0.819509 0.805665 0.053846 0.399066 0.909462 
-2.560960 0.659327 0.560461 -0.122678 -0.009838 0.948217 
0.448432 -1.025983 0.142703 0.312875 -0.134938 -0.933041 
1.393972 -0.784417 0.431757 0.299161 -0.178112 -0.929674 
-2.576641 -0.519056 0.656489 -0.168067 -0.359158 -0.914250 
-1.072913 0.395185 0.452094 0.175511 -0.010596 0.976557 
-2.352776 -0.064125 0.539622 -0.200167 0.142174 0.957589 
-1.702219 -0.080878 0.559225 0.102807 0.069358 0.965414 
-1.391106 -0.786472 0.573313 -0.365442 -0.217086 -0.899415 
-0.188461 0.586450 -0.188942 -0.514368 0.329977 -0.756866 
0.166451 -0.420049 -0.187531 0.461060 -0.317000 -0.818424 
-0.490638 -0.176940 0.060562 -0.639161 -0.047315 -0.745329 
1.448718 -0.804800 0.485463 0.334824 -0.250168 -0.886963 
0.184985 1.266628 0.312507 -0.330863 0.899827 0.134802 
-0.608939 -0.030105 0.153314 -0.605708 -0.043536 -0.758095 
-2.938700 -0.396896 0.659332 -0.108404 -0.418748 -0.900227 
0.802806 0.091718 0.353239 -0.195248 -0.179828 0.957855 
-0.427987 0.593573 0.035029 -0.729939 0.336999 -0.558645 
1.358426 -0.079232 0.395693 0.296018 -0.137722 -0.939555 
-0.902143 -0.862983 0.315474 -0.427525 0.019781 -0.901345 
1.616981 0.405606 0.478957 -0.108442 -0.222031 0.941419 
0.256310 -0.566135 0.152857 0.481601 -0.121711 0.861163 
-1.792704 -0.416326 0.597772 -0.154244 -0.258469 -0.947987 
2.188540 0.456392 0.596409 -0.219163 -0.239292 0.903005 
-0.806451 -0.150109 0.273630 -0.480882 -0.041475 -0.853787 
-1.674349 -0.364014 0.548677 -0.186155 -0.216284 -0.948274 
-1.185180 -0.481667 0.463230 -0.370689 -0.129668 -0.910680 
2.619405 -0.108685 0.755350 0.471093 -0.242810 -0.843265 
0.335299 0.051169 -0.024815 0.734439 -0.073312 -0.660331 
-1.164736 0.586280 0.431655 0.264771 0.222709 0.926314 
0.450778 0.276873 0.064318 0.723517 -0.012571 -0.661158 
0.547393 -0.136889 0.096083 0.585816 -0.036634 -0.773811 
-1.914899 -0.878684 0.853406 -0.104309 -0.454189 -0.868958 
1.645279 0.741779 0.477859 -0.090275 0.543333 -0.730137 
1.393624 0.340039 0.448175 -0.054024 -0.210119 0.953449 
2.529687 -0.609438 0.944442 -0.392798 0.395192 0.782319 
-2.794619 -0.654734 0.716212 0.098740 0.372398 0.915844 
-0.183243 0.571403 0.413550 -0.169760 -0.227126 0.955772 
-0.333991 -0.535666 -0.028893 -0.596007 -0.101973 -0.778480 
-0.236943 0.633379 -0.158971 -0.527722 0.392116 -0.737507 
0.318984 -1.212579 0.165870 0.494351 0.291911 0.733697 
0.252890 0.125665 -0.216275 0.696164 -0.037909 -0.688223 
-0.166153 -0.258099 0.228346 -0.272316 -0.059817 0.938252 
2.769939 -0.433077 1.041985 0.527150 -0.450553 -0.718382 
-0.033100 -0.545633 0.214199 -0.271618 -0.153955 0.937221 
-1.566901 0.158037 0.492788 -0.220281 -0.253053 -0.936869 
2.289153 0.790156 0.621404 0.516661 0.131076 -0.819324 
-1.924640 0.547039 0.594751 0.059280 -0.237297 0.946044 
-0.199106 -0.463608 0.202523 -0.325227 -0.130861 0.933287 
-1.843892 0.441964 0.538886 -0.155638 -0.285943 -0.942735 
-0.360559 -0.084413 0.151464 -0.106417 -0.212575 0.957102 
0.729981 0.202667 0.224620 0.500152 -0.092382 -0.822694 
-0.981805 -0.276175 0.397785 0.332474 -0.012787 0.939826 
-2.314998 0.333518 0.524842 -0.026615 -0.137191 -0.962691 
-0.150051 0.797809 0.402113 -0.228882 0.094100 0.951306 
0.382058 -1.147102 0.156587 0.199970 0.144801 0.845147 
-0.098412 0.345139 0.360926 -0.083979 -0.333340 0.934777 
-2.981043 0.271815 0.495147 0.048047 0.089086 0.977463 
-0.148107 1.254689 0.178286 -0.567915 0.793434 -0.025854 
0.464493 0.220864 0.280640 -0.214622 -0.278015 0.926838 
-0.054928 1.278884 0.198560 -0.139741 0.922094 0.353622 
1.474514 0.028954 0.442728 -0.159698 -0.058062 0.951346 
3.271933 0.120850 1.403920 -0.825925 0.150818 0.512320 
0.141275 1.230453 0.359827 -0.395738 0.680031 0.560537 
1.578628 -0.780162 0.566624 -0.387967 0.331352 0.833424 
-0.386233 0.167882 0.023579 -0.758296 -0.045131 -0.637430 
0.129325 1.051558 -0.033231 0.496968 0.218055 -0.827057 
0.558451 -0.973185 0.183601 0.319573 -0.124514 -0.930157 
-0.641664 -0.323006 0.203713 0.053660 -0.069865 0.958238 
0.459973 -0.222262 0.030056 0.622459 -0.045757 -0.758036 
-0.819142 -0.718564 0.290231 -0.409915 -0.032350 -0.906442 
1.758557 -0.656521 0.604434 -0.444849 0.362613 0.789941 
-0.735355 0.342365 0.224897 -0.556650 0.072549 -0.787980 
-1.096940 0.224852 0.378654 -0.353584 -0.164066 -0.915769 
-1.419870 -0.629301 0.553662 0.314471 0.165182 0.922894 
0.067371 0.138867 0.278789 0.079450 -0.240878 0.962654 
-2.902474 0.265999 0.491058 0.051205 0.051953 0.987841 
1.141948 -0.367472 0.388680 -0.265157 0.003405 0.958995 
-2.830115 0.484978 0.564943 0.062743 0.042893 0.936061 
2.326512 -0.670989 0.884461 0.537914 -0.432481 -0.714201 
0.527753 -0.251516 0.162452 0.015958 -0.122327 0.962521 
0.562339 -0.032913 0.117066 0.597919 -0.032602 -0.757240 
-1.344387 0.068679 0.443064 -0.283434 -0.194206 -0.928541 
-2.902424 0.406955 0.473363 -0.168311 0.094733 -0.973713 
1.254451 -0.621125 0.400123 -0.275269 0.066294 0.955183 
2.716407 -0.488158 1.020856 -0.598717 0.334481 0.699557 
0.523129 -0.211526 0.072231 0.585517 -0.040575 -0.780414 
-1.143559 0.435490 0.462199 0.174226 -0.016827 0.972244 
-1.765185 -0.116521 0.572705 0.106429 0.095192 0.964961 
-2.446601 0.415361 0.516463 0.027291 -0.245034 -0.943592 
1.848078 0.699424 0.469399 0.213680 -0.192161 -0.943435 
1.013111 -0.427117 0.351288 0.312212 -0.030914 -0.947517 
1.332567 -0.575062 0.399867 0.296103 -0.122562 -0.944460 
-1.101695 0.424026 0.362906 -0.182091 0.239391 -0.933515 
-3.130144 0.234240 0.527521 -0.353311 -0.014231 -0.917610 
3.029035 -0.422123 1.399796 -0.718889 0.359339 0.574924 
2.980903 0.418465 0.937907 0.602262 -0.030211 -0.785928 
-3.042608 -0.448455 0.727613 -0.180918 -0.396032 -0.889455 
1.430346 0.425947 0.457034 -0.051007 -0.250176 0.950377 
2.818720 0.050445 0.876106 0.423536 -0.353481 -0.818902 
-2.347549 0.705173 0.582719 -0.203133 -0.054295 0.933382 
-2.895045 0.177713 0.492751 0.084426 -0.337678 -0.928417 
2.487837 -0.072470 0.711307 -0.405436 0.146962 0.889663 
0.202330 0.476691 -0.223889 0.600630 0.169757 -0.762005 
2.590679 -0.476740 0.904584 0.534916 -0.357113 -0.756433 
-1.994949 -0.947592 0.886855 -0.087554 -0.456531 -0.874778 
1.708371 0.330790 0.447197 0.257679 -0.232545 -0.937181 
2.135009 -0.945888 0.979336 -0.399967 0.479403 0.772293 
-0.290652 -0.627267 -0.059739 -0.489690 -0.234234 -0.832177 
0.387109 -0.111801 0.144250 0.054099 -0.191418 0.953712 
-1.680439 0.570110 0.544319 0.053836 -0.276698 0.950515 
-0.359185 0.324052 0.286794 -0.028517 -0.224314 0.965754 
-0.757119 0.620282 0.351477 0.200928 0.181794 0.941041 
-2.067082 -0.958829 0.892238 0.085457 0.432620 0.886973 
-1.502974 -0.648577 0.569622 -0.300557 -0.220918 -0.916504 
0.216603 0.052574 -0.231925 0.641805 -0.059485 -0.732471 
1.289911 0.412429 0.390853 0.264655 -0.219069 -0.938208 
0.029538 -1.174932 0.169520 0.249201 -0.348860 -0.896264 
0.133589 0.349313 -0.287043 0.616983 0.124771 -0.740513 
-2.528601 0.028186 0.509269 -0.066544 0.079754 0.989075 
-0.707521 0.040411 0.340093 0.284958 -0.167022 0.933474 
-0.037698 0.589492 0.441402 -0.081772 -0.273937 0.955994 
0.924500 0.162844 0.330963 0.355771 -0.113945 -0.926369 
-0.479281 0.460061 0.091227 -0.760829 0.158193 -0.603954 
3.142090 0.140879 1.171715 0.801016 -0.149343 -0.567705 
0.244363 -0.066943 0.215163 0.336490 -0.202532 0.864439 
-3.068500 -0.203138 0.633419 -0.113479 -0.430087 -0.889865 
3.197940 -0.111453 1.429080 -0.743753 0.337934 0.554061 
0.592860 -0.401924 0.175650 0.004343 -0.066939 0.972337 
3.227428 0.430278 1.198360 -0.821556 -0.056659 0.531513 
-0.328850 0.757551 0.333872 -0.672508 0.399970 0.554182 
1.370707 0.134581 0.435383 -0.120775 -0.124851 0.954309 
0.045625 -0.953057 0.083655 0.232721 -0.365529 -0.889545 
1.645918 -0.513711 0.445826 -0.288126 0.148541 0.945358 
2.421484 0.686213 0.729015 -0.284455 -0.036222 0.910641 
-1.183700 -0.870386 0.485583 -0.415426 -0.121438 -0.893161 
-0.312561 0.260239 0.276379 -0.089017 -0.266891 0.956625 
-0.672050 0.609720 0.335373 0.206581 0.287916 0.914699 
-2.240505 -0.643088 0.728734 0.125285 -0.407295 -0.894912 
0.143690 -0.737156 -0.021809 -0.021715 -0.414157 -0.900913 
-0.006975 0.909888 -0.103612 -0.331056 0.332957 -0.876654 
2.374028 0.067180 0.656636 -0.312906 0.029613 0.940421 
-0.951896 -0.346231 0.380543 0.346348 -0.031418 0.935606 
1.569789 0.645680 0.436853 -0.066946 0.463242 -0.785188 
2.294903 -0.611553 0.829882 0.560000 -0.418065 -0.705935 
-1.175667 -0.585630 0.493602 0.365700 0.094967 0.917605 
1.369150 0.442005 0.401980 0.260356 -0.228578 -0.937922 
1.537871 0.298186 0.463798 -0.102575 -0.175114 0.946906 
-2.461605 -0.743701 0.776317 -0.101130 0.380750 0.880462 
3.012597 0.404354 1.018628 -0.618114 0.109445 0.743689 
3.183445 0.242259 1.180828 0.768342 -0.180821 -0.608987 
0.089692 0.567293 -0.234070 0.453028 0.343336 -0.788441 
0.434194 -0.647906 0.117300 0.059963 -0.019240 0.982319 
-0.148349 1.225776 0.372624 0.422845 0.619322 0.602817 
0.791537 0.249210 0.366513 -0.144963 -0.190836 0.966166 
0.148764 0.101019 0.259202 0.138832 -0.230806 0.962460 
1.993794 -0.935804 0.903896 -0.437612 0.474444 0.752901 
-0.285449 -0.077090 -0.150770 -0.665533 -0.129888 -0.707782 
-3.832702 0.083227 0.974054 -0.579822 -0.193395 -0.788008 
-0.427673 -0.178909 0.141297 -0.026489 -0.161282 0.953601 
-1.080957 0.464453 0.417740 0.247664 0.328209 0.906271 
1.135533 0.211202 0.368708 0.289885 -0.144441 -0.939830 
0.180991 0.882806 0.389752 0.442494 0.093208 0.863210 
-1.987048 -0.867088 0.846733 -0.058067 -0.448264 -0.873417 
1.125679 -0.195042 0.390017 -0.242791 -0.038958 0.959959 
-1.899014 -0.350510 0.589447 -0.068868 -0.270097 -0.948694 
-0.288016 -0.947080 0.130893 -0.006406 0.054979 0.971338 
-2.215789 0.328834 0.555618 -0.217593 -0.143362 0.921073 
-0.284965 0.385933 -0.200870 -0.715131 0.069147 -0.684033 
1.609494 -0.393878 0.428680 0.295981 -0.161704 -0.938469 
0.635861 0.260022 0.328598 -0.193739 -0.257010 0.942989 
0.013119 0.464640 -0.317555 0.468353 0.282330 -0.824968 
-0.556089 -0.528533 0.140621 -0.478020 -0.094975 -0.855086 
0.639964 -0.972961 0.215551 -0.152385 -0.020282 0.977065 
3.329402 0.028570 1.554888 0.840434 -0.246746 -0.474854 
3.099840 0.398392 1.058420 0.700645 -0.086104 -0.690160 
1.212904 -0.132420 0.376656 0.306410 -0.092372 -0.941649 
3.139884 -0.205830 1.397154 0.802279 -0.263207 -0.513585 
-1.931329 0.606209 0.549448 -0.138284 -0.299955 -0.942864 
0.298850 0.352376 -0.196252 0.749599 0.043373 -0.655391 
-0.287501 -0.536743 -0.086248 -0.529634 -0.221145 -0.809268 
-1.639135 0.017992 0.544707 0.094459 0.010137 0.964378 
-2.226354 -0.293606 0.613281 -0.009500 0.222934 0.931534 
0.308304 -0.730041 0.125062 0.279776 -0.036336 0.921137 
-0.517557 -0.583653 0.162417 0.024405 -0.023816 0.973698 
-1.472782 0.320546 0.463275 -0.252838 -0.254475 -0.928896 
2.743622 0.562070 0.814456 0.582832 0.004974 -0.811117 
-1.527365 -0.863750 0.705927 0.310167 0.305374 0.884706 
-0.725211 -0.702983 0.270572 0.242143 -0.013944 0.952063 
1.500219 0.104758 0.415297 0.276619 -0.208178 -0.936918 
2.961249 0.242302 0.954908 -0.554645 0.129934 0.792429 
0.622473 -0.901314 0.218039 -0.119377 0.002475 0.980611 
-2.114163 0.391551 0.588554 -0.200704 -0.050641 0.948556 
1.941836 -0.985949 0.908191 -0.410613 0.490299 0.766775 
-0.296613 -0.004244 -0.127011 -0.692467 -0.108716 -0.686775 
-2.330685 -0.890648 0.851166 -0.041212 -0.425419 -0.897155 
0.071678 -0.347062 0.240204 0.157668 -0.009476 0.984032 
-1.334794 0.686940 0.454183 -0.090148 0.265274 -0.920112 
0.460241 -0.789483 0.137734 0.369931 -0.159893 -0.903682 
0.249249 -0.640349 0.145657 0.379215 -0.097492 0.886433 
3.185423 -0.180161 1.451634 0.810844 -0.271391 -0.500620 
-0.971790 -0.421867 0.367698 -0.407415 -0.037779 -0.910114 
-0.378580 0.710958 0.262650 -0.810626 0.411343 0.255832 
-1.395968 0.346694 0.444883 -0.275054 -0.250456 -0.924848 
0.327104 0.248176 -0.069749 0.781260 -0.026815 -0.618969 
2.085894 -0.116240 0.513980 0.138751 -0.152360 -0.972470 
-1.660968 -0.230922 0.531617 -0.181405 -0.219960 -0.949850 
1.785627 0.073603 0.482913 -0.210282 -0.037557 0.937891 
-0.465886 0.079493 0.239170 0.151085 -0.231364 0.933438 
-2.569475 -0.104703 0.519183 -0.024622 0.183405 0.974393 
-0.032570 -0.391252 -0.248951 -0.366306 -0.372728 -0.841236 
-1.723958 -0.563462 0.652672 0.197985 0.265079 0.930852 
0.052912 1.288407 0.177201 0.210325 0.902125 0.356854 
0.338826 -0.027611 0.187919 0.220818 -0.239444 0.905856 
-0.418273 0.486956 0.360204 0.178480 0.075269 0.947551 
-1.212479 -0.398231 0.451925 -0.344675 -0.123452 -0.918654 
-0.085872 0.914887 -0.073889 -0.470339 0.313742 -0.802510 
0.704417 -0.872429 0.245196 -0.155712 -0.018251 0.975796 
2.346143 -0.058153 0.627437 0.626282 -0.077357 -0.758153 
-0.066968 -0.480294 -0.178270 -0.274347 -0.490182 -0.820029 
0.037644 1.173939 -0.034622 0.462818 0.064824 -0.872518 
0.139554 1.157873 0.391100 -0.226665 0.285742 0.863590 
3.232944 0.070080 1.363697 -0.779912 0.229370 0.563797 
-2.033828 0.997647 0.568172 0.115856 0.193122 -0.889660 
-3.373982 0.521548 0.580083 -0.474416 0.327529 -0.782136 
-1.711027 0.263157 0.555513 0.077236 -0.111261 0.957123 
-2.018770 0.076232 0.572048 0.176670 -0.021639 0.954433 
2.279551 -0.533582 0.784182 -0.115342 0.364811 0.876923 
0.057508 -0.084849 -0.302586 0.465166 -0.141321 -0.840765 
-0.357644 -1.373789 0.163936 -0.342903 -0.055274 -0.924534 
1.344534 -0.014576 0.425021 -0.175906 -0.067743 0.954648 
2.097987 0.193047 0.553290 -0.514668 -0.109535 0.786539 
2.574553 -0.701205 1.021437 -0.511341 0.423895 0.739275 
1.880694 0.515131 0.473888 0.242760 -0.245998 -0.937757 
1.830944 -0.701174 0.654478 0.339839 -0.452230 -0.806791 
2.463200 0.082815 0.681430 0.419968 -0.011487 -0.902261 
2.465688 0.414165 0.691367 0.381555 -0.272449 -0.860415 
-1.208185 0.323772 0.400421 -0.330173 -0.205627 -0.916632 
-1.666595 -0.539215 0.594157 -0.221049 -0.248661 -0.931482 
-0.186148 0.388055 0.370076 -0.144470 -0.298315 0.940918 
2.417140 -0.622113 0.901357 -0.310058 0.395374 0.809121 
-0.297223 0.921138 0.205064 -0.913086 0.313118 0.049170 
0.842754 -0.103117 0.353066 -0.244235 -0.118580 0.957313 
2.908642 -0.429480 1.234715 0.619885 -0.421309 -0.641717 
-1.159211 -0.057923 0.432639 0.226931 -0.058557 0.951614 
-2.983235 0.454559 0.465730 -0.101119 0.018410 -0.992085 
-0.452063 0.256717 0.064893 -0.724138 -0.038066 -0.661901 
-1.416359 0.590214 0.433883 -0.011181 0.365407 -0.875541 
2.662949 0.499128 0.850146 -0.440601 0.012254 0.825362 
-1.679153 -0.649452 0.669321 -0.223315 -0.308274 -0.910072 
0.078986 1.251511 0.010280 0.655220 0.269271 -0.633893 
0.235476 0.109777 0.241391 0.125668 -0.257736 0.954322 
1.516744 -0.527891 0.430872 -0.283404 0.118468 0.948674 
-2.784803 -0.241900 0.568182 -0.073532 -0.316910 -0.938780 
1.103747 -0.764161 0.360623 0.290601 -0.050848 -0.951619 
-1.855384 0.271099 0.550565 -0.145487 -0.278423 -0.947195 
-0.309913 0.280280 -0.152474 -0.784518 0.001842 -0.618259 
1.895462 -0.134720 0.467904 0.266362 -0.209039 -0.938685 
-2.297616 0.794722 0.578277 -0.147143 0.120994 0.942775 
-2.296671 0.070664 0.540007 -0.228107 0.039762 0.955092 
-1.833227 -0.548456 0.697518 0.172477 0.309711 0.924690 
0.460421 -0.379487 0.090056 0.131152 -0.093230 0.971285 
0.137039 -0.327731 -0.218973 0.462668 -0.268271 -0.824469 
1.073744 0.188995 0.400896 -0.109279 -0.195531 0.963825 
-2.268378 0.387150 0.546528 -0.168810 -0.184623 0.928737 
3.069631 0.070946 1.108537 -0.609987 0.385771 0.681688 
2.118860 0.771553 0.536940 0.451248 -0.195553 -0.858933 
-2.437433 0.658475 0.579831 -0.151418 -0.036797 0.933289 
-0.706065 -0.380120 0.217381 -0.461029 -0.066717 -0.871188 
-2.533568 0.577577 0.551295 -0.129442 -0.031898 0.951721 
2.539855 0.646524 0.781216 -0.340830 -0.006101 0.888518 
0.670596 0.165208 0.190934 0.543331 -0.071630 -0.790678 
1.023473 0.366632 0.424786 -0.142226 0.014521 0.977461 
2.344048 0.288843 0.636738 0.432964 -0.101070 -0.872305 
1.748704 0.006026 0.474956 -0.210321 -0.006815 0.940706 
0.393128 -0.789513 0.086961 0.417300 -0.160897 -0.876459 
-0.661495 0.514668 0.315074 -0.466905 0.529523 -0.651426 
1.998448 -0.318349 0.527275 0.219117 -0.255654 -0.932217 
0.638696 0.441830 0.174221 0.634319 0.160513 -0.706201 
-1.409306 -0.128577 0.466115 -0.259452 -0.175270 -0.935862 
-0.061714 -0.209926 0.244282 -0.151480 -0.045286 0.980602 
2.903511 0.354703 0.883613 0.633377 0.096916 -0.753237 
1.802858 0.735330 0.521905 -0.278460 0.439531 0.761049 
-0.039698 0.083560 -0.344858 -0.498899 -0.031386 -0.844451 
-0.096264 -0.366094 -0.227372 -0.426427 -0.317133 -0.828360 
-2.396328 0.464954 0.523018 0.007776 -0.267256 -0.938304 
-0.859421 0.032427 0.308492 -0.436570 -0.081319 -0.880561 
0.031189 -0.587817 0.206573 0.334471 -0.133452 0.925503 
1.688839 -0.676458 0.572966 0.384398 -0.365291 -0.825953 
-0.638661 -0.513711 0.230719 0.128288 -0.017405 0.966097 
-0.303508 -1.312395 0.189680 -0.025845 0.008555 0.826348 
3.014625 0.269533 0.995556 0.722178 -0.005486 -0.664004 
3.002020 0.601907 0.972496 -0.509652 0.180953 0.829730 
1.671746 -0.448514 0.437980 0.291401 -0.179609 -0.938284 
-1.663268 -0.448950 0.563943 -0.207156 -0.226148 -0.941134 
-2.244840 -0.357991 0.635095 -0.203087 0.288033 0.919614 
-3.569933 0.251737 0.724345 -0.485626 -0.164503 -0.853847 
-1.147019 0.491267 0.398254 -0.062625 0.409467 -0.903978 
0.549806 0.442696 0.127319 0.699884 0.148700 -0.656557 
-0.276952 0.981166 0.159717 -0.910108 0.345842 -0.122896 
-0.056921 0.191780 -0.353350 -0.543349 0.032361 -0.825937 
-0.165366 -0.273949 -0.217469 -0.508948 -0.210773 -0.815031 
-0.078854 0.998036 0.419441 -0.193462 0.098567 0.968315 
2.503099 0.151675 0.698703 0.386627 -0.050543 -0.909496 
-2.148550 -0.072202 0.542811 0.286361 0.020651 0.953489 
-1.370854 -0.297683 0.485050 0.237932 0.089976 0.952873 
2.469275 -0.318114 0.769921 -0.316267 0.287780 0.858525 
2.842338 0.481595 0.936574 -0.524467 0.067264 0.789115 
-0.266824 -1.280731 0.134449 0.167990 -0.177388 -0.929516 
-0.975114 0.114407 0.355087 -0.378414 -0.118553 -0.915082 
3.316178 -0.100082 1.603637 -0.834496 0.281075 0.472922 
1.782501 0.664396 0.512395 -0.115296 -0.337455 0.929443 
2.885681 0.430283 0.968409 -0.568030 0.076206 0.756187 
-0.666400 -0.936636 0.224754 -0.401956 -0.071843 -0.904318 
2.362444 -0.136918 0.647595 0.622301 -0.149607 -0.749094 
-2.370768 -0.450877 0.640913 -0.387309 0.321788 0.823914 
2.576607 0.719548 0.778464 -0.367882 0.243804 0.842262 
-1.910789 0.223500 0.565368 -0.128288 -0.279923 -0.950779 
0.873313 -0.917901 0.291626 -0.246653 -0.073229 0.964045 
-0.390290 0.553515 -0.034790 -0.702654 0.243960 -0.649858 
-1.559062 -0.046150 0.526844 0.120326 0.025881 0.963477 
2.382535 0.228414 0.650891 0.423113 -0.063303 -0.886607 
1.397052 -0.257564 0.419559 -0.265626 0.045784 0.952708 
2.968854 0.535035 0.924441 0.589014 0.029591 -0.805484 
-0.647829 -0.703102 0.227017 -0.387848 -0.106981 -0.910242 
-0.549161 0.454918 0.129352 -0.712313 0.160000 -0.644396 
2.191199 -0.047341 0.606287 -0.517227 0.055208 0.838890 
0.257886 -0.425011 0.184062 0.508262 -0.111917 0.833412 
-0.700658 -0.766261 0.244215 -0.397603 -0.077155 -0.907682 
-0.267602 0.833544 0.337805 -0.634827 0.314141 0.640846 
-2.651329 -0.336115 0.589995 0.002156 0.280306 0.939407 
-1.275190 -0.069643 0.431049 -0.301144 -0.152237 -0.928311 
-0.221112 1.007080 0.035784 -0.738840 0.249794 -0.558346 
0.200307 0.637806 0.423885 0.305678 -0.184964 0.907760 
-0.208732 -0.756488 0.141666 -0.123304 -0.094309 0.962743 
-2.341002 -0.980108 0.896299 -0.004509 -0.440206 -0.895236 
3.371975 0.151145 1.590436 -0.869220 0.125897 0.449997 
-2.882186 -0.069169 0.533143 -0.059713 -0.342449 -0.929452 
0.340460 0.802697 0.136608 0.879720 0.407130 -0.221293 
2.001163 -0.678789 0.739033 -0.574048 0.401453 0.689034 
1.363216 0.526716 0.465929 -0.080416 -0.124599 0.967534 
-2.843931 -0.484143 0.665750 -0.111139 -0.382282 -0.913803 
-3.112392 0.405084 0.546758 0.192622 0.103372 0.945976 
-0.280097 -1.224216 0.174533 0.122046 0.198570 0.925240 
-2.376852 -0.289574 0.564409 -0.184527 -0.276227 -0.933031 
-3.229692 0.093313 0.594515 0.207780 0.366307 0.896905 
-2.386617 -0.187338 0.537286 -0.190575 -0.193938 -0.947698 
1.611072 -0.642390 0.501198 -0.334253 0.232874 0.893698 
-2.506213 -0.800129 0.798636 -0.080835 -0.412527 -0.901486 
-2.506336 -0.883043 0.840838 0.038487 0.408607 0.908409 
-0.728460 0.263158 0.218482 -0.538567 -0.010169 -0.811345 
-2.594151 0.060408 0.505425 -0.047891 0.084341 0.989664 
2.265698 -0.324822 0.655849 0.626684 -0.303039 -0.703741 
-0.231142 0.899714 -0.001263 -0.694765 0.285179 -0.645382 
-3.571453 -0.038938 0.824444 0.441231 0.274427 0.837954 
-1.810701 -0.867387 0.849033 -0.159242 -0.459687 -0.862220 
3.082774 -0.135512 1.259452 0.605552 -0.435178 -0.639193 
-1.141680 0.000188 0.395740 -0.342900 -0.131299 -0.920553 
2.292732 -0.116249 0.645325 -0.213698 0.157616 0.944699 
-2.219604 0.020066 0.557543 -0.189287 0.079352 0.959331 
1.989930 -0.242379 0.521794 -0.475218 0.129572 0.829062 
-0.027255 0.529384 -0.285818 -0.444901 0.336541 -0.820279 
-0.677393 0.354048 0.390718 0.203547 -0.027818 0.963265 
-1.879414 0.721266 0.522799 -0.168432 -0.164190 -0.950750 
1.057035 0.277624 0.353077 0.320011 -0.156330 -0.930866 
3.439392 0.089146 1.760158 0.877836 -0.214320 -0.422789 
1.353008 -0.437388 0.412561 -0.274972 0.065384 0.953254 
0.594902 0.406318 0.384221 -0.219054 0.043346 0.960250 
2.163221 0.120204 0.596502 -0.333083 0.007842 0.900082 
0.795707 -0.684494 0.287557 -0.195034 -0.038846 0.971159 
-0.990268 0.625803 0.391652 -0.139997 0.151639 -0.972021 
-0.200803 0.306245 -0.262652 -0.690967 0.058498 -0.694423 
-2.200738 -0.053078 0.496182 0.063318 -0.118488 -0.968441 
-0.918342 -0.204588 0.342657 -0.411529 -0.041143 -0.906285 
1.313160 0.343813 0.393279 0.268405 -0.210987 -0.938222 
-2.168164 0.010500 0.509455 0.341047 -0.146895 -0.914501 
2.223266 -0.781864 0.910260 0.490257 -0.458467 -0.729987 
3.409856 0.171874 1.649600 0.867048 -0.188408 -0.451373 
-2.049438 0.507233 0.535434 -0.027064 -0.215882 -0.928461 
0.767559 -0.773134 0.272110 -0.183138 -0.032988 0.972445 
-0.385580 0.077615 0.210426 0.022341 -0.254760 0.942711 
0.445159 -0.464982 0.091210 0.120987 -0.070568 0.975018 
0.287275 0.961217 0.213892 0.920734 0.339025 0.051017 
-2.791603 0.251057 0.478912 0.141253 -0.253004 -0.945797 
-0.292447 0.196195 -0.197772 -0.751441 -0.018384 -0.644554 
2.219444 0.284275 0.606021 -0.223419 -0.121237 0.926136 
1.672660 -0.612319 0.526774 -0.349549 0.266891 0.876334 
0.383526 -0.689502 0.051593 0.475924 -0.135583 -0.845643 
-0.293020 -0.134766 -0.105539 -0.651328 -0.161740 -0.717084 
-2.148219 0.852805 0.569601 -0.130831 0.598516 -0.765900 
-1.910128 0.683527 0.589586 0.048861 -0.310960 0.943125 
2.969668 -0.084600 1.061880 0.505607 -0.468435 -0.719145 
-1.191797 0.387067 0.445209 0.086673 -0.243414 0.961378 
-3.158220 0.051041 0.572785 0.441816 0.068446 0.892113 
0.244105 0.553507 -0.177936 0.578802 0.258106 -0.740889 
0.028295 -0.259688 0.244944 0.133675 -0.005875 0.986189 
-0.846964 -0.929993 0.290701 -0.407314 0.025584 -0.909844 
-2.378126 -0.719162 0.762171 -0.112466 -0.397822 -0.901696 
0.491893 0.312094 0.314553 -0.231129 -0.234655 0.931432 
-0.005517 0.347193 0.357290 0.012199 -0.351021 0.935460 
2.862135 -0.311260 1.087044 -0.691361 0.259269 0.633931 
2.442356 -0.493604 0.829853 0.578768 -0.379351 -0.715141 
-2.038990 0.823387 0.618950 0.150144 0.085892 0.965074 
2.798007 0.262283 0.836825 -0.455710 0.071771 0.886657 
-1.562927 0.594139 0.460868 -0.248764 -0.155924 -0.937651 
-1.745156 -0.288607 0.554374 -0.154767 -0.230729 -0.955039 
2.046108 0.750294 0.506792 0.596143 -0.159068 -0.771598 
2.838555 -0.378813 1.097940 0.549317 -0.445258 -0.697450 
0.355222 -0.041698 -0.018382 0.724495 -0.048865 -0.678157 
-3.456097 0.008697 0.740629 -0.504622 -0.157159 -0.841496 
2.731572 0.009449 0.833524 -0.535303 0.155818 0.808380 
-0.875700 -0.118855 0.317676 -0.436248 -0.052185 -0.885246 
2.765726 0.443740 0.898855 -0.498227 0.036007 0.797526 
0.932780 0.252657 0.321809 0.371791 -0.077650 -0.920675 
-0.287341 -0.489717 0.152986 -0.583728 -0.118629 0.793371 
-0.450951 -0.031368 0.047875 -0.687186 -0.046316 -0.701361 
0.271315 0.182060 0.261271 0.111531 -0.292641 0.948745 
2.198090 0.703150 0.631272 -0.316178 -0.171251 0.919889 
-2.725733 -0.536285 0.669546 0.042889 0.338553 0.919573 
-1.853644 0.081332 0.587666 0.092994 0.000615 0.958480 
0.298207 -0.047751 -0.106066 0.673802 -0.130356 -0.699431 
-0.271519 0.072930 0.229329 -0.171549 -0.254720 0.928676 
1.904011 0.755084 0.466697 0.036757 0.278762 -0.920748 
1.868227 -0.641971 0.644867 -0.558763 0.385488 0.707843 
3.042714 0.339677 1.050787 -0.666470 0.114011 0.701218 
2.263630 0.718412 0.664561 -0.219915 -0.078199 0.929022 
1.103775 -0.626512 0.375409 -0.268675 0.012171 0.958894 
-3.332544 0.005565 0.672370 -0.485503 -0.122273 -0.857326 
2.477058 0.578044 0.742970 -0.319685 -0.040232 0.899082 
-0.446767 -0.357888 0.096160 -0.114791 -0.102607 0.966287 
-2.404151 0.704270 0.527418 -0.172736 -0.021224 -0.982621 
0.295955 0.503574 -0.173339 0.648383 0.158657 -0.729465 
0.484231 -0.129521 0.055867 0.626481 -0.041316 -0.747528 
-0.304515 0.575831 -0.150981 -0.613513 0.276662 -0.721741 
-0.350826 0.303438 -0.013961 -0.776728 -0.007697 -0.621724 
-2.052287 -0.829176 0.830129 0.166726 0.405861 0.882591 
2.070991 0.916683 0.557221 0.045430 0.216953 0.930795 
0.297642 0.040469 -0.132180 0.702662 -0.091325 -0.678333 
-2.984715 -0.605642 0.769433 -0.201594 -0.380836 -0.893118 
1.116641 0.428759 0.344774 0.163046 0.204671 -0.944785 
-0.412852 0.249908 0.273221 0.161089 -0.299347 0.927254 
-1.990255 0.212727 0.582024 0.136675 -0.081109 0.952083 
0.086134 0.288710 0.336500 0.070172 -0.316425 0.940793 
2.744819 0.205327 0.802709 0.321500 -0.271092 -0.894881 
-2.465101 0.595691 0.546029 -0.176402 -0.050407 0.956845 
-2.218343 0.574713 0.543506 -0.054284 -0.286872 -0.932178 
0.222920 -1.118834 0.135926 -0.359369 -0.043501 0.671535 
-2.723073 -0.456809 0.630291 -0.102803 -0.325192 -0.934625 
-1.738433 0.066776 0.535617 -0.169327 -0.260428 -0.946668 
0.230147 -0.669955 -0.029152 0.019743 -0.379349 -0.909364 
-1.063622 0.273372 0.419016 0.130083 -0.208314 0.962928 
-0.516597 0.264212 0.099792 -0.683360 -0.021085 -0.695544 
-2.165680 0.183864 0.574925 -0.096332 0.006429 0.964841 
1.661725 -0.828445 0.652661 -0.466780 0.447338 0.753708 
-2.708646 -0.182464 0.528986 -0.058564 -0.268995 -0.956898 
0.128897 -0.096088 -0.270645 0.519673 -0.107792 -0.827704 
-0.427599 0.159571 0.244576 0.167944 -0.264232 0.928597 
-0.191785 -0.684972 0.154510 -0.166911 -0.143182 0.959298 
0.166003 1.101641 0.296391 0.724527 0.498939 -0.150893 
-3.517941 0.439056 0.644027 -0.566415 0.202060 -0.782342 
-0.145921 -0.202947 -0.240448 -0.511575 -0.171881 -0.819738 
-2.306307 -0.136660 0.533264 -0.243461 -0.133642 -0.947731 
0.170891 1.024296 0.385583 0.370009 0.049542 0.881657 
0.161666 -0.465264 0.211903 0.229873 -0.140331 0.958667 
2.573629 -0.294394 0.814497 -0.467194 0.277127 0.823811 
1.435993 -0.558042 0.421397 -0.280932 0.102605 0.950672 
-2.103620 -0.017080 0.523866 0.246610 -0.175889 -0.924097 
0.219700 -1.269137 0.164348 -0.846550 -0.234472 0.175287 
-0.032450 0.019017 0.255874 -0.094639 -0.160313 0.978931 
2.103841 -0.267158 0.565043 0.159130 -0.261192 -0.940143 
2.852062 0.656265 0.885268 0.575217 0.254090 -0.755090 
0.456431 -0.296611 0.019692 0.609375 -0.048088 -0.772679 
-2.046288 0.661282 0.606738 -0.323496 -0.126793 0.928742 
-2.784787 -0.084336 0.515568 -0.048980 -0.295051 -0.947150 
0.355663 -0.592412 0.003230 0.545927 -0.111284 -0.808204 
1.278239 -0.026062 0.385861 0.295957 -0.129126 -0.940337 
2.014835 -0.379671 0.570794 -0.524019 0.255891 0.764068 
2.594726 -0.562286 0.956445 -0.488015 0.376501 0.766637 
-1.796751 0.125329 0.575297 0.088840 -0.028951 0.958611 
-0.018453 -0.700432 0.197555 -0.425377 -0.077634 0.896865 
-3.155507 -0.532456 0.814563 0.261751 0.349264 0.885906 
-0.113977 -1.005215 0.101719 0.059083 -0.393021 -0.916863 
0.158116 0.409536 -0.252111 0.618307 0.174967 -0.723648 
-0.098097 -0.288024 -0.242863 -0.448783 -0.260617 -0.828753 
2.195351 0.211861 0.597714 -0.198218 -0.072191 0.940647 
2.462883 0.626381 0.693673 0.616232 0.012590 -0.781319 
-2.928327 0.570148 0.525457 0.023935 0.066564 0.970689 
-0.327663 -0.321787 0.148492 -0.551857 -0.141523 0.773385 
-0.301010 -0.783239 0.008866 -0.304187 -0.261774 -0.880054 
2.586846 0.210461 0.735327 0.357346 -0.148990 -0.901891 
0.858845 -0.063158 0.296334 0.392190 -0.039991 -0.898545 
-0.957366 0.298293 0.420504 0.116689 -0.148174 0.979273 
0.285166 0.650836 0.399610 0.460405 -0.117179 0.842969 
-0.116865 0.040453 0.253190 -0.135132 -0.191140 0.968822 
1.918158 -0.220144 0.492534 -0.368899 0.111064 0.893316 
-3.232378 0.368707 0.536497 -0.287781 -0.114296 -0.940827 
0.070892 -0.536283 -0.129362 0.134500 -0.541652 -0.818884 
3.215068 -0.207774 1.520438 -0.776269 0.333600 0.522302 
-2.086736 0.821338 0.554945 -0.163303 -0.015749 -0.982231 
0.416429 0.086941 0.035316 0.712992 -0.040573 -0.674357 
0.459622 0.393593 0.341330 -0.258416 -0.064090 0.936799 
1.245692 -0.778148 0.394793 0.289078 -0.123306 -0.948160 
0.140000 0.525271 0.415044 0.172934 -0.270655 0.945097 
0.169506 0.465086 0.393544 0.162668 -0.278740 0.943956 
-0.328024 -0.750494 0.109501 -0.189153 -0.027348 0.949536 
-2.361998 -0.519303 0.673935 -0.346905 0.335050 0.831800 
0.521901 0.170367 0.292216 -0.221589 -0.253529 0.931194 
-0.195383 0.857118 0.386606 -0.460374 0.136453 0.850385 
1.856673 -0.073298 0.461471 0.276521 -0.217400 -0.935452 
-0.332288 -0.676158 0.098304 -0.210704 -0.046584 0.948575 
3.253488 0.168059 1.345708 -0.816811 0.128955 0.531435 
-0.933867 0.537844 0.374014 -0.158672 0.232776 -0.941942 
1.503517 -0.759942 0.498617 -0.340489 0.235553 0.886992 
3.322770 0.107728 1.508515 -0.856091 0.139403 0.465311 
-0.825710 0.131200 0.288836 -0.453729 -0.096564 -0.864803 
3.126596 -0.141054 1.330482 0.813331 -0.219617 -0.514506 
2.813493 -0.018248 0.900558 -0.643172 0.145140 0.714379 
1.053007 -0.013719 0.390074 -0.175873 -0.130885 0.962284 
-0.045150 0.344613 -0.342815 -0.532997 0.144371 -0.812315 
3.314522 0.153036 1.452830 0.834376 -0.204740 -0.501466 
0.279274 0.969505 0.137314 0.906935 0.339886 -0.192569 
-1.614109 -0.288648 0.538306 0.172691 0.146255 0.961982 
2.542079 0.488600 0.708441 0.452055 -0.124994 -0.871560 
-0.134054 0.901016 0.414138 -0.256584 -0.001368 0.964579 
0.802378 -0.458061 0.285803 0.325401 -0.052632 -0.939412 
-0.186758 -0.090654 0.229620 -0.283251 -0.162204 0.907166 
0.646366 0.108663 0.324346 -0.238246 -0.214228 0.940028 
-2.255461 0.128671 0.547616 -0.240832 -0.001417 0.942459 
2.220454 -0.593329 0.782799 0.564195 -0.413283 -0.703546 
-1.596877 -0.427199 0.556247 0.214476 0.171828 0.949202 
-0.463754 0.638964 0.154000 -0.715041 0.520559 -0.425346 
-1.976235 -0.369736 0.610874 0.210713 0.250396 0.935674 
-1.899903 0.415534 0.591789 0.068729 -0.170638 0.949652 
0.330744 -0.499030 -0.045767 0.592425 -0.111222 -0.782156 
-1.457167 -0.077518 0.476032 -0.246198 -0.196344 -0.936990 
2.954316 0.639025 0.932340 -0.460211 0.224318 0.854522 
-0.141936 -0.029173 0.248517 -0.164211 -0.160803 0.967149 
2.079109 -0.462552 0.642718 -0.661178 0.329589 0.653479 
-0.576140 0.124621 0.141118 -0.637491 -0.054337 -0.727320 
-3.420043 0.211012 0.650774 -0.404500 -0.186373 -0.889400 
-2.543981 -0.730468 0.761801 -0.110027 -0.401522 -0.903569 
-0.231401 1.012658 0.340499 -0.740716 0.052898 0.652075 
-2.586022 -0.298928 0.576061 -0.071168 0.270773 0.926506 
-0.201927 -0.614144 0.160262 -0.281115 -0.162856 0.929515 
-0.792900 0.071954 0.269242 -0.482377 -0.078741 -0.845081 
-0.773617 0.281318 0.387980 0.159331 -0.140905 0.970304 
-0.146894 -1.057070 0.144237 -0.129483 0.085806 0.979822 
-2.429498 -0.239053 0.564354 -0.234911 0.245261 0.899479 
-1.335948 0.242154 0.476098 0.098831 -0.152594 0.960635 
-2.101901 0.088329 0.555961 0.230724 -0.047574 0.951924 
-3.064043 0.552720 0.507519 0.065822 0.094979 0.983628 
-0.124121 -0.447277 0.225720 -0.175255 -0.136822 0.974547 
3.339804 -0.030971 1.610851 0.844462 -0.266505 -0.460302 
1.199707 -0.206843 0.374374 0.312236 -0.074426 -0.942154 
2.503119 -0.556222 0.896714 0.568584 -0.398739 -0.714430 
-1.872980 0.148541 0.561011 -0.135631 -0.273673 -0.950814 
-1.739539 -0.185336 0.549275 -0.158784 -0.247737 -0.952533 
0.374617 0.083697 0.210605 0.014341 -0.262576 0.945567 
-0.452780 0.667711 0.226000 -0.595328 0.732035 -0.229188 
0.102575 -0.121322 0.245381 0.164881 -0.102979 0.972963 
-1.368792 -0.475549 0.503257 -0.309202 -0.167648 -0.921884 
0.188465 0.726765 -0.109146 0.503467 0.463054 -0.703335 
-1.915302 0.318242 0.596506 0.076233 -0.117566 0.951629 
-1.259895 -0.583310 0.501290 -0.366959 -0.160091 -0.907280 
-2.588021 -0.026147 0.510917 -0.026205 0.133195 0.983775 
