-0.361797 1.264645 1.819856 0.809910 -0.517755 0.251180 
-0.480266 1.019691 1.669263 -0.893706 0.246165 0.150534 
-0.534158 0.171622 0.127415 -0.755335 0.115654 -0.624377 
-0.352622 0.048626 -0.033887 -0.545167 -0.045136 -0.815397 
1.213922 -0.154914 1.256227 -0.690093 -0.576879 0.003146 
-0.080538 1.318061 0.178175 -0.668959 0.633710 -0.368449 
0.856275 0.105292 0.638802 0.827990 0.275005 -0.445038 
-0.588112 0.354558 0.365641 0.390969 -0.510339 0.758643 
1.120697 0.027979 1.923473 -0.786166 -0.326380 0.517498 
1.603001 0.481548 2.657673 -0.603055 -0.448432 0.654275 
-0.988396 0.034366 0.766564 0.735567 -0.347849 0.466789 
-1.113184 -0.395408 0.961444 -0.788215 0.169152 -0.527551 
-0.823492 0.110584 0.521261 -0.825238 0.218130 -0.469251 
0.069557 -0.004756 -0.179135 0.451397 -0.042846 -0.876145 
-0.923041 -0.393215 0.698922 -0.739655 0.182625 -0.559739 
0.989463 0.725267 2.165165 0.712208 0.369140 -0.566525 
-0.006202 -1.100431 -0.089880 -0.641212 -0.528223 0.453944 
-0.669815 0.680603 1.372415 0.715449 -0.668295 0.141779 
0.541539 1.130626 1.914193 -0.605048 -0.433117 0.654968 
-0.418568 0.113684 0.336378 -0.259847 -0.249175 0.859373 
-0.831141 0.361753 0.779045 0.626622 -0.608186 0.448803 
-0.512718 -0.590212 0.184494 0.288140 -0.217228 0.878836 
0.275939 -0.299285 0.283894 0.437407 -0.296986 0.835654 
-0.494638 0.935279 1.674023 0.744313 -0.621957 0.161349 
-0.172602 0.742091 0.433888 -0.274484 0.124837 0.922505 
-0.953945 -0.329824 0.738671 0.695820 -0.272361 0.567559 
-1.049258 0.175049 0.795547 -0.860818 0.320371 -0.374694 
0.062028 1.333086 0.246659 0.628420 0.660359 0.336504 
1.107551 0.002767 1.853592 -0.853161 -0.389623 0.190208 
-1.068990 0.198005 1.601585 0.375949 -0.627663 0.129928 
1.319535 0.457921 2.390391 0.632647 0.261876 -0.718335 
0.160464 1.013685 0.044038 0.582757 0.422956 -0.680940 
-0.479625 -0.871671 0.135143 0.380421 -0.203681 0.875159 
0.902256 0.587012 1.904145 0.806030 0.507120 -0.252480 
-0.191155 1.216794 0.492199 0.421534 0.733738 0.421887 
0.606577 0.477086 0.881849 -0.698172 -0.637103 0.287760 
-1.180189 0.046454 1.170494 -0.832692 0.383845 -0.361717 
1.130704 -0.525325 0.945762 -0.564846 -0.540155 0.460897 
-0.871898 0.366392 1.595438 0.677731 -0.700113 -0.124734 
0.323634 0.330651 -0.037176 0.436835 -0.062633 -0.896587 
0.454543 1.113953 1.800169 -0.676085 -0.527389 0.498992 
-0.251462 0.873740 0.040305 -0.686928 0.434122 -0.539728 
-1.244089 0.086316 1.653570 -0.440644 0.607606 -0.441014 
0.155524 -0.870277 -0.040053 0.087720 0.043735 -0.973850 
0.319792 1.024067 1.202156 -0.808765 -0.184476 -0.278642 
-1.003912 0.405183 2.924846 -0.746070 0.559429 -0.346492 
0.882794 0.175241 1.564476 -0.845554 -0.435873 0.098945 
1.547685 0.438299 2.554447 -0.595303 -0.412655 0.686100 
-0.364827 0.519967 0.326393 -0.370824 0.214202 0.822688 
-0.843617 -0.127872 0.590439 0.584940 -0.308615 0.595988 
0.386540 1.018598 1.457368 0.936287 0.319246 -0.045912 
-0.434700 1.162768 1.733570 -0.929288 0.349877 0.070305 
1.043393 0.517384 2.087340 0.775131 0.411789 -0.440398 
-0.101443 -0.138924 0.397604 -0.150527 -0.319741 0.932603 
0.205325 0.035892 0.436601 0.353411 -0.261079 0.892229 
-0.265204 0.909023 0.104978 -0.787351 0.393446 -0.400634 
-0.041868 -0.842783 -0.061586 -0.228455 0.116481 -0.936167 
0.422281 0.030019 0.026910 0.738699 0.002077 -0.655481 
-0.305757 0.907699 0.192738 -0.921417 0.353400 -0.152161 
0.875173 0.452067 1.740597 0.724403 0.286517 -0.587773 
-0.176237 0.306617 -0.121455 -0.433571 0.001553 -0.898460 
1.454129 0.758747 2.758836 0.647436 0.537841 -0.532223 
0.693890 0.864559 1.859604 0.772526 0.481670 -0.358415 
0.800707 -0.011311 0.642847 -0.613487 -0.375523 0.577729 
-0.599497 0.620729 0.721739 0.811837 -0.410920 0.367588 
0.307813 0.257065 -0.049154 0.449754 -0.067095 -0.888939 
-0.358890 1.350812 1.775034 -0.806915 0.528695 0.099210 
-0.918827 -0.288073 0.687640 0.692108 -0.290396 0.560382 
0.117999 1.424664 1.528156 -0.454094 -0.108800 0.863398 
1.139067 0.767455 2.411880 0.669792 0.612523 -0.410453 
-0.357794 -1.122937 0.015253 -0.483704 0.019314 -0.854401 
-0.849520 0.451826 0.837438 -0.839974 0.459542 -0.226326 
0.006672 0.794374 -0.127872 0.392275 0.275798 -0.872721 
0.416389 0.968410 1.417273 0.928157 0.338312 -0.037678 
0.368544 -0.396521 0.190234 0.312236 -0.265998 0.852653 
0.245442 0.224704 -0.084355 0.455980 -0.045347 -0.885224 
-0.096479 -0.561296 0.229296 -0.139650 -0.349361 0.918889 
-0.625121 0.697682 2.464124 -0.871555 0.451579 -0.153452 
1.138519 0.490955 2.250376 -0.714151 -0.383198 0.566344 
-0.591186 0.878252 1.504030 -0.877519 0.343570 0.094144 
0.329933 0.963654 1.253801 -0.821789 -0.400126 -0.043063 
1.236678 1.077375 2.788173 0.678206 0.432314 -0.589759 
0.110933 -0.810750 -0.061086 0.107536 0.045896 -0.960968 
0.065577 1.261524 0.348990 0.178193 0.807241 0.550316 
-0.074863 0.616644 0.493585 -0.057974 0.304662 0.938731 
0.527207 0.230556 0.117665 0.773736 0.084356 -0.615364 
-0.072134 1.060290 0.041306 -0.382987 0.458556 -0.779693 
-0.295223 1.427599 1.502285 0.575030 -0.121959 -0.769260 
-0.702392 0.606838 0.944078 0.684859 -0.617762 0.368726 
1.181302 0.700334 2.396588 0.662291 0.611083 -0.416526 
0.893219 0.842561 2.161245 0.714681 0.365908 -0.585177 
-0.504693 0.535526 0.551924 0.842119 -0.337714 0.368188 
-0.705819 -0.781481 0.454355 -0.620241 0.077316 -0.729836 
0.598645 1.034912 1.936020 -0.686841 -0.450785 0.564830 
-1.119527 0.140455 2.725332 0.700082 -0.663318 0.189497 
0.953984 0.655964 2.074273 -0.725310 -0.406869 0.538247 
-0.082294 0.783984 0.463700 -0.155587 -0.136725 0.962375 
0.306469 -0.780181 -0.031248 0.450244 -0.052559 -0.866652 
-1.333288 -0.350299 1.258584 -0.852224 0.168273 -0.474035 
-0.534436 0.849770 2.111359 -0.921306 0.364241 0.013970 
-0.269470 1.511693 1.547521 -0.708459 0.449389 0.473199 
-0.934091 0.379433 2.055440 -0.590432 0.781122 0.189529 
-0.629521 0.593143 1.719393 0.801771 -0.557138 0.134888 
1.250392 1.237159 2.950899 -0.684672 -0.312814 0.626635 
0.583505 1.341729 2.175794 -0.770953 -0.186406 0.549119 
0.407455 -1.172463 0.054410 0.441934 0.108603 -0.822465 
-0.264719 0.831623 0.376986 -0.739629 0.123231 0.599328 
0.462849 0.638620 0.600883 -0.870631 -0.328941 0.262252 
-0.448643 -0.381494 0.118338 0.087624 -0.211397 0.969997 
0.311986 0.767864 0.036673 0.716743 0.488521 -0.415424 
-0.581933 0.873737 2.665166 -0.870868 0.421555 -0.215859 
0.569135 0.717050 1.269782 0.889720 0.424624 -0.020653 
-0.312003 1.310564 1.595605 0.877851 -0.444463 0.129003 
-0.305131 -1.005401 -0.016429 -0.110083 -0.001573 -0.975323 
0.318890 -0.318116 -0.014964 0.700908 -0.091387 -0.679600 
-0.569648 0.484879 0.596067 0.819293 -0.368552 0.362841 
1.059153 1.142580 2.655542 -0.650474 -0.539296 0.530698 
-0.186103 -0.283886 0.318719 -0.245675 -0.322212 0.898858 
-0.749592 -0.463758 0.469789 0.591391 -0.273511 0.658660 
-0.382486 0.409629 0.357985 -0.159663 -0.053941 0.948783 
-0.642914 0.595918 2.212456 -0.889566 0.433119 -0.091102 
-0.630434 0.083676 0.279547 -0.790180 0.137024 -0.555926 
-0.678614 0.488430 0.483159 -0.758217 0.472703 -0.348381 
0.608042 -0.194523 0.372638 0.831991 0.105993 -0.488626 
0.347839 -0.518014 0.036380 0.737561 -0.039462 -0.641013 
1.152428 -0.040495 1.906770 -0.844618 -0.382634 0.289783 
0.143713 0.346657 -0.129835 0.429264 0.013954 -0.899178 
-0.626647 0.151460 0.253516 -0.777792 0.148290 -0.574627 
0.320421 1.107787 1.593134 -0.534338 -0.439917 0.710936 
0.901330 -0.173828 0.740037 0.779570 0.311826 -0.455930 
-1.221812 0.076625 1.576392 0.302399 -0.583566 0.327049 
0.420800 0.908547 1.522878 -0.612051 -0.649370 0.395632 
1.080605 1.193459 2.721259 -0.633932 -0.572521 0.517030 
-0.377339 0.627923 0.462733 0.873504 -0.291797 0.388361 
-1.312414 -0.020153 1.470109 0.127481 -0.465569 0.613080 
0.305462 -0.044343 -0.056249 0.505061 -0.106405 -0.848937 
0.497051 0.617307 0.283701 0.754323 0.613389 -0.154124 
-0.257064 0.066083 -0.081531 -0.466328 -0.074589 -0.875731 
-0.416139 1.156644 1.981941 0.817207 -0.512445 0.239871 
1.446272 0.694230 2.689379 -0.624276 -0.456208 0.625256 
1.314466 -0.435360 1.135644 0.620993 0.668588 -0.323548 
1.277286 -0.470372 1.077384 -0.582367 -0.680698 0.359648 
1.103273 -0.632113 0.806854 -0.500467 -0.671912 0.462803 
0.633846 -0.621444 0.377720 -0.523582 -0.272920 0.721667 
0.212842 1.336257 1.614267 -0.770401 -0.048370 0.557585 
0.777576 -0.371139 0.575003 0.709411 0.249556 -0.551078 
-0.936607 0.291628 2.581349 0.766583 -0.527249 0.303193 
0.904079 0.284305 1.660072 0.806835 0.356422 -0.342334 
0.886022 1.339695 2.598411 0.573984 0.718497 -0.384167 
-0.497386 0.936290 0.927869 0.871621 -0.387842 0.113954 
-0.606415 -0.452331 0.309204 -0.702322 0.110955 -0.618744 
-0.681438 0.533218 2.249319 -0.871997 0.452916 -0.139274 
-0.465147 0.423092 0.437492 0.594722 -0.554006 0.568923 
0.939434 1.320555 2.639765 0.621031 0.638472 -0.439297 
0.436792 -0.060012 0.079114 0.795858 0.011207 -0.592191 
0.627261 0.198672 0.457055 -0.517469 -0.418094 0.697582 
-0.476721 1.024331 1.325992 0.675999 -0.687746 0.240790 
-0.514247 0.941715 1.214958 0.681003 -0.669779 0.278320 
0.805753 1.085092 2.249842 -0.640574 -0.461374 0.603298 
-0.360541 -0.265662 0.240312 -0.399076 -0.258841 0.844273 
0.766262 0.356930 1.039035 -0.731937 -0.545184 0.372744 
0.921478 0.150552 0.822050 0.852490 0.381699 -0.321322 
-1.012738 -0.683248 0.727885 0.579196 -0.407115 0.600100 
-0.175092 0.833215 -0.046200 -0.533831 0.429254 -0.710497 
0.316919 1.014402 1.328165 -0.636733 -0.652771 0.345465 
-0.249564 0.812483 -0.027825 -0.595148 0.495974 -0.624607 
-0.553004 -0.465351 0.252901 -0.708098 0.080464 -0.625996 
-1.161664 0.106632 1.497660 -0.238527 0.452999 -0.690422 
-0.585402 -0.238876 0.304844 -0.808402 0.071975 -0.526774 
0.340897 -0.115022 0.306037 0.495321 -0.242259 0.831075 
-1.010280 0.306980 1.845573 -0.600221 0.775415 0.168390 
1.156797 -0.371380 1.007101 -0.637114 -0.536426 0.410928 
0.736217 0.807059 1.865166 0.764951 0.525118 -0.321571 
0.659231 0.821833 1.800609 -0.637589 -0.455051 0.585295 
-0.337743 0.585851 -0.054721 -0.571454 0.157978 -0.759556 
-0.830039 0.687381 3.001372 0.747944 -0.573216 0.320876 
-0.017394 1.298817 0.313473 -0.248549 0.749427 0.587222 
1.624865 0.391267 2.594636 -0.592286 -0.427613 0.679874 
0.236108 0.806846 0.417199 0.590614 0.111257 0.791514 
0.669548 0.502589 1.225190 -0.713450 -0.591383 0.339906 
0.599808 0.258877 0.432804 -0.511264 -0.433424 0.711643 
-0.757220 -0.255210 0.481225 -0.762173 0.177248 -0.528701 
0.554351 0.395407 0.629575 -0.703437 -0.500306 0.450262 
0.639563 0.107246 0.455603 -0.498761 -0.390692 0.703011 
-0.111634 0.253518 -0.158576 -0.448410 0.019297 -0.890193 
-1.145891 0.148515 2.797398 -0.695433 0.671842 -0.194799 
0.117864 0.420907 -0.130244 0.399137 0.028770 -0.912210 
1.364401 1.160770 3.009878 -0.636099 -0.541015 0.546897 
-0.077378 -0.664341 0.196578 -0.256878 -0.411673 0.867172 
1.353193 -0.398733 1.196576 0.640074 0.668912 -0.299613 
0.501317 0.101321 0.281564 -0.345897 -0.364924 0.827659 
0.151005 -0.288741 -0.133828 0.454056 -0.154315 -0.862798 
1.287605 -0.228663 1.170941 0.729095 0.564912 -0.295646 
-0.638423 0.589408 2.141119 -0.841061 0.531495 0.016888 
-0.531925 0.762935 0.773670 0.775207 -0.489803 0.365648 
-0.199054 0.900399 0.443405 -0.517589 -0.042729 0.817075 
-0.582777 0.941705 1.069224 -0.712845 0.589824 -0.289942 
-0.608612 0.697243 1.814589 -0.815165 0.519105 0.177204 
0.919086 1.249481 2.552032 0.708774 0.442612 -0.544649 
0.118290 -0.870378 0.046498 -0.039139 -0.457860 0.860739 
-0.701059 -0.234056 0.424861 -0.784795 0.140886 -0.521210 
-0.662234 0.628587 1.974173 -0.758609 0.613514 0.126574 
-0.044548 1.251763 0.365544 -0.113069 0.797511 0.585807 
-0.617832 -0.334139 0.317511 0.325798 -0.248305 0.803826 
1.063282 -0.026944 1.265769 -0.722126 -0.519018 -0.030846 
-0.682969 -0.476579 0.388735 0.505271 -0.261919 0.716423 
-0.664457 0.746659 1.184579 -0.880379 0.416731 0.118607 
-0.195737 -0.659802 -0.030548 -0.032784 -0.139713 -0.983945 
0.392907 1.324492 1.891152 -0.750310 -0.284619 0.551689 
0.634720 0.012957 0.431270 -0.462686 -0.359972 0.724587 
-0.918845 0.002089 0.684417 0.646068 -0.333393 0.532727 
1.142051 -0.129717 1.398494 -0.640945 -0.582927 -0.323579 
0.001458 0.812107 0.481968 0.105377 -0.270010 0.955411 
0.836881 0.285662 1.254892 -0.792818 -0.498618 0.322397 
0.739736 0.747938 1.799750 0.791134 0.554557 -0.187895 
1.029472 0.653580 2.164230 0.722277 0.383361 -0.546297 
1.249176 0.674031 2.447243 0.654534 0.586384 -0.452216 
0.409647 0.502983 0.442409 -0.839622 -0.219494 0.464781 
-0.746606 -0.831999 0.416900 -0.538624 0.283775 -0.698174 
0.592341 0.585442 1.038705 -0.653558 -0.640487 0.384489 
-0.645101 0.563020 0.491179 -0.738338 0.627972 -0.216898 
-0.764183 0.403796 2.256264 0.577141 -0.768834 -0.261452 
0.429968 0.847836 1.248968 -0.592016 -0.683478 0.408850 
0.235691 1.093411 0.543321 0.088440 -0.571513 0.683469 
-0.746884 0.259075 0.526486 0.529865 -0.455256 0.641712 
0.806719 0.345491 1.457321 -0.806498 -0.507759 0.281654 
-0.595069 0.885847 1.220868 -0.901851 0.340823 0.158230 
1.079346 0.353198 2.018867 0.815757 0.385664 -0.356484 
-1.245517 0.145516 2.181590 -0.526594 0.829073 0.119754 
1.293769 0.929844 2.732022 -0.650464 -0.514447 0.556978 
1.115451 1.228232 2.789190 -0.625775 -0.586770 0.512463 
-0.937109 0.274692 1.430271 0.760529 -0.597874 0.116307 
0.864061 0.279859 1.189178 0.859117 0.428182 -0.224221 
-0.445993 -0.028659 0.262503 -0.069356 -0.265689 0.887758 
1.402791 0.277849 2.403000 -0.657553 -0.316647 0.678397 
-0.033985 -0.591389 -0.036904 -0.211303 -0.194787 -0.937062 
-1.059026 0.253587 1.809775 0.553368 -0.656681 0.441163 
0.444426 -0.882134 0.103013 -0.342118 -0.199878 0.903898 
-1.159488 -0.280268 1.015462 0.782143 -0.247750 0.505949 
-1.097252 0.145331 1.082671 -0.843816 0.402310 -0.296205 
-1.220307 -0.257076 1.096727 0.809559 -0.242817 0.484712 
1.167620 -0.122490 1.211301 -0.705664 -0.548349 0.016806 
1.318465 0.619143 2.474898 -0.609566 -0.381633 0.689955 
1.464291 0.306137 2.442866 -0.636800 -0.354155 0.676174 
-0.419473 0.646256 0.114321 -0.652870 0.539158 -0.377852 
-0.899498 0.407230 2.698341 0.781884 -0.489608 0.372050 
0.038153 1.129727 0.477793 -0.075777 0.401030 0.885243 
-0.637776 0.636797 0.912981 0.710875 -0.591413 0.294612 
-0.909559 0.228924 0.603808 -0.823630 0.279230 -0.451203 
-0.504387 1.028366 2.662233 0.924388 -0.199155 0.276466 
-0.320787 -0.136809 -0.053267 -0.558533 -0.081468 -0.808532 
1.019006 0.986260 2.468248 -0.679191 -0.442745 0.578957 
0.299351 0.748475 -0.036307 0.628909 0.539678 -0.547664 
0.887809 0.198443 1.051418 -0.788350 -0.478137 0.361967 
-0.263448 0.970936 0.157253 -0.825779 0.374574 -0.318409 
-0.777793 0.482436 1.353186 0.736506 -0.652078 0.107781 
-0.670342 -0.819488 0.388141 0.484129 -0.190288 0.801088 
-0.887572 0.340288 0.730533 -0.823453 0.409508 -0.348919 
0.038207 -0.400724 -0.156651 0.252965 -0.304054 -0.914576 
0.857117 0.400828 1.665678 0.780177 0.364947 -0.433743 
1.068326 0.296009 1.959249 0.839115 0.394498 -0.308833 
-0.700402 0.403330 0.649044 0.520838 -0.617105 0.558025 
0.613452 1.108538 1.973909 0.786947 0.477150 -0.356540 
0.089997 1.198513 0.422533 -0.131822 0.724211 0.641618 
0.478124 -0.412110 0.203770 0.759739 0.039989 -0.586977 
0.235550 0.657671 0.442657 0.434855 0.254966 0.815972 
1.123487 -0.071613 1.029009 -0.777860 -0.489522 0.351649 
-0.595731 0.925481 2.905805 -0.679645 0.717660 -0.092571 
0.071489 -1.038210 -0.074207 0.065174 -0.504277 0.813789 
0.946589 0.163484 1.269205 0.834937 0.435680 -0.232513 
-0.861321 0.425675 1.850912 -0.630544 0.748605 0.198006 
-1.003443 0.239059 0.961334 0.818996 -0.435585 0.336460 
0.797250 0.124954 0.546230 0.818579 0.240629 -0.474985 
0.321906 0.401231 -0.055742 0.473594 -0.046031 -0.877163 
-0.994729 0.603225 3.158740 0.728759 -0.553594 0.393663 
0.714594 0.460850 1.391655 -0.755654 -0.559470 0.303464 
-0.424345 1.059919 1.800147 0.848228 -0.488485 0.075186 
0.010443 1.093451 0.032683 0.296489 0.432482 -0.846223 
-0.783108 -0.914789 0.335642 0.394446 -0.585209 0.665963 
0.662911 0.566116 1.188558 0.869448 0.465091 -0.027074 
-0.144612 1.131650 0.085361 -0.511064 0.454962 -0.726797 
-0.701435 0.690457 0.911032 -0.856436 0.461560 -0.046350 
0.286091 1.326359 1.639827 0.791725 0.495505 -0.328737 
0.473163 -0.731555 0.179096 0.596475 0.081079 -0.737403 
1.381569 0.822154 2.735398 -0.643548 -0.489729 0.583406 
0.143327 1.141659 0.407700 0.968316 -0.072739 -0.090931 
0.059974 -0.323871 -0.164638 0.347569 -0.221419 -0.897319 
0.817071 0.471318 1.653605 0.760159 0.364304 -0.460454 
-0.009938 1.182198 0.440560 0.015688 0.640068 0.760743 
-0.239891 -1.180300 -0.011024 0.697447 -0.357197 0.465902 
0.387534 0.865798 0.993261 -0.816415 -0.451771 0.010299 
0.649085 1.252896 2.157358 0.769582 0.456933 -0.419103 
-0.785305 -0.412962 0.514739 0.615661 -0.280853 0.633083 
-0.758863 0.480486 2.514351 0.822846 -0.447274 0.335561 
-0.319349 0.521959 -0.078213 -0.523430 0.027400 -0.844177 
0.979933 1.055701 2.471605 -0.663753 -0.480477 0.569161 
-0.225193 1.043881 0.367423 -0.124464 0.901019 0.387110 
-1.014452 0.306781 2.070054 0.541928 -0.745756 0.084240 
-0.476712 0.301826 0.028880 -0.665667 0.096087 -0.720317 
0.622129 0.361888 0.685885 -0.636663 -0.585250 0.452043 
-0.621201 -0.053881 0.349172 0.333968 -0.334466 0.785570 
0.352982 -0.776451 0.119252 0.018317 -0.238631 0.903167 
-0.585784 0.592683 0.656407 -0.388633 0.815787 -0.319046 
0.638031 0.189505 0.292809 0.791878 0.148636 -0.558246 
0.813776 0.362459 1.540384 0.855940 0.463969 -0.214000 
0.699183 0.033721 0.519208 -0.531317 -0.375630 0.662059 
-0.621525 0.540054 0.421844 -0.733055 0.569171 -0.275391 
-0.243166 1.143859 0.590190 -0.247765 -0.649453 0.706086 
-0.067986 -0.938469 0.001478 -0.099432 -0.484003 0.825836 
1.150553 -0.256546 1.742211 0.863538 0.274624 -0.068286 
-1.362833 -0.071552 1.418825 -0.056047 0.389300 -0.776216 
-0.021439 1.381967 0.130413 -0.597861 0.386648 -0.654942 
0.133737 -0.008366 0.448074 0.240030 -0.290047 0.922076 
0.595902 0.538714 0.846266 -0.933909 -0.308207 0.040866 
-0.275289 -1.289176 0.011648 0.347745 -0.193934 0.749337 
0.548296 1.334698 2.069669 0.700519 0.565932 -0.430249 
0.789639 -0.558159 0.565190 0.633385 0.273684 -0.583842 
0.182436 -0.455691 -0.082883 0.296661 -0.300820 -0.876892 
-0.579404 0.284020 0.151000 -0.745380 0.154630 -0.630465 
-1.084293 0.278381 2.884686 0.718052 -0.606676 0.301008 
1.073201 -0.050484 1.502636 0.694090 0.532034 0.284538 
-0.372686 0.161967 0.376001 -0.460604 -0.182639 0.865329 
0.765554 0.798641 1.928828 -0.725163 -0.447764 0.517130 
-0.440247 0.181365 0.351555 -0.184603 -0.291248 0.839279 
-1.009023 0.695133 3.286793 0.721679 -0.543041 0.419558 
0.237571 -0.803391 -0.025851 0.003109 -0.089980 -0.988530 
0.718747 1.076727 2.120998 -0.637838 -0.434348 0.623081 
-0.703890 0.197034 0.471392 0.472826 -0.432800 0.685152 
0.801980 0.929050 2.097647 0.734350 0.428012 -0.521395 
0.437754 0.638880 0.523294 0.568808 0.801872 -0.029269 
-0.940861 0.648683 3.127941 0.734055 -0.558413 0.373393 
-0.956837 0.272376 1.344056 -0.797144 0.548998 -0.117982 
-0.136525 -0.428205 0.277092 -0.093097 -0.327410 0.938832 
0.499652 0.629905 0.689372 -0.833461 -0.470255 0.210811 
-0.589620 0.195364 0.191865 -0.762664 0.141969 -0.603461 
0.499063 0.659652 0.775365 -0.819053 -0.543345 0.142595 
-0.048440 -0.517281 -0.072513 -0.107196 -0.410005 -0.887806 
-0.094678 0.463577 -0.135820 -0.375327 0.042579 -0.922950 
1.054243 -0.137851 0.939194 -0.747423 -0.457779 0.401036 
-0.340769 0.772362 0.272966 -0.934713 0.230969 0.208267 
-0.225786 -1.254139 -0.035418 0.793129 -0.382056 0.334474 
-0.259265 0.581661 0.432910 -0.498885 0.060714 0.821401 
0.779353 -0.059004 0.579309 0.837364 0.218069 -0.443174 
-0.380709 1.168613 1.542077 0.710966 -0.554465 0.214297 
-0.381652 -1.022452 0.053201 0.237874 -0.159956 0.910230 
-0.284874 0.219554 0.441520 -0.421300 -0.120541 0.889215 
-0.803469 0.421730 2.506546 -0.772557 0.605284 -0.112647 
-0.330012 0.828230 0.215191 -0.922270 0.309387 -0.009293 
0.204840 0.782005 -0.057768 0.543641 0.450629 -0.677259 
0.635145 -0.959361 0.206805 -0.348434 -0.471611 0.759359 
-0.431860 0.632748 0.527998 -0.379945 0.871553 -0.134932 
0.806349 0.208396 0.622367 0.829189 0.307824 -0.397088 
-0.919499 -0.669145 0.700344 0.600046 -0.219693 0.683346 
-0.667170 0.600874 0.813707 0.922393 -0.299560 0.163317 
1.129990 0.685193 2.327341 0.610317 0.168200 -0.772877 
-0.676604 0.719528 1.095283 -0.886367 0.430011 0.114591 
-0.081861 -0.660320 -0.034014 -0.054139 -0.087828 -0.979203 
0.253585 0.701192 -0.086274 0.504810 0.298611 -0.784025 
-0.638667 0.410869 0.601454 0.533831 -0.602700 0.566244 
0.894101 0.077072 0.781399 -0.732359 -0.416781 0.476525 
-0.352323 1.398005 1.544283 -0.942364 0.280261 0.120705 
0.457722 0.530895 0.117406 0.710701 0.308214 -0.463097 
1.224952 0.748960 2.492079 0.663368 0.601398 -0.433114 
-0.780217 -0.103885 0.518402 0.483001 -0.300408 0.660733 
0.704635 0.606839 1.651923 -0.762736 -0.583002 0.214472 
1.335283 0.278588 2.365629 -0.677327 -0.300012 0.665974 
0.923923 0.192640 1.118759 0.857412 0.411057 -0.276004 
0.216171 1.148453 1.441733 -0.848694 -0.514249 0.111272 
0.269433 1.218998 1.427862 0.399161 0.650250 -0.396625 
-0.363851 -0.679556 0.123822 -0.041301 -0.234274 0.915498 
0.929465 0.454901 1.811071 0.811990 0.369506 -0.430004 
-0.533674 0.876041 2.240202 -0.928167 0.355400 -0.032020 
1.224819 0.931879 2.658393 -0.659806 -0.490771 0.566756 
-0.558964 0.890172 1.438689 0.694863 -0.690442 0.154678 
-0.501961 1.027965 1.566601 -0.892457 0.283082 0.109733 
1.000759 -0.174066 1.520298 -0.881783 -0.301023 -0.242415 
-0.552015 0.367406 0.113973 -0.728483 0.174720 -0.646364 
-0.569809 0.755143 1.829749 0.837582 -0.519108 0.060439 
-0.885199 0.596647 2.981960 0.744932 -0.572223 0.332912 
0.199653 1.053373 0.094451 0.664073 0.397112 -0.603000 
0.812703 0.154882 0.694952 -0.680588 -0.434764 0.530307 
0.880299 0.206054 0.808486 0.854827 0.400900 -0.285166 
1.296557 1.161956 2.934691 -0.632928 -0.553993 0.537489 
0.395443 0.675700 0.254374 0.123191 0.929117 0.086363 
1.231323 -0.274018 1.883728 -0.843187 -0.305781 0.289142 
0.436097 -0.968091 0.090500 -0.363761 -0.197200 0.901741 
1.544260 0.741534 2.843892 -0.634233 -0.510042 0.579302 
0.351780 0.983759 1.380737 -0.562599 -0.694154 0.427602 
-0.639785 0.812597 0.951378 -0.702944 0.612340 -0.322656 
-0.668347 0.747017 1.427264 -0.850420 0.421011 0.107768 
-0.581956 0.722714 1.919889 0.842833 -0.512678 -0.042868 
-1.061051 -0.192478 0.874596 0.765311 -0.290252 0.496138 
1.477459 1.156410 3.135677 -0.651452 -0.485990 0.579993 
0.563921 0.100213 0.355726 -0.424007 -0.377841 0.773229 
0.346998 0.594932 -0.044024 0.582302 0.171409 -0.743377 
-0.635280 0.290522 0.221359 -0.755747 0.177862 -0.605059 
0.561523 -0.972870 0.154772 0.425666 0.334741 -0.763844 
0.152764 0.015004 -0.139615 0.485315 -0.041138 -0.865664 
-0.795650 0.459252 1.819083 0.649749 -0.609548 0.327499 
-0.893805 0.770293 3.193096 -0.702315 0.604160 -0.311320 
-0.230256 -0.059326 0.391957 -0.381913 -0.274905 0.872806 
-0.109685 -0.217358 0.363728 -0.134758 -0.330077 0.932989 
-0.781275 -0.187191 0.511642 -0.789091 0.183307 -0.498470 
-0.723105 0.848541 3.031313 0.812742 -0.368481 0.419688 
0.724695 0.948688 2.023056 -0.643244 -0.618827 0.422351 
0.493074 0.837749 1.296034 0.906273 0.390852 -0.008588 
-0.033049 0.985453 0.515708 -0.163412 -0.042566 0.980823 
-1.092718 -0.122201 0.894529 -0.827652 0.254916 -0.437882 
-0.796857 0.444762 2.152138 0.616260 -0.759123 -0.183761 
-0.911783 -0.474318 0.694884 -0.723489 0.158332 -0.589360 
-0.590997 0.445555 0.267700 -0.733685 0.348785 -0.480749 
-0.550761 -0.760031 0.222869 0.437878 -0.223557 0.816016 
0.297494 0.289099 0.419090 0.366491 -0.078862 0.912465 
-0.221683 -0.843470 0.087608 0.126581 -0.329554 0.875616 
-0.501218 0.989450 2.407316 -0.921596 0.377381 -0.059610 
0.337522 -0.951691 -0.002600 0.500966 0.011860 -0.858690 
-0.819636 -0.063742 0.566844 0.531587 -0.313981 0.623052 
0.575668 0.648290 1.313648 -0.675022 -0.621143 0.355402 
1.425690 0.858274 2.813454 0.653379 0.492708 -0.572403 
-0.512239 0.613325 0.596633 -0.388297 0.838497 -0.234984 
0.912575 0.204943 0.984959 0.860589 0.401504 -0.251835 
-1.186059 0.114262 2.478158 0.578296 -0.796015 -0.047864 
1.195903 0.444067 2.298315 0.686237 0.261665 -0.663879 
0.150263 1.137001 0.521469 -0.369196 0.136891 0.885287 
-0.284107 -0.527103 -0.057595 -0.556441 -0.107195 -0.812234 
1.172299 0.172740 2.080758 -0.669984 -0.239077 0.676329 
-0.957561 0.315995 1.095688 -0.846918 0.445739 -0.158685 
0.360900 0.092884 0.356669 0.455186 -0.195391 0.859159 
-0.703921 0.527497 0.571909 -0.762225 0.567929 -0.256742 
-0.723266 0.467513 0.810079 0.593642 -0.660209 0.455183 
-0.960215 -0.251825 0.741417 0.715263 -0.292676 0.538715 
-0.415913 1.154278 2.052059 0.827519 -0.508051 0.197597 
0.754981 0.429866 1.007117 0.868243 0.432390 -0.099586 
0.542192 0.466240 0.612017 -0.910279 -0.203423 0.286098 
1.057299 -0.437776 0.883695 -0.606865 -0.488069 0.474686 
-0.058894 0.767263 -0.113660 -0.430046 0.290956 -0.833259 
-1.006810 0.216739 1.356933 -0.796838 0.526601 -0.164028 
-0.071163 0.493802 0.521580 -0.178772 0.101926 0.962629 
0.051029 -0.302663 0.321477 0.016151 -0.359025 0.927383 
0.183199 0.680409 -0.112630 0.432611 0.205471 -0.857055 
-0.228927 1.212846 0.560035 -0.788639 -0.381517 -0.466885 
0.689032 -0.475772 0.461104 0.674577 0.201488 -0.610095 
0.354941 0.688172 -0.000887 0.618640 0.438130 -0.531961 
0.226700 1.158831 0.576989 0.734852 0.108081 -0.641948 
0.066223 0.296749 -0.179928 0.448929 0.043928 -0.890299 
-0.605856 0.655934 2.149452 -0.913330 0.400961 -0.052037 
-0.340583 1.280486 1.419127 0.768279 -0.033597 -0.334058 
-0.722613 0.525871 1.576118 0.716149 -0.601040 -0.232774 
-0.719022 0.602965 1.532369 -0.833448 0.489629 -0.032400 
-0.462552 -1.000050 0.074108 -0.458934 0.194978 -0.815135 
-1.421462 -0.068639 1.591745 -0.291054 0.558820 -0.505041 
1.325499 0.959697 2.787978 0.665302 0.466823 -0.578548 
1.062119 0.185923 1.872983 0.799485 0.292811 -0.507008 
0.690077 1.242763 2.240926 -0.649689 -0.506988 0.554125 
0.492999 0.377952 0.068262 0.743481 0.127385 -0.609573 
-0.037861 -0.181313 0.379177 -0.045611 -0.339906 0.934649 
-0.764108 0.586098 0.897103 -0.864573 0.436816 -0.090368 
0.168544 1.376369 1.501466 0.518400 0.457376 -0.688819 
-0.825388 0.432970 2.579147 0.804503 -0.460735 0.360123 
1.115953 -0.453270 0.948193 0.651496 0.474245 -0.417619 
-0.122916 -0.029719 0.440471 -0.212801 -0.297972 0.926158 
-0.656922 0.687899 1.016644 0.711560 -0.607902 0.334095 
-0.182256 0.519274 -0.117275 -0.435232 0.033535 -0.891904 
0.980670 -0.045339 0.846093 0.825350 0.351573 -0.394524 
-1.015687 -0.402200 0.827956 -0.762021 0.173615 -0.546757 
0.274948 -0.784660 0.100150 0.019406 -0.275109 0.887939 
-0.526742 0.280575 0.083851 -0.735149 0.133239 -0.655078 
0.442426 0.103395 0.033048 0.740146 0.019925 -0.656375 
-1.331416 -0.153262 1.362782 0.783163 -0.336764 0.517332 
0.781250 -0.711409 0.536439 0.572432 0.281710 -0.618801 
1.057147 -0.586851 0.839509 -0.534559 -0.525234 0.505710 
0.808221 0.207589 0.769457 -0.696911 -0.519721 0.431700 
-1.082354 0.188989 2.414786 -0.623140 0.754711 0.033905 
0.207375 0.575722 0.461364 0.393717 0.062066 0.894277 
-0.405540 0.561861 0.460595 0.808754 -0.361724 0.424851 
-1.244257 -0.475444 1.092076 -0.757752 0.272592 -0.506664 
-0.591278 -0.785070 0.277688 0.462677 -0.214484 0.805933 
-0.225551 0.261333 -0.095800 -0.437814 -0.026430 -0.895191 
-1.100708 0.227261 1.863347 0.548858 -0.687336 0.353078 
-0.569086 0.955961 2.840918 -0.679629 0.725223 -0.042049 
0.672834 1.178567 2.121540 0.775429 0.447111 -0.420287 
1.069600 0.774835 2.333218 0.679855 0.615476 -0.394185 
0.307821 -0.370057 0.244016 0.483324 -0.299273 0.814346 
-0.324350 -0.537363 0.003748 -0.679746 -0.056428 -0.701710 
0.676006 -0.550929 0.438527 -0.557148 -0.289277 0.683641 
1.493224 0.802199 2.841467 -0.637942 -0.520178 0.567161 
-0.624381 0.672297 2.388687 0.885580 -0.412745 0.186113 
1.289179 0.234526 2.318473 0.713245 0.264053 -0.646038 
1.063075 0.997685 2.530963 0.680369 0.498801 -0.530865 
-0.708707 0.662098 1.287367 -0.851889 0.465151 0.088904 
-1.075101 0.137237 1.239047 0.791076 -0.470862 0.294935 
-0.787768 0.424945 0.804690 0.603482 -0.669017 0.432996 
0.295941 0.798811 0.354535 0.751234 0.233853 0.542616 
-0.240220 0.190174 -0.088848 -0.447944 -0.045299 -0.888215 
0.247421 -0.423658 0.251325 0.341871 -0.307724 0.876838 
0.212722 -1.102369 -0.037338 0.093021 0.064395 -0.928399 
-0.610552 0.754583 1.118949 0.698035 -0.645996 0.285287 
-0.243264 1.069343 0.269302 -0.891676 0.406059 -0.001097 
-0.049229 -0.882581 0.044931 -0.219853 -0.465506 0.821257 
0.562790 -1.039603 0.131495 -0.142373 -0.391283 0.749789 
1.021807 -0.706155 0.682179 0.482827 0.654900 -0.503563 
0.025860 -0.817207 -0.052259 0.280941 0.104591 -0.935290 
-0.589840 0.687975 2.068888 -0.870223 0.481032 0.041304 
1.361487 0.356752 2.394779 0.654284 0.285425 -0.691425 
-1.006773 0.107100 0.794386 0.757872 -0.370152 0.446691 
-0.176679 -0.010158 -0.126939 -0.485071 -0.055043 -0.864737 
-0.422489 -0.107255 0.243918 -0.148752 -0.219235 0.910776 
0.558748 0.233921 0.374548 -0.463637 -0.419713 0.753607 
0.575937 1.082559 1.868442 0.771572 0.430716 -0.453650 
-0.924330 0.098962 0.655515 -0.847947 0.255661 -0.417589 
0.341684 1.355745 1.804611 0.397646 0.857068 -0.241405 
-0.512123 1.045066 1.491943 -0.905234 0.254258 0.163958 
0.771904 0.189587 0.502605 0.811148 0.238392 -0.485377 
0.564224 0.342634 0.213509 0.781398 0.165926 -0.539968 
0.312120 0.084524 -0.049945 0.472697 -0.097868 -0.872729 
-1.166008 0.087181 2.736371 0.682478 -0.702050 0.148368 
0.145753 0.757376 -0.089426 0.494752 0.386926 -0.735732 
1.032836 0.414723 2.011766 -0.617152 -0.237591 0.723704 
-0.519784 0.839611 0.836990 -0.702015 0.577751 -0.403206 
1.071095 0.405925 2.071793 -0.637893 -0.256006 0.700392 
-0.841436 0.446102 1.752492 -0.654994 0.708503 0.237551 
-1.097820 0.213920 2.337399 0.527059 -0.822421 -0.169372 
0.426571 0.096771 0.320203 0.081077 -0.267358 0.850349 
1.259924 0.313538 2.321227 0.702851 0.266519 -0.654278 
-0.744282 0.111812 0.505416 0.494613 -0.393758 0.662740 
0.560284 0.467114 0.276181 0.796984 0.367760 -0.354123 
0.237822 1.037765 0.156294 0.806497 0.408136 -0.344198 
-0.961893 0.425313 2.866333 -0.754987 0.558820 -0.316914 
1.549971 0.796294 2.899556 -0.637264 -0.516205 0.572125 
-0.287052 0.755193 0.382911 -0.675693 0.207636 0.656493 
-0.426840 1.125264 1.917602 0.817239 -0.501040 0.270732 
-0.742461 0.504694 1.813350 0.697476 -0.598135 0.264806 
0.224009 -0.531639 -0.044066 -0.076934 -0.250322 -0.933969 
-0.115381 0.551543 0.512786 -0.283529 0.101237 0.944369 
-0.034329 0.493792 -0.161859 -0.365952 0.067991 -0.926528 
0.473124 -0.332347 0.202210 0.802054 0.025215 -0.549619 
-0.659882 -1.020896 0.178637 -0.367912 0.557035 -0.706293 
-1.424414 -0.021671 1.767696 -0.548925 0.727930 -0.238527 
0.890206 1.192014 2.465905 0.706165 0.478278 -0.520599 
-0.898233 -0.705596 0.643951 -0.628124 0.232691 -0.643655 
0.946775 0.198903 1.698104 -0.864095 -0.439702 0.025859 
-0.556075 0.874016 2.323601 0.831770 -0.494660 0.242814 
0.732640 0.463366 1.066407 0.868240 0.441652 -0.083479 
-0.535923 0.664252 0.683074 0.775542 -0.449398 0.416770 
-0.370749 0.264614 -0.019849 -0.496982 -0.024353 -0.847946 
1.394846 1.072158 2.963641 0.664865 0.464872 -0.580798 
-0.671721 0.670370 1.502450 0.714726 -0.659894 0.007955 
-0.357215 -0.393116 0.197399 -0.367535 -0.277193 0.842238 
0.303976 0.217432 0.420433 0.436825 -0.122012 0.882333 
-0.113536 1.071700 0.487539 0.072124 0.061519 0.934677 
-0.086993 0.707583 0.452693 -0.079570 0.109513 0.984354 
-0.515922 0.590209 0.509521 -0.387284 0.871066 -0.174131 
1.315353 0.790544 2.633287 -0.635084 -0.447713 0.619539 
-0.660388 0.756632 1.032311 -0.902688 0.399180 0.121537 
0.407958 -0.294111 0.187304 0.114043 -0.217773 0.912095 
0.298082 0.926684 0.246787 0.924750 0.329190 0.005948 
1.106153 -0.070665 1.344425 0.686627 0.531263 0.209690 
-0.001606 0.648321 0.476586 0.002280 0.225848 0.957605 
1.191797 -0.239620 1.834149 -0.851031 -0.310416 0.197304 
-0.030646 -0.414859 -0.147254 -0.212114 -0.348542 -0.902119 
0.051120 0.457586 -0.159103 0.383921 0.058810 -0.918581 
1.571027 1.031129 3.128623 0.648498 0.504959 -0.569568 
0.029246 -0.133333 0.401938 0.053944 -0.336442 0.935951 
-1.180073 -0.087209 1.010038 -0.855852 0.259846 -0.410812 
-0.403862 -1.171462 0.046431 -0.462168 0.092094 -0.823474 
0.248584 -0.133690 0.357297 0.414490 -0.277129 0.857530 
0.889944 -0.522154 0.683393 0.640464 0.335005 -0.531980 
0.585846 1.252412 2.094763 -0.620207 -0.500726 0.588846 
-0.484903 -0.074246 0.221535 0.135533 -0.314299 0.891124 
-0.895742 0.375286 1.000548 0.784776 -0.495758 0.321514 
-0.502020 0.889694 1.089186 0.872786 -0.468055 0.067896 
-0.605940 0.877674 2.851312 0.776824 -0.583995 0.227053 
1.167202 1.263088 2.882442 -0.691893 -0.290327 0.633569 
1.215688 -0.367192 1.073248 -0.638566 -0.568397 0.381982 
-0.859978 0.264019 0.689170 0.642083 -0.477687 0.519741 
-0.370785 1.168988 1.340950 0.894860 -0.426593 0.051284 
0.190704 -0.095068 0.396781 0.320005 -0.288426 0.892187 
-0.722042 0.600479 1.026902 0.730973 -0.581723 0.321213 
1.018057 0.601680 2.109598 0.759068 0.429130 -0.470857 
0.896250 -0.596834 0.673821 -0.533732 -0.414718 0.590803 
0.701463 0.133476 0.541248 -0.566761 -0.407731 0.641823 
1.282710 0.884667 2.678160 0.662079 0.509066 -0.545151 
1.381415 0.926491 2.824149 -0.632558 -0.543583 0.549402 
-0.433402 -0.171867 0.211267 -0.069621 -0.224522 0.923952 
0.313389 0.821362 0.121120 0.828419 0.411385 -0.277982 
-1.270732 0.035748 1.546799 -0.274761 0.506680 -0.598020 
1.111483 0.998257 2.591150 -0.669012 -0.484468 0.561891 
-0.314941 0.839267 0.322311 -0.891644 0.223479 0.375519 
-0.022308 0.860652 -0.111463 -0.422917 0.356282 -0.828297 
0.739833 -0.699952 0.480068 -0.486769 -0.338577 0.690719 
0.604050 0.751957 1.581561 0.837824 0.335152 -0.285602 
1.372982 0.728554 2.641220 -0.625810 -0.438639 0.634844 
-0.545474 0.905103 0.988649 -0.526501 0.628776 -0.516159 
-0.526301 -0.695444 0.206554 -0.604802 0.092822 -0.726617 
1.063295 -0.010033 1.162781 0.765421 0.460965 -0.049883 
-0.640810 -0.742957 0.359251 -0.609819 0.093590 -0.727953 
-1.171919 -0.159458 1.009025 -0.841933 0.238079 -0.436875 
-1.018602 0.625987 3.220676 -0.739043 0.517843 -0.422807 
-0.406593 1.168548 1.456230 0.664935 -0.712192 0.207191 
-0.750136 0.525544 2.022172 -0.644580 0.735982 0.197852 
0.768407 1.022131 2.147989 -0.662179 -0.404734 0.618826 
-1.228923 -0.183706 1.103019 0.828846 -0.261421 0.456996 
-0.515047 1.093976 1.211290 -0.780493 0.579664 -0.202156 
0.080636 0.799807 -0.093776 0.447275 0.333880 -0.808463 
-0.391645 -0.141316 0.040326 -0.779654 0.000624 -0.615422 
-0.673511 0.603397 1.593072 0.704476 -0.595938 -0.262117 
0.524065 0.588289 0.386299 0.668987 0.678908 -0.164715 
1.574018 0.377668 2.524395 0.599895 0.435966 -0.657667 
0.090600 0.304103 0.537856 0.241799 -0.046738 0.954091 
-0.263956 0.661337 0.426963 -0.533562 0.223594 0.773805 
-0.878979 0.453974 0.915954 -0.881196 0.382778 -0.140352 
0.938404 0.494823 1.884861 0.835602 0.477768 -0.231239 
1.465407 0.491051 2.514132 -0.598856 -0.397560 0.691807 
-0.716131 0.110409 0.382234 -0.803209 0.175810 -0.521132 
-0.778466 0.454960 1.581672 0.708438 -0.626140 -0.209986 
-0.810863 0.444470 1.288086 0.748151 -0.620279 0.144132 
-0.673497 -0.876533 0.327134 -0.516473 0.264361 -0.728000 
0.724538 0.520517 1.606301 -0.775608 -0.550103 0.254516 
-0.162450 0.396053 0.532286 -0.359567 0.036509 0.931767 
-0.701126 0.532495 0.662869 -0.366218 0.832151 -0.371865 
0.340176 -1.340510 -0.015478 0.904735 0.160058 0.039149 
-0.681171 0.264692 0.454692 0.464943 -0.463025 0.695229 
-0.130929 0.376040 -0.132622 -0.408190 0.023321 -0.909056 
0.321128 -0.214663 0.287365 0.490453 -0.267098 0.824780 
0.668008 0.624452 1.569756 0.852538 0.380450 -0.246629 
-0.276250 0.986901 0.263125 -0.914202 0.355121 0.021925 
-0.434532 1.162457 2.262931 -0.862190 0.501969 0.015460 
0.757912 0.126071 0.613364 -0.618329 -0.413290 0.591725 
1.019155 0.023316 1.523599 -0.726109 -0.528931 -0.158553 
0.917948 0.196945 1.624756 0.827150 0.352688 -0.218925 
-0.228401 0.569606 -0.101137 -0.448401 0.065051 -0.873855 
-0.545882 0.785131 2.055801 0.903375 -0.371293 0.178865 
0.261463 -0.092833 -0.081272 0.494875 -0.107602 -0.857870 
0.508815 0.027356 0.270017 -0.346964 -0.346900 0.836713 
-0.847031 -0.196923 0.578862 -0.769746 0.224026 -0.500717 
0.393469 0.676184 0.060649 0.663464 0.501632 -0.398075 
-0.539618 0.283497 0.336159 0.247297 -0.450589 0.796288 
0.141529 -0.623690 0.198738 0.208461 -0.389477 0.895481 
-1.126081 0.087891 2.648510 -0.690480 0.713040 -0.090076 
0.560226 0.553305 0.918029 -0.792178 -0.542769 0.179958 
1.170641 0.976466 2.633739 0.671960 0.485107 -0.558990 
-0.158267 -0.939831 0.016585 0.172486 -0.419486 0.858108 
-0.765828 0.433789 2.443669 -0.779338 0.608404 -0.079179 
-0.434983 0.579099 0.134998 -0.624957 0.469200 -0.405450 
1.280746 1.106177 2.863300 0.675725 0.438527 -0.588098 
1.559607 0.313022 2.497223 -0.608131 -0.383762 0.690007 
0.695389 -0.886619 0.320294 -0.387391 -0.447225 0.726603 
-0.339949 0.425814 -0.054725 -0.487204 -0.026804 -0.868708 
0.986978 0.036680 0.851864 0.851689 0.349523 -0.373325 
1.085516 0.912287 2.480779 0.676524 0.543110 -0.483422 
0.909838 -0.031333 0.760168 0.848601 0.299083 -0.393884 
1.055861 -0.011059 1.341652 -0.713559 -0.533164 -0.076161 
-1.277655 -0.227743 1.164508 -0.857963 0.209872 -0.441857 
-1.040692 0.288301 2.805466 0.732665 -0.581547 0.306602 
0.236594 1.086407 0.215007 0.871580 0.428394 -0.152347 
1.560219 0.892901 2.995573 -0.639755 -0.511381 0.573681 
-0.212009 -0.633528 0.174261 -0.251458 -0.341901 0.891972 
1.308455 1.211681 2.998047 -0.670552 -0.412693 0.602547 
-0.190066 0.891018 -0.005433 -0.604628 0.431082 -0.653981 
-0.289620 -0.622572 -0.054826 -0.496317 -0.093485 -0.847155 
-0.491823 0.963820 1.012163 0.855428 -0.259381 -0.058710 
-0.928069 0.482969 2.891569 -0.769109 0.533328 -0.339198 
1.014299 -0.354259 0.845415 0.698761 0.400236 -0.442561 
-0.097384 -0.366456 -0.148542 -0.377643 -0.223419 -0.884749 
0.572639 0.730909 1.473651 0.900199 0.386164 -0.110476 
1.128075 -0.178094 1.754462 0.844880 0.268604 -0.146902 
-0.013174 0.338907 0.552494 -0.113501 -0.023542 0.989800 
0.356962 0.481956 0.347444 0.094713 0.067358 0.878037 
-0.386346 1.307620 1.617310 -0.929096 0.347576 0.108105 
0.561911 -0.722652 0.273399 -0.455619 -0.245190 0.790538 
0.062266 1.460639 1.491749 -0.796589 -0.299291 -0.346901 
1.141029 0.080998 1.968851 -0.682961 -0.237473 0.649814 
0.737454 1.253750 2.297849 0.742105 0.467649 -0.469724 
0.004798 -0.247016 0.345888 -0.027377 -0.361520 0.928141 
-0.593598 0.823713 2.611219 -0.867789 0.445281 -0.190833 
-0.634517 0.790552 1.504772 -0.861832 0.391415 0.065021 
-0.346902 -0.686854 0.021701 -0.649050 -0.016051 -0.728278 
0.948379 0.112716 0.989924 -0.807348 -0.447195 0.370894 
0.550120 -0.924066 0.209998 -0.380799 -0.280075 0.829950 
-1.268567 0.081950 1.724979 0.504575 -0.727238 0.097913 
0.138890 -0.531245 0.235903 0.147679 -0.359551 0.917285 
-0.729107 -0.162970 0.459656 -0.812275 0.148966 -0.489529 
1.446887 -0.294403 1.343999 -0.670670 -0.688537 0.254234 
-0.698637 0.427887 0.730415 0.580202 -0.646971 0.488332 
-0.484236 1.020953 1.403692 0.679218 -0.695957 0.201049 
-0.476369 0.482232 0.497269 0.751216 -0.429377 0.442235 
1.362859 -0.257170 1.394916 0.652741 0.652872 0.047085 
0.463851 1.258555 1.917965 -0.583323 -0.492102 0.633210 
-0.498150 0.924687 1.811328 0.763130 -0.604555 -0.008778 
0.535369 0.953120 1.629312 0.831307 0.409531 -0.203317 
-1.167532 0.205856 2.206907 -0.521453 0.830702 0.175726 
0.511552 -0.280693 0.252767 0.819109 0.045794 -0.524077 
1.156708 -0.156258 1.824291 0.832043 0.274488 -0.277767 
0.806914 0.343918 0.908741 0.866013 0.434402 -0.159769 
1.029021 -0.623087 0.783831 -0.514931 -0.540345 0.520601 
0.841093 1.002208 2.233581 0.728754 0.503384 -0.461653 
0.486853 -0.078976 0.158365 0.804101 0.040217 -0.566299 
0.131544 0.235364 -0.147360 0.458681 0.006499 -0.884500 
0.304898 -0.525826 -0.024942 0.627427 -0.083217 -0.744464 
-0.018018 -0.990355 -0.029176 -0.436707 -0.460137 0.758604 
0.929175 -0.083965 0.805818 -0.749998 -0.386312 0.457401 
1.010208 0.331493 1.907613 -0.566328 -0.167436 0.798409 
-0.189619 -0.572492 0.208891 -0.256306 -0.351348 0.899683 
0.419307 0.697396 0.124153 0.695763 0.687915 -0.161991 
-1.124519 -0.129954 0.956547 0.802344 -0.295658 0.460467 
0.749419 -0.290191 0.546608 0.755144 0.219223 -0.520843 
-0.091310 0.412111 0.534307 -0.227156 0.050386 0.957333 
0.200239 -0.373058 -0.111353 0.481312 -0.174201 -0.849874 
1.055169 1.063218 2.584776 -0.670047 -0.497891 0.549092 
-0.364512 -0.156513 0.275993 -0.420383 -0.242169 0.847730 
-0.987380 0.275874 1.589415 -0.542211 0.583200 -0.402983 
-0.897700 0.319345 1.359257 0.771875 -0.602642 0.089855 
-0.565510 0.193031 0.318251 0.332604 -0.442526 0.799880 
-0.973329 0.315044 1.007819 -0.865319 0.400317 -0.188015 
-0.359151 -0.075697 0.310320 -0.478353 -0.236891 0.837612 
0.472472 1.334940 2.006773 -0.763743 -0.182961 0.549373 
0.958977 -0.611739 0.750383 0.599388 0.387221 -0.519597 
0.854152 0.038361 0.721961 -0.681210 -0.398845 0.519979 
1.002885 0.449172 1.954908 0.830665 0.432611 -0.303759 
1.401745 -0.358112 1.266825 -0.638778 -0.692586 0.285263 
-0.501402 -0.437495 0.201796 -0.732882 0.046014 -0.615461 
0.489246 -0.658531 0.203237 0.630084 0.082501 -0.702533 
0.309588 -0.389073 -0.009724 0.719046 -0.096312 -0.661143 
1.277072 -0.213502 2.010717 -0.813413 -0.313700 0.481376 
-0.161645 -0.808016 0.110552 0.051988 -0.377732 0.875839 
-0.765828 0.506873 1.635026 -0.798162 0.538484 -0.204996 
-0.035051 -0.920054 -0.075809 -0.267005 0.195466 -0.920963 
1.080400 -0.072802 0.955675 0.806972 0.418081 -0.355853 
-0.513458 0.874993 1.914182 0.699817 -0.663964 -0.142812 
0.609939 0.516586 0.435358 0.820303 0.504850 -0.204657 
1.239935 0.871236 2.621138 -0.648393 -0.463407 0.596080 
-1.084409 0.099269 0.851704 -0.861751 0.323883 -0.363760 
0.013003 -1.214077 -0.179445 0.543854 -0.801310 -0.047417 
-0.480684 1.023792 1.831705 -0.911503 0.392955 0.059814 
-0.850792 0.407155 2.191336 -0.650163 0.730074 0.100409 
-0.810834 0.455330 1.215342 0.750879 -0.598438 0.191076 
-0.839601 0.434779 1.667952 -0.732627 0.592079 -0.277437 
-0.454525 0.610692 0.445452 -0.409802 0.875100 -0.110456 
0.541738 -0.398355 0.243601 -0.284471 -0.236096 0.863287 
-0.552389 0.547014 0.292373 -0.708992 0.562248 -0.298198 
-0.221527 1.025449 0.439363 -0.620732 0.767156 -0.104891 
1.110189 0.350714 2.095271 -0.628570 -0.232534 0.724545 
-0.869861 0.180799 0.652467 0.636345 -0.412319 0.550246 
-0.584935 0.387852 0.202302 -0.738138 0.226235 -0.592648 
0.753411 1.180659 2.267221 -0.641656 -0.496639 0.573704 
0.856469 0.246893 1.124275 -0.784048 -0.492650 0.348678 
-0.799164 -0.344358 0.521173 -0.715778 0.206052 -0.564528 
-0.114317 -0.948609 -0.083101 -0.201781 0.185811 -0.941245 
-0.960488 0.710993 3.230105 0.727821 -0.549622 0.396343 
-0.337817 -0.211235 -0.023501 -0.655555 -0.060947 -0.726316 
-0.792006 0.567176 2.735659 -0.803245 0.519258 -0.267898 
0.412278 0.899151 1.397483 -0.596146 -0.669654 0.406012 
-0.657682 0.824805 2.893580 0.765328 -0.589350 0.254439 
-0.254117 -0.085466 -0.085530 -0.490710 -0.100628 -0.859623 
-0.756043 0.471494 1.717459 0.692522 -0.651648 -0.002976 
-0.630739 0.720052 1.537968 0.702483 -0.640614 -0.080034 
0.254525 0.362262 -0.068200 0.423650 -0.031866 -0.902062 
-0.288420 -0.235886 -0.070538 -0.539242 -0.118332 -0.824763 
-0.070974 1.139169 0.066436 -0.416955 0.413274 -0.798016 
1.206982 -0.069485 1.984200 -0.748281 -0.275197 0.565001 
-0.776818 -0.522360 0.511306 0.588503 -0.252303 0.673473 
0.105796 -0.449432 0.271219 0.076427 -0.304214 0.946029 
-0.048582 0.283928 -0.192065 -0.447727 0.050322 -0.891371 
-0.841244 0.382035 1.519934 0.729075 -0.658742 -0.057006 
-0.446457 -0.790536 0.099196 0.284571 -0.196909 0.920834 
-0.000426 -0.061048 0.435227 0.040905 -0.331973 0.938535 
0.527572 0.766318 1.107900 0.889105 0.440556 0.062650 
-0.367505 0.595011 0.305723 -0.515662 0.362588 0.705262 
1.395331 -0.278789 1.286738 0.701023 0.638543 -0.258046 
1.466599 0.632967 2.651388 0.634123 0.515424 -0.557766 
0.433463 0.215956 0.016570 0.657359 0.011248 -0.726662 
1.510155 0.717915 2.783195 -0.629846 -0.488976 0.597840 
0.225710 0.733232 0.433690 0.446924 0.221103 0.843440 
-0.177328 -0.285415 -0.124254 -0.487758 -0.137837 -0.850278 
0.470502 -0.521036 0.188016 0.705541 0.049709 -0.638462 
-0.347402 1.398788 1.622264 -0.902657 0.415039 0.084857 
1.378244 1.013908 2.896969 -0.633698 -0.542705 0.548611 
-0.793381 0.623351 2.840272 0.779819 -0.547579 0.287640 
0.069109 -0.050715 0.438828 0.140986 -0.312833 0.935997 
0.849361 1.187424 2.402090 0.719976 0.469801 -0.509542 
0.392770 1.024588 1.262520 0.758673 0.611193 -0.114288 
-0.927471 0.398781 0.925101 -0.888810 0.358951 -0.159858 
0.084693 -0.981757 -0.032239 -0.018808 -0.498389 0.829177 
0.160682 -0.096860 -0.137267 0.498937 -0.064067 -0.856060 
-0.639788 0.691031 2.542694 0.854727 -0.467466 0.212414 
1.008335 -0.084102 0.898824 -0.773006 -0.427417 0.409325 
-0.906038 0.332908 1.499671 -0.691683 0.612502 -0.145006 
-1.341910 0.038449 1.753746 -0.555678 0.709619 -0.273315 
0.396792 0.157366 -0.003943 0.608144 -0.022124 -0.765871 
1.048266 0.560987 2.158694 -0.724436 -0.382088 0.558807 
0.570070 -0.462970 0.284849 -0.356292 -0.247408 0.820333 
0.268282 -0.066102 0.366077 0.423463 -0.258136 0.859840 
0.294630 -1.103737 0.034792 -0.184318 -0.143838 0.960966 
-1.122681 0.119238 1.414745 0.264716 -0.477388 0.483321 
-1.021896 0.262879 2.720249 0.737555 -0.579020 0.284555 
-0.747558 0.537060 1.495568 0.730496 -0.654205 -0.004092 
0.433687 -0.782846 0.087264 -0.282640 -0.195312 0.931512 
-0.231503 -0.584720 -0.031386 0.131916 -0.213326 -0.962116 
-0.283049 -0.705172 -0.026565 -0.163744 -0.127739 -0.907807 
-0.656857 0.227932 0.268819 -0.770901 0.174581 -0.579047 
1.144375 0.257611 2.071932 0.799875 0.350730 -0.418818 
0.949441 0.346108 1.858850 -0.747153 -0.342596 0.552344 
0.215078 1.214971 0.533049 -0.529376 0.637674 0.481496 
-0.564450 0.702905 0.752746 -0.594891 0.608812 -0.511689 
1.048468 1.287187 2.780763 -0.683412 -0.400843 0.605809 
-0.462017 -1.147801 0.077856 -0.279801 -0.153549 0.704519 
-0.660051 0.670160 2.621544 -0.839274 0.492949 -0.221419 
-0.507914 -0.359897 0.187420 0.160928 -0.220344 0.915154 
0.904816 0.361610 1.717500 0.769099 0.323288 -0.491429 
-0.451386 1.098264 2.483734 -0.812665 0.576223 0.024973 
-0.676251 -0.554272 0.381403 -0.649809 0.149486 -0.657438 
1.043810 0.015659 1.742128 -0.869484 -0.379640 -0.005406 
-0.674185 0.566981 0.727317 -0.386772 0.790827 -0.417768 
1.061987 -0.281738 1.500215 0.855697 0.303388 0.374465 
-1.120895 0.237554 2.133988 -0.537412 0.819169 0.183532 
0.175113 -0.435096 0.268912 0.177308 -0.318493 0.925541 
1.299916 0.365381 2.362034 0.668427 0.258604 -0.690124 
0.741222 0.362790 0.700486 0.850305 0.422057 -0.226131 
-0.113549 1.270734 0.242006 -0.687660 0.640211 0.113131 
-0.343844 0.260141 0.390367 -0.380512 -0.103042 0.904369 
-0.339603 1.283759 1.889299 0.928643 -0.350342 0.118642 
