-0.149874 0.542694 -0.283554 -0.469404 0.195451 -0.840586 
-0.233305 -0.798703 -0.022195 -0.006549 -0.354044 -0.920332 
0.034999 0.849612 -0.217217 0.425022 0.399984 -0.805447 
-0.493602 -0.032085 0.147194 -0.892491 -0.102105 -0.420245 
-0.676786 0.492239 0.840304 0.919071 0.269146 0.255968 
-0.309769 0.871723 0.053284 -0.877702 0.389326 -0.220600 
0.237518 0.919985 0.294474 0.723573 0.031239 0.656774 
0.968738 -0.240799 2.230588 0.884600 -0.439195 0.054179 
-0.512084 0.590282 0.055347 -0.871208 0.332812 -0.286049 
1.162641 0.273018 2.400424 0.915308 -0.316479 -0.219250 
-0.544370 -0.447834 0.534321 0.802248 0.054815 0.446013 
-1.298399 0.120688 3.020236 -0.930418 -0.341995 0.082251 
-0.461655 0.628742 -0.006113 -0.780486 0.407467 -0.362216 
0.571489 0.436115 0.573692 -0.877308 0.319551 0.315557 
-0.785527 0.466047 1.005565 -0.945007 -0.296457 -0.131827 
-0.693790 -0.528109 1.900004 -0.726366 -0.544704 -0.346632 
-0.950444 0.923753 1.451055 -0.455785 0.623920 -0.569306 
0.285876 -0.470834 0.124685 0.515432 -0.154559 0.829486 
0.868212 -0.274790 1.570268 -0.915898 0.320010 0.071560 
0.433399 -0.423589 0.087599 -0.339818 -0.015709 0.883745 
-0.894066 0.591546 1.492379 0.882969 -0.087933 0.389065 
-0.676746 0.529790 0.729897 -0.835740 0.273881 -0.444530 
0.583632 -0.695867 2.134308 -0.786038 0.607741 0.039951 
-1.498334 0.757947 2.662862 0.850891 0.394853 0.282602 
0.104946 -0.586752 -0.130751 0.047500 -0.417369 -0.904734 
0.964203 0.141230 1.597755 0.918073 -0.260219 -0.261940 
0.741455 0.486868 0.954657 0.960901 -0.215846 -0.169706 
-0.557631 -0.534492 0.540371 -0.865621 -0.123146 -0.380801 
0.628966 0.451346 0.844049 -0.935172 0.117000 0.287641 
-0.653054 -0.565751 0.766689 0.963441 -0.000205 0.232209 
0.297244 0.295773 -0.248020 0.635909 -0.019835 -0.767146 
-0.729490 0.141479 1.048122 0.908900 0.012394 0.347868 
1.058462 0.369851 1.983969 -0.928088 -0.061496 0.287575 
0.133687 -1.183903 0.059803 0.255887 -0.222294 -0.779397 
-1.012818 0.173817 1.853093 0.798710 0.205278 0.525716 
-0.096321 1.154850 -0.038197 -0.480901 0.383696 -0.777299 
-0.874471 -0.392620 2.062108 -0.847746 -0.479412 -0.189879 
-0.967307 -0.110372 1.875994 -0.698872 -0.421628 -0.545669 
0.209800 -0.510821 0.143127 0.324208 -0.182100 0.924694 
1.011697 0.960071 1.808131 0.957080 0.160398 -0.071695 
-0.589325 0.428448 0.517727 -0.832525 0.461957 -0.257922 
-1.221353 0.897952 1.976970 -0.939302 -0.115883 -0.312688 
-0.760083 -0.070451 1.145256 -0.934918 -0.249490 -0.221084 
-0.570045 -0.756817 2.010563 -0.760080 -0.569988 -0.271673 
0.562480 -0.137587 0.418639 0.919272 -0.077162 -0.373644 
-0.565484 0.159719 0.326389 -0.919630 -0.102928 -0.359855 
0.067364 0.427216 0.349713 0.149747 -0.193661 0.957380 
0.884151 0.502486 1.489046 -0.880984 -0.157590 0.331658 
0.031212 1.076742 -0.085463 0.315949 0.423912 -0.839086 
0.373469 -1.028375 0.218692 -0.477672 -0.063149 0.802432 
-1.478538 0.532488 2.722025 -0.946820 -0.260016 -0.122722 
-0.126462 0.615583 -0.276520 -0.425216 0.272962 -0.845185 
-0.244035 1.073101 0.157077 -0.894460 0.403965 0.004245 
-0.121963 -1.086896 -0.016720 -0.485750 -0.103367 -0.841846 
-1.357312 0.664013 2.278178 -0.944477 -0.156183 -0.280663 
-0.646409 -0.699828 0.929706 0.973885 0.055382 0.114166 
-1.374306 0.291030 2.590652 0.846669 0.427273 0.254108 
0.336159 0.054107 0.142116 0.250705 -0.172998 0.924635 
-1.062747 0.320753 1.880083 0.762964 0.115084 0.591856 
0.943485 1.248333 1.677400 -0.843347 0.126324 0.426989 
0.615080 0.536082 0.659791 0.892716 0.213160 -0.356230 
-0.651308 -0.408038 0.833802 -0.964329 -0.132874 -0.151868 
-0.870176 0.385250 1.378618 -0.909694 -0.354557 -0.200440 
1.030878 0.359329 1.818198 0.965386 -0.141547 0.076876 
-0.743686 -0.081659 1.057329 -0.940389 -0.224652 -0.223154 
-1.220160 -0.009718 2.332226 -0.854466 -0.406353 -0.301130 
0.488197 -0.847768 0.451352 0.769694 -0.087925 -0.534546 
-0.452853 -1.073581 0.266678 0.640265 -0.307146 0.640553 
-0.661581 -0.545249 1.386343 -0.926095 -0.323471 -0.025609 
0.534108 0.162838 0.496639 -0.817770 -0.166733 0.494113 
-0.009549 0.540098 0.370504 -0.052211 -0.164964 0.981982 
-0.131044 0.846991 -0.174660 -0.493376 0.454903 -0.728922 
-0.630035 -0.643449 1.309636 0.948987 0.269802 -0.028813 
-0.828495 -0.107361 1.582210 0.916591 0.285538 0.248926 
1.180133 0.517576 2.674142 0.978696 -0.059673 0.086564 
-1.294473 0.554536 2.182883 -0.931569 -0.189706 -0.293590 
-1.115053 -0.013842 2.102522 0.757895 0.346609 0.492160 
-0.716746 0.359817 0.782266 -0.951124 -0.209971 -0.199084 
-0.547585 -0.750594 0.569138 -0.860664 -0.090685 -0.374750 
-0.035685 0.884603 -0.198607 -0.436104 0.417572 -0.785132 
1.004119 -0.165381 2.025705 0.899573 -0.405589 0.087951 
-1.405466 0.473009 2.555863 0.903633 0.248879 0.262373 
-0.741043 0.074699 1.124488 0.912462 0.065897 0.326653 
-1.261881 0.200842 2.260625 0.884330 0.261581 0.376730 
0.933038 -0.202360 1.796632 -0.900519 0.327321 -0.170728 
0.700444 -0.539728 1.001992 0.964764 -0.160506 -0.127071 
1.009053 0.737522 1.871795 -0.853940 -0.297334 0.317705 
0.080479 1.216162 0.290800 -0.102332 0.754233 0.611483 
-0.748038 0.242668 1.116550 0.895161 -0.008611 0.372336 
0.625356 -0.616090 1.858865 -0.801472 0.558484 -0.096458 
0.211929 0.886438 -0.106557 0.615721 0.440654 -0.642198 
0.140283 -0.503250 0.164114 0.204050 -0.192634 0.958465 
0.245648 1.066704 0.192163 0.901138 0.403858 0.099043 
-0.037805 0.143691 -0.386459 -0.474914 -0.026158 -0.869557 
-0.778405 0.049587 1.321840 0.906164 0.141024 0.311642 
-0.117578 -0.414505 -0.244342 -0.375148 -0.363463 -0.842974 
-0.437134 -0.610211 0.283846 0.544837 0.037858 0.707448 
-1.009052 -0.312346 2.215033 -0.867347 -0.462611 -0.169141 
0.710804 0.293655 0.999017 -0.872333 -0.144778 0.414983 
0.949595 -0.176878 2.661282 0.843092 -0.518301 0.074376 
-0.847461 -0.361092 1.997997 0.578181 0.462329 0.631420 
-0.583034 0.216717 0.381608 -0.924611 -0.115701 -0.344890 
0.416235 -0.785212 0.329046 0.715751 -0.150187 -0.603605 
-0.622297 0.363469 0.714636 0.895604 0.176665 0.336938 
0.667097 -0.570925 1.819632 0.771563 -0.594852 -0.086071 
0.700226 -0.523691 1.769790 -0.818562 0.516763 -0.179699 
0.666249 -0.740984 1.240655 -0.925319 0.296723 -0.034525 
0.210938 1.147598 0.166429 0.870622 0.482907 -0.021659 
0.972287 0.904506 1.599214 0.940437 -0.170607 -0.147124 
-1.302428 0.144973 3.086780 0.877549 0.451171 0.006188 
0.435734 -0.169106 0.141710 -0.455970 -0.093340 0.816879 
-0.754802 -0.226498 1.320060 0.933092 0.241065 0.221145 
-0.582281 -0.119830 0.421847 -0.928828 -0.102757 -0.331958 
-1.165712 -0.137302 2.944830 0.907868 0.387566 -0.030792 
0.790318 -0.391323 1.234796 -0.959685 0.180170 0.158752 
0.179390 -0.813882 -0.016837 0.228201 -0.318783 -0.915768 
-1.239445 0.665079 2.140133 0.813942 0.144906 0.493548 
-0.543652 -0.643428 1.760013 0.830109 0.534565 0.071499 
0.718906 -0.520715 2.057829 -0.748922 0.551713 0.235189 
-0.910004 0.680828 1.336720 -0.904472 -0.369761 -0.191988 
0.489379 0.474874 0.005355 0.875895 0.131396 -0.384238 
-0.949449 0.821319 1.343428 -0.808268 0.194814 -0.421646 
-1.480792 0.712852 2.525452 -0.950043 -0.120614 -0.283509 
-0.815500 0.593244 1.219539 0.875994 -0.153419 0.429415 
-0.134780 -0.466370 -0.198119 -0.284512 -0.447078 -0.834901 
-1.266520 0.050447 2.446841 -0.828364 -0.467813 -0.280006 
0.587003 0.438541 0.289294 0.954046 0.120371 -0.238912 
0.577012 -0.301306 0.528544 0.909199 -0.086408 -0.373451 
0.052863 0.685958 0.351065 0.068788 0.076968 0.987466 
-1.161766 0.933463 1.948495 0.830961 0.191027 0.491861 
-1.252186 0.417739 2.152448 -0.813326 -0.316483 -0.454911 
-1.082957 -0.076721 2.089934 0.694400 0.377182 0.541315 
0.314119 0.468640 -0.234940 0.599791 0.077966 -0.789940 
-0.512571 0.127179 0.389126 0.751217 -0.152835 0.562212 
-1.431352 0.460950 3.148974 0.961042 0.204340 -0.090596 
0.615999 -0.167268 0.592728 0.939456 -0.062778 -0.332567 
1.140651 0.158636 2.416721 0.913727 -0.356449 -0.124227 
0.126732 -1.344860 0.160324 -0.799507 -0.308798 0.293602 
-0.916892 -0.113391 1.802492 0.938710 0.294567 0.086371 
0.834521 0.251634 1.335450 -0.892476 -0.040175 0.326582 
0.904197 -0.151646 1.496165 -0.942184 0.221738 0.203463 
-1.080442 -0.342591 2.756301 0.866760 0.465760 0.101226 
0.057376 -0.319763 -0.286111 0.350070 -0.328446 -0.858014 
-0.293006 0.162785 -0.238980 -0.606199 -0.072895 -0.781320 
-0.623816 -0.696899 2.035762 0.791301 0.529678 0.247066 
0.320710 0.126602 0.169184 0.352583 -0.198976 0.910328 
-0.144249 -0.395166 0.193860 -0.190147 -0.160313 0.966418 
0.184015 -0.075616 0.218476 0.325547 -0.162025 0.913058 
-1.489338 0.495865 2.872616 -0.950546 -0.303563 -0.024348 
0.972242 0.839493 1.827659 -0.920061 -0.169554 0.302081 
-0.057026 -0.006085 0.245500 -0.136451 -0.169162 0.971969 
0.199144 0.552590 0.324441 0.264248 -0.157888 0.946456 
0.880634 0.230698 1.459694 -0.903937 -0.005780 0.287505 
-0.789763 0.540631 1.154757 0.876583 -0.142055 0.429636 
0.375439 -0.069012 0.101909 -0.077575 -0.134023 0.906951 
-0.872397 0.274059 1.459498 -0.905042 -0.360049 -0.215560 
0.580491 -0.357605 0.589195 0.887355 -0.086698 -0.390005 
-0.031740 0.303653 0.320550 -0.069930 -0.234799 0.963434 
-0.508469 0.054699 0.368392 0.719103 -0.127445 0.579849 
0.541413 0.036268 0.307169 0.915949 -0.072911 -0.385035 
-0.233164 -0.353341 -0.213283 -0.489534 -0.269540 -0.820807 
-0.343329 -0.626642 0.001202 -0.754256 -0.188151 -0.601310 
0.729680 -0.563641 2.326954 0.808572 -0.581341 0.029599 
0.440004 -0.605837 0.323672 0.765279 -0.149338 -0.550339 
0.931309 -0.277584 2.178794 -0.785541 0.462099 0.261460 
-0.714604 0.365195 0.913937 0.891455 -0.127164 0.413869 
-0.485004 0.219584 0.325069 0.705457 -0.205766 0.629229 
1.123953 0.523715 2.229915 0.910354 -0.324840 -0.226926 
1.016239 0.757922 2.128147 -0.892443 -0.032602 0.220492 
0.621589 0.438273 0.653089 0.863814 0.321655 -0.344366 
-0.739587 -0.358756 1.472588 0.928581 0.300590 0.133919 
0.996905 0.977294 1.713753 0.991461 0.067672 -0.108728 
-0.556549 0.426553 0.185098 -0.928750 0.118213 -0.299093 
0.715276 -0.157089 0.900467 0.947059 -0.126006 -0.270759 
0.834119 0.331395 1.340151 -0.885440 -0.085428 0.340643 
-1.139030 0.354196 1.961576 -0.880142 -0.182876 -0.392256 
0.909051 0.427786 1.551526 -0.892698 -0.103206 0.299628 
-0.748462 0.125978 0.975783 -0.946131 -0.235887 -0.188108 
-1.209993 -0.032122 3.075871 0.877107 0.461936 -0.006989 
-0.243404 -0.550343 -0.112449 0.062401 -0.397640 -0.879108 
0.808037 -0.385732 1.729943 -0.851070 0.445117 -0.212730 
0.679342 -0.610455 0.978150 -0.970231 0.107629 0.127716 
-0.465947 -0.615658 0.367077 -0.784773 -0.167456 -0.505862 
0.641784 0.660756 0.763608 0.924491 0.124931 -0.358508 
-0.814614 -0.219753 1.667475 0.911523 0.352567 0.164696 
0.735181 -0.133087 1.030180 -0.934140 0.065900 0.293501 
-1.098645 -0.264343 3.000311 -0.873445 -0.472448 0.004934 
-0.293873 0.167566 0.194345 -0.320837 -0.200543 0.925425 
1.035701 0.869333 1.919745 0.997714 -0.024050 0.045496 
-0.081171 -0.027699 -0.335744 -0.459986 -0.121079 -0.857588 
-0.798496 0.116371 1.381277 0.900286 0.126962 0.321485 
1.011914 0.152839 1.852451 -0.914030 0.112384 0.335480 
1.025537 0.303395 3.027632 0.901457 -0.220702 0.353237 
-1.315018 0.628074 2.379597 0.861883 0.188525 0.325799 
0.625178 -0.655290 0.691117 -0.875064 -0.049603 0.390003 
0.429825 0.255262 0.209883 -0.631570 -0.227772 0.725416 
0.479153 -0.219890 0.186126 0.884279 -0.114027 -0.437460 
-0.835057 -0.320559 1.892960 0.898918 0.419700 0.027237 
-0.328993 0.801189 0.006445 -0.794397 0.489585 -0.282640 
-0.528587 -1.016228 0.451322 -0.778772 0.227031 -0.469507 
0.760949 -0.595420 1.205260 0.967267 -0.218309 -0.067322 
0.986083 0.155255 2.994944 0.879955 -0.208497 0.409412 
0.160079 0.611203 0.362213 0.359870 -0.149197 0.912759 
-0.839933 -0.276361 1.828130 0.908835 0.399385 0.038800 
-0.693006 0.325132 0.855908 0.894322 -0.133251 0.409851 
-0.743360 0.606042 0.878420 -0.802520 0.282761 -0.515911 
1.089225 0.724708 2.374877 -0.935267 0.039637 0.145457 
0.751239 0.559194 0.927471 0.875039 0.196581 -0.429247 
0.053452 0.342685 -0.371527 0.487661 0.084717 -0.857999 
0.289138 -0.171241 0.163380 0.511027 -0.165264 0.816350 
0.340666 -0.829320 0.177490 0.659846 -0.195053 -0.679485 
-1.047245 0.583138 1.687707 -0.937724 -0.247595 -0.176020 
-1.250041 0.764565 2.061920 -0.952808 -0.161437 -0.245531 
-0.938332 -0.467241 2.312491 -0.834125 -0.501751 -0.207785 
0.798041 -0.257453 1.212208 -0.950473 0.164068 0.219869 
1.115547 0.453124 2.233739 -0.947703 -0.021433 0.212849 
0.575198 -0.221015 0.566530 -0.830849 -0.016071 0.440826 
-1.356892 0.726351 2.377418 0.858385 0.199997 0.385361 
0.077588 -0.930024 0.048540 -0.047344 -0.219032 0.913575 
-1.460550 0.408947 2.796823 0.933883 0.327558 0.093076 
-1.282139 0.891750 2.115940 -0.902985 0.173880 -0.271481 
-0.705470 -0.407240 1.735650 0.881768 0.444750 0.059560 
-0.673693 -0.871416 0.855330 -0.984801 0.015698 -0.168154 
-0.812552 0.248459 1.249671 -0.927183 -0.321982 -0.177152 
-0.590129 0.060458 0.584946 0.871144 -0.099606 0.413950 
-0.151381 0.702102 -0.241045 -0.408967 0.374224 -0.816087 
-0.759559 0.470805 1.082473 0.877712 -0.123731 0.427919 
-1.106079 -0.281347 2.810171 0.879057 0.442111 0.062485 
0.550833 0.505377 0.508333 -0.864180 0.310317 0.351158 
-0.492884 -0.765250 0.462618 -0.808481 -0.125542 -0.455964 
0.728998 0.155542 0.929715 0.953757 -0.170404 -0.221236 
-1.355440 0.248219 3.123457 -0.923439 -0.367859 0.056576 
0.839959 -0.347938 1.679509 0.828805 -0.475519 -0.160176 
-0.509050 0.319827 0.488370 0.834481 -0.085585 0.504975 
-1.521636 0.600967 2.980353 -0.963257 -0.261524 0.024731 
-0.555035 0.245515 0.518230 0.815792 -0.189055 0.508174 
-0.611966 -0.845165 0.719834 -0.924505 -0.029297 -0.268178 
-0.413889 0.652055 -0.069424 -0.700633 0.426521 -0.466281 
-1.433589 0.356862 2.745554 0.901278 0.384278 0.129245 
0.956210 -0.104265 1.711333 -0.943829 0.201397 -0.046448 
-0.837778 0.449272 1.363288 0.885729 -0.046288 0.382897 
-0.512775 -0.733388 1.839059 -0.787245 -0.572511 -0.158224 
0.918402 0.748033 1.460957 0.937679 -0.272791 -0.211812 
1.098698 0.452830 2.164104 -0.939496 -0.046825 0.231903 
1.160766 0.630485 2.396053 0.997506 0.016561 0.009360 
0.253380 -0.834635 0.104478 0.060697 0.002442 0.924921 
-0.662071 -0.764878 0.887421 -0.978191 -0.041941 -0.136909 
-0.489810 -0.833890 0.479237 0.701111 0.017840 0.537910 
-1.331570 0.194641 3.036171 0.878177 0.445641 0.027873 
0.359098 0.782406 0.071860 0.865646 0.463954 -0.082549 
0.128924 0.647200 -0.271380 0.419566 0.312843 -0.840159 
-0.682766 -0.392697 1.156133 0.950530 0.198583 0.128281 
-1.235557 0.167188 2.196270 -0.853338 -0.301307 -0.404163 
-0.307462 -0.672636 -0.038599 -0.666830 -0.221407 -0.685533 
-0.243227 0.308028 0.265215 -0.296163 -0.191600 0.932884 
0.251202 1.179883 0.476893 0.666119 0.145294 -0.725488 
0.598628 0.330292 0.390018 0.954369 0.017432 -0.258555 
0.876871 -0.127363 2.935245 -0.868239 0.329553 -0.334254 
-0.462429 0.133206 0.252737 0.628541 -0.183979 0.691402 
-0.001342 -0.006818 -0.369883 -0.399774 -0.143669 -0.874084 
-0.301435 -0.955498 0.090187 0.361906 0.049728 0.928770 
-1.111536 0.177020 1.954310 -0.933824 -0.156999 -0.264663 
-0.435533 0.467811 -0.077673 -0.780836 0.122679 -0.527123 
0.546952 -0.294941 0.463256 -0.716626 -0.005487 0.538468 
-0.225048 1.132874 0.447363 -0.241979 -0.554472 0.762344 
-0.730447 -0.408139 1.403630 -0.930918 -0.303092 -0.095220 
-0.508341 -0.425750 0.382498 0.637367 0.030807 0.593957 
-0.129422 1.125324 0.219322 -0.863349 -0.031334 0.395336 
-0.764499 0.317693 1.170416 0.886423 -0.025178 0.387979 
0.710179 -0.512039 1.614370 0.794998 -0.547654 -0.019494 
1.157027 0.641061 2.745785 -0.964397 0.092920 -0.058396 
0.510434 -0.000175 0.218522 0.902692 -0.081464 -0.412202 
-0.675543 -0.741472 2.213943 0.769681 0.543150 0.327645 
0.056207 -0.478098 -0.205890 0.170822 -0.545847 -0.806682 
-1.065935 -0.185547 2.195695 0.722648 0.410586 0.465205 
-0.648897 -0.450184 0.977557 -0.958435 -0.187514 -0.089771 
1.190249 0.614568 2.524370 0.999477 0.010699 -0.010734 
-0.486899 0.134408 0.320562 0.694646 -0.168759 0.623583 
0.738058 0.684266 1.059193 -0.888430 0.343665 0.098830 
-1.354631 0.321089 2.431467 -0.776219 -0.453931 -0.416271 
1.089233 0.557924 2.500321 -0.929876 0.058831 -0.002677 
-1.332465 0.157930 2.821514 -0.951082 -0.286359 0.068573 
0.471774 0.028082 0.294479 -0.648368 -0.138802 0.666125 
-0.196396 -0.214910 -0.253436 -0.497861 -0.198312 -0.829849 
-0.565547 0.076994 0.331729 -0.921390 -0.094706 -0.356702 
-0.430485 0.375779 0.301904 0.762112 -0.063733 0.590122 
-0.264672 0.933842 0.013040 -0.798364 0.362802 -0.389637 
0.114438 -0.775605 0.095287 0.002686 -0.193186 0.923923 
-0.081347 -0.330191 -0.274879 -0.370095 -0.323594 -0.851868 
1.154302 0.445642 2.791290 0.955625 -0.133106 0.204014 
-0.614361 0.619335 0.623899 0.923588 0.043030 0.376611 
-1.400790 0.298867 2.667745 -0.963614 -0.238420 -0.003413 
-1.129303 -0.201296 3.015080 -0.867941 -0.478624 0.000555 
1.082182 0.113622 2.019794 0.973312 -0.109295 0.013819 
1.146512 0.800140 2.435112 0.988308 0.125819 0.004308 
-0.254465 1.032133 0.213773 -0.889576 0.400460 0.181720 
-1.087690 -0.017180 2.022305 -0.912231 -0.311085 -0.211206 
-0.198250 -0.271277 0.188643 -0.338647 -0.121930 0.906199 
-1.109537 -0.114892 2.197880 0.769698 0.386465 0.431978 
1.097058 0.152292 2.092960 0.969439 -0.104390 -0.099559 
0.645020 0.468119 0.716441 0.844531 0.336952 -0.379597 
1.090610 0.086142 2.150486 -0.947742 0.204930 0.175621 
0.010725 1.206760 -0.039262 0.457947 0.265057 -0.824396 
-0.948781 -0.029169 1.743838 -0.740071 -0.335049 -0.526519 
1.082827 0.738372 2.092037 0.994805 0.016563 0.052539 
0.934658 0.839699 1.436645 0.905710 0.148321 -0.390439 
0.794037 0.383280 1.110918 0.955528 -0.237114 -0.172009 
0.110396 -0.115508 0.228377 0.188485 -0.140849 0.967742 
-0.461047 -0.956531 0.441666 -0.781903 -0.111864 -0.485503 
-0.366612 -0.407135 0.063458 -0.223182 -0.086573 0.854710 
0.529331 -0.058166 0.293536 0.908485 -0.080705 -0.398258 
1.149349 0.579166 2.707248 -0.966274 0.123199 -0.053244 
-1.436642 0.399134 2.978828 0.948466 0.285314 0.005367 
0.276510 -0.748351 0.101789 0.133616 -0.072063 0.899202 
-0.072077 -0.631371 -0.100871 -0.104597 -0.357101 -0.918144 
0.680027 0.018579 0.792196 0.951763 -0.117764 -0.262580 
0.789841 -0.453740 2.082917 0.830707 -0.534467 0.078944 
0.539014 0.068522 0.502511 -0.823298 -0.128700 0.486603 
0.888563 -0.284902 1.693910 0.845868 -0.441579 -0.209114 
-0.353237 -1.097009 0.145706 -0.600942 0.085613 -0.717466 
1.012189 -0.120824 2.538815 0.863049 -0.493287 0.012348 
-1.093446 0.544426 1.837620 -0.866058 -0.298864 -0.315995 
0.895933 -0.032666 3.006121 0.861037 -0.288191 0.389238 
-1.087660 0.777830 1.810566 0.782783 -0.192916 0.531644 
0.980822 -0.160965 2.599738 0.844923 -0.530360 0.034844 
0.415551 -0.706339 0.336623 -0.581130 0.035444 0.694952 
-0.791581 -0.200351 1.418586 -0.918725 -0.304686 -0.224359 
-0.906818 0.877854 1.335065 -0.546670 0.520978 -0.540064 
0.557964 0.489369 0.339100 0.888038 0.367313 -0.217162 
0.983641 -0.183072 2.519325 0.860111 -0.497805 0.020943 
0.988006 0.278653 1.650001 0.901046 -0.240287 -0.320734 
0.415565 -0.627624 0.244870 -0.491723 0.019586 0.767301 
0.382689 -0.570966 0.029969 -0.279833 -0.002568 0.950734 
0.062787 -0.247496 -0.298629 0.376306 -0.277328 -0.858296 
-0.502073 0.603994 0.276170 -0.873007 0.448419 -0.106317 
-0.951013 0.855576 1.567421 0.873683 -0.204187 0.424662 
0.583400 0.193741 0.445023 0.938003 -0.122740 -0.304650 
-0.163566 -0.327201 -0.244641 -0.439401 -0.283920 -0.835338 
-0.513821 0.090575 0.165979 -0.901917 -0.083051 -0.407185 
0.151440 -1.143376 0.123501 -0.502032 0.106102 0.749818 
0.941684 -0.254678 1.925465 0.872873 -0.458893 0.162041 
1.136990 0.687837 2.826909 -0.940684 0.225143 -0.071082 
-0.311581 0.780477 -0.066799 -0.680024 0.531358 -0.440720 
0.656738 -0.577229 1.719075 -0.807738 0.539969 -0.170691 
1.006163 0.697589 1.782497 0.937812 -0.263300 -0.075238 
0.334623 0.589618 0.251911 0.421008 -0.102059 0.829419 
0.377025 -0.294502 0.054159 0.020132 -0.080407 0.923913 
-1.035226 -0.131620 2.055073 0.625825 0.398107 0.606671 
-0.442774 -0.230977 0.066338 -0.869671 -0.135271 -0.458501 
-0.231252 -0.741667 0.092887 -0.032109 -0.096057 0.853675 
0.855784 0.683725 1.424851 -0.859260 -0.273855 0.384724 
0.851522 0.378009 3.345857 -0.844504 0.104643 -0.502243 
-0.746787 0.366890 1.077866 0.883851 -0.074418 0.407490 
1.115137 0.720566 2.221282 0.997915 -0.001678 0.019577 
-1.311990 0.446792 2.276485 0.888075 0.135922 0.403146 
-0.766764 -0.281332 1.461501 0.929384 0.285946 0.177905 
-0.091297 -0.851291 0.070446 -0.003071 -0.219699 0.929383 
0.730908 0.389121 0.927351 0.958944 -0.197131 -0.188051 
0.880731 -0.242933 1.398074 0.944354 -0.254108 -0.184706 
0.469578 -1.080492 0.270616 -0.627802 -0.332623 0.662710 
0.074421 -0.025759 0.241913 0.155387 -0.163273 0.969548 
-0.988493 0.445334 1.762367 0.846263 0.086285 0.449999 
-0.981154 -0.405676 2.301509 -0.849593 -0.488034 -0.184516 
-1.365513 0.255653 3.020396 0.903214 0.397397 0.022401 
1.129496 0.489119 2.317448 -0.904214 0.226279 0.306241 
1.097106 0.033896 2.201246 -0.946605 0.266503 0.127037 
-0.525171 0.256124 0.174708 -0.904907 -0.080360 -0.401708 
0.173399 -0.256929 0.200161 0.275177 -0.113531 0.939818 
-1.253473 0.006403 2.803800 -0.821808 -0.527906 -0.137646 
-1.235633 0.691192 2.057446 -0.966323 -0.118622 -0.214337 
0.760629 -0.303385 1.072043 0.949684 -0.168428 -0.216218 
0.980583 0.783730 1.766891 -0.833238 -0.359068 0.347359 
0.903869 -0.305336 2.576266 -0.861192 0.438137 -0.140750 
0.781045 -0.151861 1.091213 0.945736 -0.177384 -0.239955 
-0.422329 -0.970172 0.367349 -0.745207 -0.136627 -0.542442 
-0.044371 -1.082175 -0.027285 -0.319977 -0.056968 -0.944456 
-0.607732 0.055341 0.474303 -0.936698 -0.109594 -0.314800 
-0.259332 0.054494 0.195490 -0.349694 -0.191206 0.904997 
-0.457431 -0.106123 0.203479 0.514934 -0.104509 0.752768 
0.746866 -0.485521 1.958016 0.818497 -0.557562 0.001998 
0.444493 0.106783 0.225371 -0.606128 -0.175212 0.722247 
0.853175 0.600383 1.275961 0.946814 -0.253638 -0.192503 
-0.733897 -0.495135 1.951852 0.849674 0.471307 0.125058 
-1.189219 0.722777 2.013958 0.786751 0.113482 0.563989 
1.004371 -0.144656 2.098730 -0.812072 0.395835 0.313066 
1.061490 0.454335 1.962428 0.959488 -0.106909 -0.171422 
-1.454631 0.570490 3.282533 -0.963937 -0.131569 0.131227 
0.261261 0.988906 0.249496 0.856820 0.137721 0.396814 
-0.627213 0.098329 0.536857 -0.942653 -0.121751 -0.297430 
1.120283 0.128160 2.485243 -0.941911 0.195648 -0.112362 
-0.426680 -0.893426 0.361968 0.601667 0.031225 0.657662 
0.892657 0.151761 1.405282 0.944078 -0.270667 -0.184886 
-1.073746 1.022556 1.720265 0.514753 0.672773 0.509162 
0.924347 0.980384 1.689705 -0.959202 0.030068 0.220765 
-0.752380 0.280570 0.917137 -0.950277 -0.244794 -0.162011 
0.603496 0.165892 0.519690 0.945212 -0.125520 -0.285469 
0.139356 0.903485 0.365792 0.252295 -0.165599 0.951222 
0.893125 -0.214453 1.465298 -0.949456 0.237689 0.190926 
-0.087478 -0.352400 0.202769 -0.134659 -0.076417 0.984744 
0.255026 -0.251163 0.170615 0.479347 -0.144903 0.831021 
0.903464 0.667354 1.553702 -0.870650 -0.241272 0.345229 
-0.463664 0.059811 0.245283 0.601122 -0.157839 0.702577 
0.851149 -0.136237 1.294188 0.944552 -0.233234 -0.205730 
0.017290 -0.862032 -0.054441 0.388062 -0.160607 -0.881160 
-0.776096 0.311678 1.036500 -0.942899 -0.281010 -0.156507 
0.401795 -0.573568 0.119490 -0.368508 0.004196 0.872023 
0.908185 -0.330663 2.507626 -0.862641 0.458052 -0.092504 
0.679663 -0.367476 0.862822 0.954682 -0.114633 -0.225577 
0.265623 0.248648 0.234440 0.321790 -0.196499 0.924908 
1.059693 0.722116 2.292559 -0.917360 0.013671 0.157250 
-0.043360 0.223581 -0.393511 -0.492515 0.007926 -0.865317 
0.186378 -0.670256 0.113520 0.115528 -0.161488 0.903994 
0.138445 -0.433936 0.185663 0.175150 -0.177745 0.967601 
1.057751 0.646512 2.322934 -0.913975 0.015201 0.107636 
0.862495 -0.422099 2.379919 0.839756 -0.533011 0.085045 
-0.311267 -0.417604 0.125875 -0.595523 -0.149318 0.777858 
0.496605 -0.218857 0.321597 -0.607301 -0.051197 0.659638 
0.431271 -0.319172 0.097145 -0.375155 -0.048674 0.867511 
0.763627 -0.445646 1.848808 -0.834388 0.482983 -0.190878 
0.544348 0.539328 0.094360 0.939863 0.209590 -0.258065 
0.281960 -1.087176 0.111280 0.527780 -0.133566 -0.784032 
1.177024 0.402599 2.524963 -0.981647 0.065750 0.089268 
-0.377861 -1.017226 0.241724 -0.680220 -0.063672 -0.635978 
-1.353211 0.454959 3.614930 -0.931986 -0.317330 0.171885 
0.717518 0.315076 0.890987 0.957580 -0.178781 -0.204418 
1.153664 0.702614 2.411817 0.998759 0.012707 0.013877 
-1.494278 0.571112 3.078264 -0.958085 -0.271292 0.049977 
-0.560757 0.228742 0.306284 -0.916516 -0.107899 -0.367040 
0.554896 -0.704569 1.780096 0.765325 -0.622448 0.019503 
0.794497 -0.013547 1.204478 -0.918729 0.065096 0.294461 
0.798626 -0.484320 1.288927 -0.966372 0.202989 0.109123 
-0.804012 0.484344 1.230139 0.880875 -0.095628 0.408633 
0.855819 -0.100432 3.023888 0.853817 -0.327579 0.375685 
1.035714 0.675675 1.898988 0.929580 -0.281285 -0.134311 
0.905308 -0.129340 2.851542 -0.872525 0.328919 -0.303919 
-0.472224 0.392348 -0.026125 -0.869763 0.064902 -0.427259 
-0.815366 -0.386457 1.934427 -0.685815 -0.525760 -0.470871 
-0.411536 -0.625258 0.208197 -0.769621 -0.176989 -0.549501 
-0.069861 0.056789 -0.356968 -0.475722 -0.069674 -0.861457 
0.499035 -0.497859 0.432414 0.817903 -0.122980 -0.481859 
-0.187933 -1.103952 0.118683 0.338507 0.145013 0.906695 
-0.832055 -0.548323 2.234609 0.725513 0.503659 0.393105 
-0.831222 0.744250 1.191625 0.784590 0.482840 0.010077 
0.849208 -0.423459 2.544339 0.833876 -0.538325 0.088991 
-0.055729 0.606538 -0.303428 -0.381025 0.274959 -0.869998 
0.297789 -0.789279 0.006388 0.651494 -0.215585 -0.703026 
-0.587510 -0.778050 0.655526 -0.899578 -0.058296 -0.311725 
-1.114685 -0.280109 2.714292 0.880676 0.428491 0.088011 
1.105686 0.632029 2.126620 0.994376 -0.061602 -0.042358 
0.720949 0.642689 1.119794 -0.929630 0.153516 0.223238 
-0.739395 -0.203935 1.204488 0.937394 0.205315 0.242635 
0.751722 -0.456485 1.147852 -0.963439 0.158366 0.147276 
0.077504 0.717195 -0.255729 0.344111 0.401907 -0.836533 
-1.171224 -0.183388 2.646714 -0.826244 -0.521855 -0.178094 
-0.023698 1.148801 -0.063640 -0.370041 0.349169 -0.851819 
-0.653608 -0.419208 1.584820 0.882026 0.413749 0.135708 
0.201885 0.139912 -0.290036 0.560594 -0.061338 -0.810778 
0.681143 -0.645301 0.916244 -0.961407 0.045413 0.189505 
-0.424698 -0.088443 -0.027947 -0.863261 -0.118361 -0.482674 
0.792175 -0.340952 2.836457 0.832431 -0.482739 0.225400 
0.794723 -0.460729 2.156229 0.829720 -0.539342 0.074530 
-0.489285 -0.397374 0.285558 0.530357 0.013140 0.687211 
0.512902 0.570032 0.392777 -0.825948 0.366876 0.407749 
-0.586817 -0.475243 0.585557 -0.892347 -0.113914 -0.342522 
-0.582899 0.629827 0.549525 -0.896279 0.177581 -0.333183 
-0.856261 0.463393 1.275020 -0.917714 -0.342647 -0.181241 
1.060683 -0.003610 2.609510 0.860258 -0.503227 0.002690 
0.661874 -0.178116 0.823507 -0.938478 0.021352 0.318619 
0.695497 -0.713259 0.941689 0.962345 -0.080436 -0.165503 
0.930752 0.273271 1.594073 -0.916817 -0.023764 0.215312 
0.009878 -0.965125 0.051730 0.523151 -0.182075 0.816661 
-1.151357 -0.211375 2.710355 -0.836249 -0.511299 -0.142724 
-0.809447 -0.295209 1.760135 -0.757462 -0.471449 -0.370233 
-0.781001 0.396896 1.019880 -0.944201 -0.290043 -0.142090 
-0.361350 0.456863 0.231716 0.457607 -0.023136 0.715273 
0.670364 -0.595345 2.142573 -0.776980 0.576014 0.111011 
0.010071 -0.266084 0.215422 0.077279 -0.087168 0.991428 
0.640646 0.082893 0.786762 -0.904720 -0.107759 0.385108 
-0.093710 1.296906 0.104717 -0.679220 0.637188 0.147401 
1.078379 0.444135 2.077857 -0.930821 -0.074081 0.255334 
-1.098814 0.939877 1.820070 0.739069 0.047343 0.644597 
-0.343277 0.272648 -0.210052 -0.670976 -0.041417 -0.728286 
0.295321 -0.890935 0.075161 0.628039 -0.214605 -0.724988 
0.917290 0.655570 1.460701 0.938302 -0.273373 -0.208255 
-0.647702 -0.201900 0.719667 0.959882 0.052278 0.268851 
0.120900 0.208666 -0.345758 0.531569 -0.015460 -0.836495 
-0.534073 0.053798 0.438983 0.786968 -0.110902 0.509667 
0.240510 0.482760 0.289625 0.225379 -0.169451 0.953533 
0.962403 0.537292 1.744841 -0.847604 -0.049128 0.462767 
0.445951 0.454076 -0.060982 0.809747 0.097104 -0.493634 
0.501559 -0.768983 1.929566 0.759968 -0.642633 -0.016461 
1.144380 0.431593 2.663205 -0.960067 0.099164 -0.070230 
-0.658041 -0.515945 0.830119 -0.969543 -0.092763 -0.162117 
0.948557 0.608372 1.714881 -0.864892 -0.106362 0.356976 
-1.370181 0.285598 2.509572 -0.873353 -0.368648 -0.255708 
-0.637418 -0.623811 1.228196 0.960261 0.229882 -0.020190 
-1.177782 0.633696 1.999746 0.825918 -0.054194 0.480428 
-0.054126 0.515318 -0.336289 -0.443544 0.210536 -0.864294 
-1.226994 -0.049373 2.529417 0.919778 0.307394 0.086378 
-0.779184 0.385910 1.189706 0.884021 -0.055237 0.397191 
0.483111 0.223989 0.081545 0.898502 -0.086673 -0.420698 
0.499734 -0.155250 0.230673 0.894160 -0.100528 -0.421393 
-0.166727 -0.957112 0.026853 -0.245413 -0.235108 -0.931010 
0.497102 0.450891 0.441558 -0.850436 0.340936 0.378337 
0.883082 0.426348 1.480595 -0.887396 -0.115103 0.319353 
-0.982515 -0.214088 2.007244 -0.885089 -0.434142 -0.151672 
0.885754 -0.301282 1.946966 -0.698889 0.481396 0.491612 
0.877267 0.329728 3.297376 0.853599 -0.197502 0.467357 
1.040230 0.927561 2.041755 -0.808021 0.442656 0.271910 
-0.982474 0.753845 1.681446 0.709204 0.020206 0.684228 
-1.419455 0.480594 3.304896 -0.942668 -0.303632 0.101679 
0.902007 -0.351195 2.363026 -0.834462 0.487831 0.064406 
1.029509 -0.072187 2.072295 -0.843006 0.341902 0.309257 
0.976061 0.227851 1.697959 -0.948782 -0.031883 0.048439 
-0.351847 -0.122379 0.107542 -0.197749 -0.135669 0.911453 
0.576501 -0.695809 1.459463 0.796320 -0.560479 0.143658 
-0.516816 -0.055468 0.219220 -0.902000 -0.102331 -0.397113 
0.063396 0.272768 -0.382391 0.508406 0.028165 -0.854590 
-0.616104 -0.069347 0.510061 -0.942265 -0.100546 -0.301985 
1.015808 0.875805 1.998109 -0.896443 -0.056980 0.357250 
-0.680162 0.047915 0.706494 -0.956837 -0.147481 -0.237643 
-1.356801 0.662284 2.435866 0.871953 0.206578 0.319890 
0.388450 -0.026299 -0.099827 0.777168 -0.150136 -0.561145 
-1.027065 0.343043 1.730625 -0.723782 -0.311059 -0.567046 
-1.102200 0.105265 1.960143 -0.949838 -0.199836 -0.191029 
0.692599 0.321336 0.809447 0.959626 -0.176623 -0.207361 
0.179621 -0.584567 0.128087 0.270359 -0.206053 0.938466 
0.100568 0.574304 0.370675 0.241306 -0.154207 0.948651 
0.587434 -0.060458 0.480935 0.931389 -0.072550 -0.347267 
1.009014 0.654017 1.683198 0.956537 -0.111517 -0.044101 
-0.135683 1.077871 -0.052969 -0.506254 0.406796 -0.743114 
-0.131723 -0.193306 -0.283497 -0.452758 -0.208833 -0.844278 
-0.249133 -0.724345 -0.042407 0.018714 -0.359286 -0.887399 
0.380124 -0.376084 -0.073226 0.841063 -0.163628 -0.513703 
0.827077 0.088081 3.262619 0.837463 -0.299187 0.452361 
-0.101877 0.663140 0.357152 -0.099677 0.126965 0.979334 
0.067822 -1.083028 -0.028210 0.359882 -0.055590 -0.928307 
-0.547252 -0.182713 0.440451 0.723675 -0.020662 0.519920 
0.760041 0.257344 3.441164 0.824838 -0.225445 0.510622 
-0.572824 -0.644346 1.442258 0.902910 0.378235 0.003627 
-0.679508 0.396367 0.833835 0.883031 -0.169857 0.436371 
-1.273774 0.089919 3.135131 -0.917502 -0.376628 0.089504 
1.004450 -0.159477 2.210777 -0.856004 0.395143 0.183123 
-0.936527 -0.199602 1.942956 0.522006 0.423446 0.722786 
-0.900889 -0.191372 1.800523 -0.730390 -0.447058 -0.470392 
-0.316988 0.090476 0.170101 -0.360996 -0.195821 0.903351 
0.122843 -0.706796 0.123270 0.047591 -0.168335 0.912195 
0.159288 1.231858 0.251840 0.252444 0.854094 0.165847 
0.786469 0.603980 1.230008 -0.851726 -0.262731 0.424288 
0.736636 0.350019 1.075291 -0.865005 -0.147037 0.416503 
1.079436 0.361083 2.059545 -0.943494 -0.038994 0.258657 
-1.100219 0.291343 1.942222 0.793952 0.137209 0.559966 
-0.923994 0.637159 1.418134 -0.897600 -0.380466 -0.207030 
-0.379500 -0.284618 0.047941 0.050471 -0.074741 0.953120 
-0.657830 -0.365977 0.982650 0.957397 0.145217 0.156091 
-0.767286 -0.287118 1.672473 0.899956 0.383046 0.140026 
0.979910 -0.214144 2.134475 0.889253 -0.428322 0.074301 
-0.505779 0.419380 0.036448 -0.907927 0.104284 -0.353166 
1.055993 0.053113 1.841383 0.972772 -0.168706 -0.018585 
0.704000 -0.535216 1.990108 0.812302 -0.560244 0.048403 
-0.691263 -0.689973 2.163523 -0.774087 -0.546827 -0.300162 
0.821595 -0.473430 2.416576 -0.827959 0.539703 -0.010268 
0.538635 -0.725031 1.982381 0.761465 -0.635183 -0.071699 
-0.011674 -0.070210 0.240378 -0.082550 -0.146781 0.983404 
-0.130630 -0.198839 0.216599 -0.204043 -0.121578 0.968643 
-0.850817 0.822103 1.192594 0.770723 0.441750 0.059511 
-0.140445 0.559032 0.366011 -0.316269 -0.156682 0.934386 
0.267238 -0.135427 -0.220697 0.542940 -0.184340 -0.802802 
0.704305 0.397668 0.826805 0.963858 -0.171278 -0.189636 
-0.179887 -0.506325 -0.154546 -0.190518 -0.468009 -0.836432 
-1.023226 0.561177 1.760256 0.737721 -0.058878 0.603541 
-0.210779 0.796053 -0.162036 -0.535845 0.493238 -0.670193 
-1.022439 -0.350619 2.320389 0.733804 0.461528 0.390652 
-0.043954 0.882030 0.377595 -0.175739 -0.128123 0.965020 
-0.627120 -0.652299 1.968456 0.808693 0.520690 0.192548 
0.978046 -0.032385 1.724342 -0.962264 0.128585 -0.054672 
0.759819 0.154415 1.019223 0.953057 -0.194094 -0.207295 
-0.692413 0.543150 0.920902 0.944313 0.177092 0.265391 
1.191761 0.481579 2.504293 0.990741 0.088391 0.051503 
-1.057039 0.817694 1.712021 -0.827750 -0.445701 -0.281990 
-0.009795 -0.149513 0.230463 -0.077666 -0.122239 0.987099 
-0.570608 -0.736759 1.311355 -0.928961 -0.326466 0.076685 
-0.446703 -0.371228 0.134567 0.375176 -0.019797 0.835079 
-0.076350 0.594260 0.374913 -0.195005 -0.149756 0.958474 
0.368889 -0.403884 0.065289 0.245044 -0.087504 0.842380 
0.353119 0.434807 0.215851 -0.053351 -0.184214 0.919552 
-0.770011 0.204440 1.057920 -0.941229 -0.269776 -0.174647 
0.823487 -0.205238 2.967652 0.836307 -0.458803 0.254683 
1.143664 0.216473 2.633324 0.884541 -0.421811 -0.050866 
-0.278568 -0.263461 -0.199346 -0.530703 -0.236060 -0.803341 
0.323642 -0.502323 0.072665 0.267604 -0.112689 0.881409 
-0.585081 -0.131569 0.552604 0.846507 -0.014156 0.405280 
-0.495219 -0.289976 0.230954 -0.891104 -0.136613 -0.405934 
1.063857 -0.060190 2.320519 -0.929603 0.328793 0.029392 
1.013549 0.574409 1.698076 0.927375 -0.124627 -0.152016 
-0.539206 -0.097913 0.294798 -0.911012 -0.105227 -0.373817 
0.417086 -0.555341 0.200010 0.782183 -0.156562 -0.546160 
1.050615 0.189054 2.877650 -0.893375 0.354852 -0.204613 
-0.378902 0.682828 0.199023 -0.483423 0.331994 0.681760 
-0.279331 0.856780 -0.025697 -0.743062 0.452515 -0.418480 
-1.175432 -0.110942 3.011650 -0.857404 -0.490212 -0.017433 
0.208571 -0.585547 -0.104862 -0.022408 -0.415956 -0.883334 
0.814400 -0.088224 1.253199 -0.929995 0.115725 0.265384 
1.101928 -0.026441 2.268323 0.940970 -0.323634 -0.058273 
0.706047 0.441952 0.998468 -0.850961 -0.214721 0.455342 
1.151311 0.293075 2.647467 0.943125 -0.024230 0.270925 
0.548282 0.538019 0.171233 0.924256 0.273590 -0.234205 
1.056513 0.299153 2.963000 0.911223 -0.211426 0.336777 
0.185375 -1.306047 0.136103 0.392182 -0.160286 -0.846275 
-0.649366 0.207279 0.743332 0.904250 -0.127716 0.391060 
-0.926844 0.459381 1.544794 -0.890432 -0.388790 -0.230717 
0.772940 -0.080066 1.065253 0.947521 -0.178883 -0.233730 
-0.008912 0.168287 0.284646 -0.066159 -0.208991 0.973630 
-0.580350 0.320885 0.300416 -0.932147 0.005949 -0.322304 
-0.980917 0.495536 1.694127 0.930883 -0.048883 0.263316 
0.809173 -0.472355 2.340125 -0.809895 0.538735 0.050644 
1.132413 0.725605 2.498421 -0.961350 0.078200 0.124858 
-0.875061 -0.586532 2.374135 0.811232 0.513754 0.264798 
0.508681 0.076974 0.190699 0.904160 -0.074417 -0.413002 
-0.258672 0.402757 -0.259843 -0.583903 0.063385 -0.797061 
0.385844 0.056125 -0.110541 0.752033 -0.143215 -0.585853 
0.925810 -0.300187 2.279222 -0.820506 0.466563 0.148134 
-1.276056 0.815515 2.105994 -0.952849 -0.159235 -0.249731 
1.138429 0.363942 2.836188 -0.946593 0.190851 -0.215690 
0.755585 0.059549 1.103021 -0.907143 -0.001561 0.332636 
-0.543395 0.527861 0.330009 -0.869125 0.417809 -0.192224 
-0.662124 0.305379 0.780521 0.892484 -0.157335 0.415739 
-0.682428 0.607664 0.797526 0.924674 0.222672 0.243933 
0.208287 0.550423 -0.258243 0.501617 0.187649 -0.820491 
-0.195372 -1.273044 0.131367 -0.546907 -0.152391 -0.742805 
0.521415 -0.334566 0.382155 -0.633491 -0.004907 0.614071 
0.202406 -0.315144 -0.233108 0.467902 -0.258703 -0.831864 
-0.853635 0.200767 1.436251 -0.909754 -0.350488 -0.211488 
0.618118 -0.814213 0.672930 -0.835208 -0.065833 0.427768 
-0.922540 0.561499 1.592652 0.890081 -0.053830 0.362291 
-1.155592 0.306547 2.018838 0.841826 0.127707 0.506692 
1.155170 0.609506 2.810272 0.961024 -0.043605 0.190684 
1.107471 0.501376 2.629875 -0.938664 0.090648 -0.089358 
-0.633911 -0.734800 2.118894 -0.734092 -0.563757 -0.368857 
-0.341613 -0.314246 0.114012 -0.490456 -0.137158 0.795602 
0.851121 -0.052161 3.080772 0.849648 -0.316243 0.398311 
-1.373846 0.247640 2.874762 -0.947399 -0.301363 0.047416 
0.193351 0.216974 -0.303648 0.570580 -0.029201 -0.809430 
0.977340 0.507866 3.191355 -0.885729 0.131582 -0.420634 
-0.807880 0.050982 1.444026 0.904643 0.175017 0.300730 
0.410699 -0.484072 0.055399 -0.306727 -0.010933 0.918781 
-0.535822 -0.451005 0.459050 -0.856130 -0.143948 -0.408428 
-0.123018 1.100686 0.373900 0.146411 0.117312 0.915589 
-1.169994 0.026547 2.128203 -0.897026 -0.310117 -0.288113 
0.696011 0.604335 1.057770 -0.950017 0.111995 0.251707 
0.750004 -0.402877 1.085843 0.955825 -0.176846 -0.171060 
-1.097328 -0.288442 2.388016 -0.855849 -0.446532 -0.238418 
-0.975013 0.566256 1.671220 0.919135 -0.078084 0.295868 
-1.393075 0.431647 2.469357 0.889081 0.245217 0.348682 
0.189668 0.951879 0.339224 0.476873 -0.058863 0.827892 
0.565987 0.159469 0.385237 0.929863 -0.108410 -0.332187 
-0.529291 -0.237163 0.309893 -0.905758 -0.125218 -0.376301 
-0.457608 -0.073411 0.059358 -0.877127 -0.112196 -0.452267 
-0.397816 -0.874886 0.296547 -0.719614 -0.170796 -0.588843 
-0.824155 0.532542 1.277592 0.880034 -0.108854 0.410177 
0.949865 0.474479 3.248715 0.840836 0.003226 0.503005 
1.138723 0.310942 2.774299 0.933397 -0.122536 0.310668 
0.649674 0.173612 0.819445 -0.892261 -0.139701 0.403126 
0.011237 -1.122310 0.009003 0.627763 -0.324223 0.638288 
0.716150 -0.373865 1.020504 -0.956907 0.114107 0.206155 
-0.183003 0.078923 0.234754 -0.290311 -0.192703 0.932162 
-0.601894 0.278913 0.681571 0.892664 -0.131889 0.429754 
1.149587 0.403312 2.311730 0.920079 -0.256860 -0.258165 
-0.613375 -0.754494 1.162641 -0.963567 -0.220033 0.068144 
0.059591 -0.459108 0.186681 0.124818 -0.177452 0.973164 
0.614536 0.004239 0.573028 0.944427 -0.097172 -0.302286 
-0.707190 0.206360 0.917365 0.908000 -0.058038 0.370839 
-1.263860 0.010064 2.637316 0.943637 0.271419 -0.005410 
0.991040 -0.149977 1.956560 0.904285 -0.365446 0.129595 
0.574346 0.292046 0.692988 -0.902311 -0.128672 0.406416 
-0.526385 0.217595 0.432263 0.767912 -0.194008 0.557130 
-0.600919 0.156549 0.620697 0.883023 -0.144376 0.415289 
-0.566264 0.151296 0.530367 0.831035 -0.150798 0.474228 
1.128971 0.515675 2.900056 -0.932723 0.064559 -0.274863 
-0.413767 -0.165186 -0.034896 -0.858082 -0.130065 -0.489217 
1.157172 0.278297 2.542186 0.887188 -0.393335 -0.168291 
-1.401467 0.319013 2.990725 0.926884 0.351010 0.022818 
-1.239859 0.044296 2.379096 0.906897 0.296275 0.197872 
-1.040528 0.071267 1.827237 -0.853417 -0.269768 -0.403125 
-0.068673 0.803920 0.358102 -0.158132 -0.160671 0.965842 
0.027153 -1.000812 -0.031555 0.305502 -0.082943 -0.943975 
-0.350525 -0.541767 -0.039292 -0.784746 -0.180707 -0.572820 
-0.606880 0.168797 0.464415 -0.934014 -0.120560 -0.319870 
0.843597 0.494381 1.377849 -0.873216 -0.172860 0.361453 
0.772188 0.421993 1.177829 -0.864603 -0.166917 0.403896 
-1.344576 0.405038 3.561857 -0.928058 -0.331878 0.160156 
-1.231753 0.100627 2.245837 0.879727 0.306149 0.353219 
0.789890 0.155786 1.206131 -0.894350 -0.014044 0.340133 
0.462233 -0.708151 0.403321 0.760179 -0.126524 -0.547977 
0.844865 -0.066532 1.339345 -0.927765 0.132918 0.255709 
-0.293396 0.927279 0.173884 -0.912301 0.281538 0.167493 
0.398134 0.511572 -0.128460 0.709833 0.141683 -0.618831 
-1.120048 0.967208 1.757203 -0.925241 -0.098086 -0.362891 
1.131411 0.590150 2.937252 0.936221 -0.072848 0.296290 
-0.670562 -0.474843 1.754571 -0.749707 -0.535955 -0.269152 
-0.503309 -0.310589 0.300033 0.552323 -0.004572 0.666695 
0.668700 0.672152 0.844636 -0.949045 0.095120 0.283297 
-1.238223 -0.057599 2.610768 -0.808216 -0.541458 -0.217979 
1.117738 0.123147 2.656165 0.864535 -0.497809 -0.013474 
0.845211 -0.405166 2.166073 0.841882 -0.520011 0.096537 
0.140722 1.157166 0.280956 0.983199 -0.119694 -0.068117 
0.611995 0.155121 0.712868 -0.909439 -0.145058 0.376693 
-0.690446 -0.137737 0.782155 -0.957446 -0.143619 -0.233194 
0.407038 -1.130036 0.176966 -0.449861 -0.312818 0.713332 
0.832611 0.443986 1.221179 0.950264 -0.248709 -0.182474 
-0.576758 0.241521 0.589323 0.858299 -0.163264 0.461457 
-1.242732 0.574641 2.138278 0.870200 0.078356 0.437607 
-0.390153 -0.622221 0.140751 -0.765987 -0.180231 -0.564800 
-0.716529 -0.379137 1.322112 0.941723 0.248018 0.126023 
0.273519 0.548363 0.278702 0.286379 -0.159101 0.917697 
-0.500085 0.493821 0.021681 -0.880705 0.177244 -0.361746 
0.876779 -0.374887 2.253586 -0.778917 0.507196 0.193852 
-0.933169 -0.177539 1.872009 -0.670877 -0.466881 -0.557806 
-0.417078 -0.236242 -0.003815 -0.858896 -0.139213 -0.482562 
1.055048 0.685802 2.145329 -0.915176 -0.028187 0.255142 
-0.117809 -1.018536 0.018493 0.282336 -0.189282 0.921309 
1.153046 0.375411 2.716150 -0.959316 0.146979 -0.097598 
-0.743805 -0.131523 1.192208 0.931078 0.176285 0.268147 
-0.372788 -0.643049 0.073246 0.319611 0.010563 0.918273 
0.659298 -0.079592 0.824755 -0.924296 -0.024603 0.345141 
-0.918005 0.879490 1.500208 0.916933 0.048963 0.330734 
-0.898272 0.857183 1.418205 0.821124 0.384784 0.092377 
1.071025 -0.000110 2.139937 -0.911633 0.290143 0.198638 
-0.847487 0.118655 1.466499 -0.909314 -0.349469 -0.217248 
-0.602870 -0.709231 0.670784 -0.912828 -0.060291 -0.295276 
-1.079955 0.859109 1.815171 0.781587 0.073444 0.586913 
-0.409844 0.364435 -0.122287 -0.774246 0.009440 -0.586889 
-0.664571 -0.199930 0.805311 0.955796 0.079372 0.265811 
-0.729286 0.345573 0.994024 0.889890 -0.092639 0.405231 
-0.620127 -0.693561 1.230216 0.964152 0.233385 -0.063727 
0.368057 0.301662 -0.175061 0.728123 -0.036808 -0.658824 
-0.740547 -0.337742 1.396190 0.935770 0.268614 0.147010 
-0.586159 -0.541226 0.630310 0.862044 0.026689 0.362140 
0.563817 -0.132703 0.549024 -0.838391 -0.048498 0.450126 
-1.023387 0.873437 1.591919 -0.902845 -0.340658 -0.170735 
-0.725698 0.248661 1.000895 0.899769 -0.048903 0.378777 
1.062533 0.136698 1.908064 0.983186 -0.042675 0.093362 
0.240984 -0.369525 -0.207828 0.482399 -0.277574 -0.823938 
-0.944981 0.687580 1.464709 -0.891251 -0.392309 -0.215438 
0.988737 0.049610 1.715054 -0.972081 0.059570 -0.026309 
0.729991 -0.535934 1.113047 -0.968546 0.153332 0.119999 
0.945284 0.207437 1.623686 -0.931515 0.002659 0.153100 
0.314117 0.540194 -0.226087 0.582576 0.164450 -0.783461 
-1.362266 0.431551 2.325272 -0.906789 -0.225161 -0.355528 
1.188449 0.668262 2.573241 0.998906 0.029010 0.010586 
0.319697 -0.818421 0.067355 -0.264904 0.019813 0.944093 
0.133389 0.993485 0.378083 0.200514 -0.159192 0.964920 
0.746910 0.015357 0.986460 0.950227 -0.169089 -0.232435 
0.598185 0.356430 0.659179 -0.887014 0.361226 0.266578 
0.759417 0.375915 1.010558 0.958024 -0.217729 -0.176839 
0.123929 -0.632658 0.132774 0.205390 -0.207304 0.938715 
0.529851 0.110189 0.259337 0.913679 -0.083130 -0.385249 
0.278896 -0.284397 -0.197258 0.521135 -0.245331 -0.807183 
-0.758345 -0.263374 1.390547 0.931790 0.263828 0.193654 
-1.423334 0.472362 3.221878 0.958806 0.215108 -0.100606 
-0.482443 -0.044388 0.281768 0.607839 -0.109850 0.671421 
1.161372 0.447036 2.434762 -0.973773 0.043568 0.145820 
0.050096 -0.794886 -0.062963 0.205051 -0.232325 -0.931404 
0.199772 -0.339672 0.180233 0.329984 -0.102856 0.910575 
0.364133 0.194001 0.175620 -0.055861 -0.213411 0.848799 
-0.651325 -0.341205 0.912724 0.959364 0.123125 0.176014 
0.806365 0.394387 1.269035 -0.874151 -0.134595 0.372850 
-0.571330 -0.584314 1.724823 0.848188 0.518314 0.029759 
0.069868 0.204609 0.289140 0.136935 -0.216013 0.958641 
0.595254 -0.877766 0.632254 -0.792421 -0.063521 0.470905 
-0.227537 0.135381 0.221579 -0.294007 -0.197416 0.934557 
0.913230 0.208619 1.546991 -0.912673 0.022646 0.258628 
0.879422 -0.202749 2.808362 -0.863876 0.376127 -0.261190 
-0.029697 1.203923 0.306855 0.066533 0.689634 0.703923 
-0.429992 -0.427558 0.091427 0.322737 -0.012032 0.881543 
-0.180219 1.234464 0.319156 -0.879125 -0.428996 -0.176472 
-1.152502 -0.142517 3.070918 0.904279 0.409625 -0.061289 
-0.961692 0.622352 1.567607 -0.881276 -0.404004 -0.237689 
-0.573643 -0.225563 0.507067 0.776489 0.011002 0.455547 
0.485292 -0.298853 0.269950 -0.538699 -0.031304 0.711563 
0.625599 0.302431 0.762996 -0.889638 -0.197274 0.405281 
0.014795 0.377714 0.340008 0.047414 -0.227133 0.968011 
-0.180058 0.615898 0.352776 -0.391641 -0.146660 0.892820 
-1.525262 0.697991 2.810328 -0.979041 -0.006051 -0.042763 
0.650617 0.603397 0.806531 -0.946915 0.182200 0.209297 
-1.392090 0.670079 2.341712 -0.940573 -0.160827 -0.294650 
-0.020949 -0.280676 -0.307485 -0.334574 -0.318104 -0.864982 
1.145222 0.203415 2.499102 0.896787 -0.389819 -0.126958 
-0.489117 0.319162 0.416610 0.784979 -0.123682 0.559625 
0.702597 -0.793081 0.919544 0.958812 -0.032417 -0.200293 
0.137393 -0.762575 -0.044108 0.113907 -0.333654 -0.924607 
-0.350000 -0.720101 0.058024 0.309062 0.017352 0.940018 
0.810485 -0.114651 3.101217 -0.846513 0.390981 -0.339107 
0.977108 0.432105 1.715206 -0.931716 -0.148314 0.079384 
-0.750881 0.710129 0.919456 -0.869560 0.157131 -0.438227 
0.507493 0.279378 0.130403 0.912389 -0.051084 -0.381428 
0.455382 0.685168 0.016200 0.733574 0.623443 -0.241139 
0.851088 -0.416762 2.309997 -0.796741 0.520904 0.117212 
1.066265 0.782347 2.245703 -0.923501 0.007308 0.223721 
-1.249966 0.039264 3.089978 -0.915998 -0.379776 0.082204 
-0.800807 0.296582 1.305909 0.890745 0.017631 0.364363 
0.026896 0.171226 -0.396166 0.474333 -0.012038 -0.872095 
-0.011077 -0.934730 -0.050728 -0.476591 -0.112120 -0.842703 
-0.670386 0.333996 0.653035 -0.867572 0.277782 -0.337320 
0.500472 0.185207 0.147288 0.904252 -0.086069 -0.406880 
-0.150141 1.172662 0.009645 -0.628461 0.484335 -0.546628 
-0.588684 0.088965 0.408446 -0.929285 -0.105249 -0.334612 
0.152164 0.707668 -0.236575 0.406451 0.393837 -0.806422 
-0.184369 1.073001 0.407533 -0.224200 -0.392810 0.842367 
-0.000229 0.277616 -0.416102 -0.470019 0.048592 -0.879084 
0.214113 0.624867 -0.247232 0.488111 0.277113 -0.811633 
-1.159930 -0.182254 2.779863 -0.840460 -0.507172 -0.114897 
-0.782891 0.024820 1.225782 -0.930169 -0.285599 -0.204776 
0.101491 -0.185106 -0.296781 0.426277 -0.217560 -0.852385 
1.089671 0.577019 3.082803 0.861342 0.104082 0.474505 
-0.886486 0.210736 1.607275 0.911471 0.118549 0.285626 
0.503594 -0.421225 0.402573 -0.652041 0.006737 0.605541 
0.721668 0.526964 1.047675 -0.844897 -0.250939 0.460850 
