-1.073215 -0.276053 1.740924 -0.661097 -0.365843 -0.606440 
-0.713408 0.396297 0.714585 -0.865455 0.274960 -0.380308 
-0.635764 0.334992 0.432581 -0.951609 0.009723 -0.285107 
0.310598 -0.647554 0.061529 0.065654 -0.024160 0.926822 
0.773055 -0.381980 0.983326 -0.932787 0.134225 0.299812 
-0.627060 0.235842 0.495629 -0.934685 -0.147553 -0.312591 
1.180539 0.505756 2.026399 0.915805 -0.341557 -0.098073 
-0.390686 -0.660209 0.191153 -0.718309 -0.194308 -0.606675 
-0.345867 -0.003802 0.086352 -0.052840 -0.156651 0.957799 
-0.561990 -0.753305 0.535080 0.786724 -0.015134 0.474000 
0.804988 -0.632418 1.689185 -0.807999 0.529347 -0.198893 
0.689660 -0.835425 1.272937 0.846663 -0.463991 -0.027651 
1.139421 0.075571 2.782488 -0.860053 0.176860 -0.468965 
-1.625094 0.475323 2.481232 0.868432 0.138046 0.362594 
0.140698 -0.855385 0.001178 0.196884 -0.348533 -0.900388 
-0.653863 -0.694496 1.050328 -0.947677 -0.249663 -0.157660 
0.348669 0.668876 0.235642 0.571990 0.011658 0.733013 
-1.386240 -0.304557 2.234920 -0.823642 -0.379633 -0.405037 
0.667442 0.523452 0.653018 0.862875 0.230331 -0.412558 
-1.578434 -0.112713 3.210784 0.931232 0.350098 -0.052799 
0.790437 -0.715480 1.244370 0.898744 -0.354488 -0.125217 
0.507949 -0.378511 0.335363 -0.579581 0.026213 0.677066 
0.720023 -0.726366 0.925168 -0.948210 0.152799 0.250737 
1.017331 0.773670 1.546002 -0.866359 0.208543 0.316958 
0.716251 -0.724199 1.831321 -0.788503 0.573080 -0.128036 
-0.032099 0.828720 0.348150 -0.138942 -0.184156 0.969129 
-1.466976 -0.364177 3.029863 -0.888342 -0.435490 -0.058504 
-1.176554 0.725822 1.834518 0.745398 -0.097005 0.640501 
1.141471 -0.002236 1.964921 -0.935477 0.174179 0.272568 
-0.706498 -0.207007 0.817359 -0.928163 -0.147692 -0.325853 
0.044409 0.864836 0.352409 0.168420 -0.132392 0.967516 
1.163242 0.513063 2.514968 -0.912016 0.108813 -0.073921 
0.289198 0.821892 -0.054416 0.713009 0.483769 -0.426671 
-0.045501 -0.739445 0.123734 -0.239074 -0.162532 0.911421 
-0.756770 -0.510770 1.212791 0.919795 0.235298 0.266497 
-0.484253 -0.268333 0.182117 -0.878461 -0.140357 -0.440266 
-0.640273 -0.617210 0.706636 0.942680 0.004117 0.309693 
-0.285215 0.670657 0.289331 -0.526129 0.209958 0.797296 
0.005907 -0.234269 -0.348516 0.336742 -0.317501 -0.855602 
-0.141873 0.232676 -0.384214 -0.565662 -0.008646 -0.812126 
-1.228065 0.526148 1.854652 0.687556 -0.218401 0.634876 
-0.077009 -0.159619 -0.340589 -0.419768 -0.230070 -0.846791 
1.061295 -0.303791 2.020828 -0.778598 0.443551 0.350992 
0.253088 0.827003 -0.120186 0.602007 0.501118 -0.593879 
0.431667 -1.074068 0.225908 -0.551520 -0.263374 0.764629 
-1.083119 1.058937 1.656894 0.062797 0.279757 -0.897432 
-0.363134 0.325759 -0.213453 -0.737564 -0.003476 -0.647596 
0.708027 -0.102572 0.755009 0.923324 -0.122544 -0.349208 
-0.890985 -0.234560 1.416435 0.872856 0.231610 0.397445 
-1.597058 -0.076725 3.120777 -0.939653 -0.317279 0.055277 
0.185886 -0.118256 -0.302521 0.503982 -0.174605 -0.824146 
-0.804616 0.609989 1.041162 0.863247 0.412995 0.186218 
0.276896 0.771386 0.270392 0.593589 0.223890 0.741871 
-0.894155 0.620616 1.295222 0.834952 -0.264670 0.480560 
-0.056882 -0.062147 0.190488 -0.128642 -0.092808 0.981571 
-0.229309 1.242970 0.399041 -0.787625 -0.417697 -0.437549 
-1.021362 0.803683 1.656126 0.888276 0.222266 0.379161 
1.083632 -0.064392 1.600425 0.906793 -0.272971 -0.298551 
-0.498693 -0.087063 0.322530 0.671576 -0.064629 0.618210 
-1.739945 0.249015 2.796406 -0.961279 -0.238755 -0.096950 
-1.571335 0.098055 2.321928 -0.753818 -0.386351 -0.509866 
-0.572416 -0.955806 0.492215 -0.806583 0.140450 -0.480015 
-1.614067 0.149863 3.481844 -0.948183 -0.250140 0.187110 
0.993742 0.544876 1.446624 -0.869220 -0.222721 0.377954 
-0.984795 0.362773 1.569681 0.840408 -0.080656 0.450651 
-0.648021 -0.419499 0.649056 -0.941053 -0.057399 -0.323109 
0.333860 -0.583244 -0.060631 0.711685 -0.223128 -0.636161 
0.779760 0.000394 3.247451 0.739062 -0.356596 0.563696 
-0.010602 -1.172859 0.012570 -0.400966 -0.192319 -0.868057 
0.389826 -0.260614 0.022660 -0.182962 -0.049148 0.947077 
0.692071 0.322087 0.623684 0.914633 0.106707 -0.325119 
-0.586906 -0.552514 0.583012 0.846837 0.006912 0.418727 
-0.873775 0.729349 1.171067 -0.717139 0.373741 -0.452541 
-1.213468 0.598746 1.838980 0.675771 -0.262796 0.633294 
-0.418335 -0.170425 0.078577 0.412375 -0.076888 0.849571 
-0.180974 -0.037451 -0.317447 -0.527126 -0.135771 -0.816384 
0.481239 0.639941 0.004429 0.800430 0.493727 -0.273668 
-1.561275 -0.133710 2.607914 0.933207 0.249675 0.123545 
-0.399293 0.300479 -0.149007 -0.809087 -0.039134 -0.550576 
0.049079 1.364653 0.021043 0.599793 0.683860 -0.208490 
-0.648314 -0.469110 0.706731 -0.944407 -0.082290 -0.295121 
0.436430 -0.579120 0.275633 0.740399 -0.178117 -0.583958 
0.373732 -0.891065 0.267062 -0.424406 0.057743 0.812365 
0.728499 -0.075272 0.867800 -0.899469 0.000894 0.391285 
0.859200 0.723912 1.105018 0.749666 0.312331 -0.447046 
-0.772592 0.253913 1.030763 0.861883 -0.103350 0.446775 
-0.959679 0.380906 1.502125 0.840797 -0.100403 0.454426 
0.853132 0.458761 1.144423 -0.841014 -0.213231 0.457114 
-0.049216 -0.356554 0.192500 -0.112522 -0.002953 0.991296 
-1.381969 -0.500355 2.689830 0.845308 0.451226 0.220955 
-1.540339 -0.210124 2.897655 -0.851079 -0.466570 -0.150882 
0.084333 0.336332 0.277407 0.137052 -0.283477 0.937413 
0.803962 0.470189 0.886341 0.912491 -0.092664 -0.340968 
1.152527 0.133965 2.829739 0.846569 -0.136447 0.509719 
0.128662 -0.093325 -0.338782 0.473823 -0.160059 -0.844804 
-1.239568 -0.425224 2.131036 -0.833660 -0.446185 -0.310692 
-1.234757 -0.672625 2.413815 -0.786124 -0.515060 -0.335108 
-0.807266 0.491218 1.092118 0.843149 -0.220400 0.477357 
0.615754 -0.832117 1.989283 -0.751134 0.632854 0.053816 
0.242225 0.842070 0.274775 0.640675 0.150858 0.724196 
-0.835296 0.224680 1.207015 0.851857 -0.052288 0.451835 
-0.928649 -0.250115 1.481772 -0.865500 -0.322838 -0.378313 
0.007067 0.681842 0.336092 0.038703 0.068868 0.990561 
0.789249 -0.462066 1.000503 0.934093 -0.191563 -0.271876 
-0.647078 -0.672043 0.772967 -0.945629 -0.081791 -0.268702 
1.178858 0.400551 2.771058 -0.912948 0.169257 -0.247379 
0.902394 -0.472155 1.246681 0.934456 -0.257401 -0.227681 
0.590873 -0.663776 0.575415 -0.802161 -0.017032 0.508495 
-0.260904 -1.071842 0.112281 -0.483800 -0.220406 -0.812801 
-0.246996 0.556977 0.273016 -0.253350 -0.203926 0.924178 
-0.790323 -0.557654 1.453429 -0.867889 -0.368328 -0.283134 
-1.118939 0.340099 1.753358 0.773257 -0.007970 0.558855 
-0.097578 -0.584609 -0.145228 -0.040245 -0.445238 -0.893250 
-0.486367 -0.060137 0.137317 -0.892084 -0.117047 -0.424993 
-0.123750 0.379001 0.293187 -0.213561 -0.272490 0.930029 
-0.648369 -0.760823 0.750153 -0.944737 -0.045840 -0.282893 
0.762142 0.055373 3.312439 -0.739718 0.332340 -0.581057 
-1.402699 -0.347066 2.338196 -0.812204 -0.422091 -0.384099 
0.274893 -0.255232 0.133861 0.528654 -0.111959 0.803659 
-0.642815 -0.016317 0.698835 0.917682 -0.039223 0.372490 
-1.240658 0.280071 1.844865 -0.861474 -0.182878 -0.413103 
0.197517 -0.923018 0.036452 0.149021 -0.377692 -0.908489 
1.125856 0.871234 1.781994 0.784906 0.601808 0.096892 
-0.649215 -0.871941 0.741903 0.942947 -0.018215 0.293842 
0.119649 -1.203710 0.095476 0.297691 -0.293884 -0.691770 
-0.103552 -0.818107 -0.061564 -0.154760 -0.324995 -0.907529 
0.148999 -0.510028 -0.173371 0.218248 -0.541518 -0.808136 
-0.865140 0.152248 1.201395 -0.900445 -0.303511 -0.297718 
1.011417 0.357067 3.171051 0.812020 -0.197214 0.535578 
-0.817835 -0.253521 1.156090 -0.895662 -0.233434 -0.356399 
-0.643034 -0.504911 0.905409 0.948465 0.151010 0.231705 
-0.948771 -0.775901 2.134956 -0.740761 -0.534447 -0.386824 
0.593278 -0.395471 0.594074 -0.836154 0.014210 0.467304 
-0.791403 -0.183221 1.127754 0.895241 0.138746 0.379544 
-0.448192 0.313422 0.269233 0.729040 -0.169316 0.635505 
1.146219 0.837787 1.912266 0.814290 0.530930 0.099321 
-1.665147 0.190653 3.290217 -0.955919 -0.243630 0.119001 
0.543446 -0.493821 0.496122 0.809439 -0.119963 -0.503126 
0.088985 0.833574 -0.211258 0.457946 0.428089 -0.767230 
0.562182 0.425669 0.169799 0.932637 0.094431 -0.314272 
-0.726839 -0.666774 1.293010 0.918471 0.290970 0.211314 
0.695743 -0.775025 1.441291 0.797619 -0.574396 0.046149 
1.092608 -0.256225 2.160303 -0.847776 0.412493 0.163234 
-0.649113 -0.780455 1.361068 0.888364 0.373726 0.184863 
-0.398042 0.713089 -0.009764 -0.549564 0.822942 -0.101925 
-1.137717 0.028124 1.747497 0.937716 0.041847 0.302673 
0.108009 -0.257348 0.184594 0.189407 -0.011645 0.977436 
-0.848912 0.242577 1.132846 -0.908875 -0.298041 -0.278821 
-0.326518 -0.839802 0.142279 -0.631992 -0.222975 -0.702122 
-0.040353 0.158924 0.218602 -0.086530 -0.202288 0.968058 
-1.012744 -0.663937 2.088087 -0.773888 -0.510265 -0.350021 
1.155878 0.741147 1.856966 0.984981 -0.023192 0.141148 
-0.160063 0.247143 0.245722 -0.257972 -0.222241 0.938434 
1.020440 -0.239683 1.456121 0.926711 -0.304014 -0.219518 
-0.741688 0.648917 0.874680 0.918302 0.164743 0.335143 
1.024960 -0.359762 2.072583 -0.770690 0.470015 0.303361 
1.108245 0.064287 1.833559 -0.941375 0.109740 0.182427 
1.134846 0.472274 3.085000 0.851171 -0.140420 0.504444 
-0.596120 -0.837875 1.575012 -0.807906 -0.534283 -0.209888 
0.943108 0.760662 1.294188 0.595340 0.500700 -0.471295 
-0.472816 -1.048553 0.283775 0.623345 -0.266384 0.677899 
-0.575088 -0.682205 0.544733 -0.865088 -0.062020 -0.417664 
0.518781 0.475121 0.024170 0.923440 0.140227 -0.325893 
0.062976 0.767460 -0.246052 0.424382 0.399426 -0.800611 
-0.564153 -0.086617 0.370789 -0.919636 -0.104090 -0.369450 
0.932121 0.120120 1.309882 -0.883986 0.000237 0.348399 
-1.222014 0.842790 1.838337 -0.760102 0.483107 -0.338526 
-1.095036 -0.211235 1.768780 0.921443 0.228109 0.252309 
0.756856 -0.715932 1.007621 -0.951371 0.182461 0.230064 
-0.894658 -0.432618 1.617670 -0.798824 -0.405657 -0.398742 
0.493508 0.028915 0.130256 0.891338 -0.098254 -0.437129 
-0.818905 -0.788797 1.957770 -0.675287 -0.554639 -0.452485 
0.996517 -0.359574 1.521649 -0.919239 0.308553 0.150335 
0.103254 0.098394 -0.386669 0.507914 -0.062461 -0.842157 
1.148835 0.516894 1.695622 0.961816 -0.135382 -0.013575 
-1.237634 -0.502179 2.212497 -0.825616 -0.473134 -0.299646 
0.145998 0.295661 0.263938 0.240294 -0.245255 0.934161 
0.944969 0.459682 1.235574 0.919105 -0.280938 -0.273995 
-1.203336 -0.248178 1.921963 -0.880513 -0.332150 -0.290494 
1.037932 -0.302088 1.501759 0.925189 -0.303172 -0.222498 
1.145458 0.199241 1.740646 0.880798 -0.227994 -0.406060 
-0.396340 0.113510 0.125960 0.394995 -0.182750 0.811621 
-0.137054 -1.323725 0.163670 0.162809 -0.317868 -0.921070 
-0.017386 1.419215 0.050115 -0.311001 0.845776 0.332103 
-0.665148 -0.056857 0.755662 0.918235 -0.011183 0.366970 
-0.526300 -0.488461 0.499590 0.743122 0.046567 0.513361 
0.900654 -0.514459 1.774304 -0.823760 0.480137 -0.261448 
-1.346125 0.585311 1.971332 -0.757619 -0.354492 -0.523044 
-0.630107 -0.406927 0.765942 0.946877 0.085031 0.279354 
0.362880 0.611614 0.196014 0.372250 0.089351 0.802572 
0.774744 0.435198 0.791253 0.900703 0.093703 -0.398577 
-0.542365 0.345347 0.535227 0.862593 0.129817 0.438326 
-1.684866 0.586117 2.426670 -0.911696 -0.006243 -0.409224 
-0.848314 0.086030 1.167596 -0.902253 -0.285711 -0.304593 
-1.626603 -0.023735 2.680035 -0.794957 -0.513285 -0.293134 
0.119961 -0.172250 -0.321989 0.442620 -0.220322 -0.842765 
0.385346 -0.408044 -0.084387 0.819124 -0.185084 -0.540376 
-0.607278 0.568089 0.559383 0.882479 0.193203 0.384256 
-1.290842 0.256335 1.907511 -0.830202 -0.140964 -0.492384 
0.062653 0.003749 -0.387857 0.453989 -0.121586 -0.857642 
0.768961 0.254685 0.960612 -0.851833 -0.138886 0.459307 
-0.901903 0.368021 1.241682 -0.895628 -0.309014 -0.305393 
0.769925 -0.541813 1.004683 -0.941809 0.160167 0.264626 
-1.672871 0.422287 2.391250 -0.913283 0.037510 -0.388260 
0.542367 0.354643 0.153674 0.924257 0.021368 -0.347762 
-0.430323 -0.105429 0.124946 0.479255 -0.093464 0.799136 
1.143109 -0.112516 1.840346 0.942355 -0.252064 -0.051745 
0.990016 -0.238456 1.388557 0.927097 -0.290864 -0.227248 
-1.281513 -0.392685 2.184934 0.657847 0.407552 0.551534 
-0.399191 0.012804 -0.104930 -0.815576 -0.147684 -0.517270 
-1.316905 -0.046972 1.995478 0.726849 0.213978 0.627595 
1.135040 0.501521 1.852859 -0.892790 -0.214099 0.277338 
-1.655138 0.044031 2.591360 -0.775950 -0.524842 -0.347519 
-0.493011 -0.775125 0.426422 -0.781168 -0.110871 -0.517550 
-1.137420 0.103548 1.746235 0.930996 0.002636 0.313770 
0.618313 -0.841936 1.799350 0.755359 -0.647062 0.011233 
1.163052 -0.067770 2.480098 0.882262 -0.442924 0.076977 
-0.825345 0.412307 1.151308 0.845314 -0.167127 0.468942 
0.682591 0.182189 3.451275 -0.729764 0.268596 -0.622175 
-0.811432 -0.497891 1.349710 0.905468 0.270781 0.288857 
1.141715 0.672725 2.153883 -0.911132 0.023817 0.171832 
0.682780 0.124965 0.770976 -0.875627 -0.113337 0.447118 
-1.646426 0.185612 3.359495 0.959601 0.202201 -0.144834 
-1.216176 0.775012 1.873240 0.649082 -0.030491 0.723847 
1.201912 0.104277 2.188033 0.965531 -0.148425 -0.123790 
-0.820004 -0.337875 1.220252 -0.895052 -0.253887 -0.337772 
0.754785 -0.736203 1.309923 -0.873798 0.404469 0.069028 
-0.906629 0.517224 1.213633 -0.899135 -0.307731 -0.296229 
0.299876 0.575341 -0.250876 0.572332 0.256193 -0.764894 
-0.165450 0.767841 -0.208548 -0.495098 0.467363 -0.711946 
0.779613 0.397668 0.867898 0.926907 -0.239864 -0.283153 
1.171315 -0.084425 2.203027 -0.944119 0.287130 0.057649 
-0.969344 0.605360 1.358946 -0.881407 -0.321707 -0.332719 
0.845947 -0.539149 1.164224 -0.943753 0.206668 0.235565 
0.862601 -0.517232 2.589221 -0.804202 0.540869 -0.202398 
-0.044135 1.107010 0.343426 0.068974 0.307803 0.911242 
1.094639 0.838543 1.726487 -0.926045 -0.046726 0.355212 
-0.373405 -0.107629 0.063121 0.127199 -0.113260 0.930824 
-0.844534 0.530243 1.181787 0.840124 -0.230200 0.477460 
0.452092 -0.331394 0.088561 0.847990 -0.154338 -0.496786 
-0.595742 -0.829437 1.657017 0.793264 0.561599 0.230635 
0.385179 0.429494 -0.180358 0.732046 0.084393 -0.629540 
-1.051748 0.014753 1.661958 0.896557 0.083805 0.361418 
-0.794385 -0.559855 1.381131 -0.890484 -0.329687 -0.265707 
-1.076788 0.348508 1.631671 -0.784651 -0.308687 -0.488666 
-0.634844 -0.522035 0.759774 0.945893 0.059320 0.283047 
-0.138613 -0.271147 -0.289075 -0.434318 -0.279980 -0.832657 
-0.173285 1.213882 0.120716 -0.696792 0.672953 -0.133291 
-0.116179 0.598101 -0.310116 -0.437171 0.315668 -0.820793 
-0.444390 -0.632963 0.348349 -0.736262 -0.180044 -0.568081 
0.422059 0.439819 0.331102 -0.831020 0.144968 0.516663 
1.107751 -0.026353 1.742310 -0.963307 0.061587 -0.104717 
0.202116 -1.336309 0.214918 0.894600 0.022832 0.346854 
0.271442 0.362951 -0.297493 0.634302 0.064097 -0.754974 
0.845156 -0.341451 1.089429 0.928327 -0.203144 -0.279061 
1.144707 0.055661 1.755279 0.878429 -0.218561 -0.415947 
1.185325 0.779924 2.176312 -0.833920 0.446365 0.168517 
-0.348659 -0.259827 0.079314 -0.318418 -0.105146 0.850562 
0.125840 -1.329869 0.214627 -0.431160 -0.146952 0.657570 
0.422606 0.049592 0.128336 -0.535882 -0.150662 0.779029 
0.807736 -0.172285 3.057873 0.755258 -0.492927 0.402073 
0.913555 0.176198 1.270731 -0.875534 -0.036642 0.370048 
0.993422 -0.427745 2.122297 0.835816 -0.505378 0.194688 
-1.461242 0.591256 2.240101 0.781811 0.070817 0.502927 
-1.065021 0.526677 1.668640 0.858478 -0.188555 0.425944 
0.350672 -1.059556 0.160616 0.541950 0.052992 -0.780512 
0.831551 -0.608634 2.197073 -0.769485 0.566180 0.068773 
-0.712649 0.658731 0.800939 0.921552 0.110963 0.360831 
0.511924 -0.686968 0.454027 0.771366 -0.113706 -0.551686 
0.126074 1.260797 0.076696 0.699393 0.640342 -0.002852 
-0.591470 0.449501 0.243136 -0.943970 0.120651 -0.281150 
-1.285261 -0.249844 2.046742 0.604323 0.356335 0.648316 
0.898619 -0.060293 1.172364 0.925987 -0.252720 -0.260256 
0.964191 -0.435825 2.477211 0.826152 -0.534417 0.136623 
1.062001 0.274125 3.051785 0.840054 -0.249124 0.464779 
0.971712 0.141792 3.085903 0.802361 -0.270578 0.512249 
1.152290 0.755415 1.776237 0.943621 -0.280379 -0.068711 
-0.343454 -1.080480 0.137918 -0.521473 0.070631 -0.788712 
0.981978 -0.407859 1.602370 0.866209 -0.420606 -0.194831 
-0.642904 -0.818812 0.875730 0.949943 0.086206 0.227812 
-1.205573 0.063232 1.762889 -0.734771 -0.180151 -0.596154 
-1.625443 0.402937 2.478584 0.876840 0.120880 0.350263 
-0.398794 0.714701 0.072257 -0.654542 0.741255 -0.045243 
-0.186460 -0.629507 0.111674 -0.206763 -0.148860 0.922455 
1.063626 0.353220 3.102714 0.832105 -0.203018 0.501667 
-1.251642 0.348544 1.882381 0.702457 -0.102770 0.649103 
0.652462 0.337407 0.555621 0.867270 0.303270 -0.342559 
-0.070638 1.326995 0.004076 -0.652480 0.594977 -0.438440 
-0.580505 0.597719 0.476829 -0.889256 0.265251 -0.272710 
0.816785 0.419636 0.952877 0.925263 -0.257773 -0.274232 
0.310649 -0.666245 -0.038059 0.650854 -0.244076 -0.688111 
0.055416 -0.066935 -0.372612 0.426466 -0.175298 -0.855742 
-0.270560 0.848834 -0.064253 -0.705048 0.456000 -0.477640 
-0.173483 1.196681 0.377844 0.493476 0.446903 0.697120 
1.133758 0.659461 2.080348 -0.907532 -0.004519 0.201956 
-1.463056 0.472551 2.118122 -0.727863 -0.339501 -0.579236 
-1.430022 -0.410590 2.726956 -0.833960 -0.480287 -0.211879 
-0.228858 0.086116 -0.308042 -0.584671 -0.088643 -0.784519 
-1.483139 -0.093988 2.217724 -0.816981 -0.342628 -0.453933 
0.131600 0.062953 0.189332 0.206157 -0.153962 0.963797 
-1.013748 -0.616095 2.030695 -0.786325 -0.499594 -0.336357 
0.885124 0.300063 1.113930 0.924734 -0.276627 -0.259250 
0.214419 -0.280918 -0.259434 0.480429 -0.253834 -0.825623 
0.648652 -0.058519 0.603152 0.925027 -0.109162 -0.358039 
1.045975 -0.344824 1.875251 0.836645 -0.499793 -0.115831 
-0.270140 1.007129 0.103436 -0.905727 0.366805 -0.061007 
-0.642860 0.581229 0.624859 -0.893758 0.143986 -0.398064 
-0.796950 0.100806 1.115337 0.868767 -0.006797 0.427935 
-0.793675 0.417031 1.069032 0.846478 -0.181268 0.472133 
0.691243 -0.555433 0.838068 -0.939040 0.109551 0.296586 
0.784755 0.127644 3.319077 0.740760 -0.311409 0.586861 
-0.508514 0.429081 0.432777 0.826438 0.344490 0.426672 
-0.551652 0.242720 0.265615 -0.918195 -0.125157 -0.363394 
-0.720147 0.577004 0.841687 0.910742 0.277699 0.268005 
-0.141436 0.141482 -0.369956 -0.544376 -0.049277 -0.819767 
-0.483276 0.184744 0.070938 -0.903458 -0.100274 -0.412064 
0.647279 -0.822705 0.639223 0.883099 0.021972 -0.456730 
-0.224935 0.998719 -0.035366 -0.709934 0.332758 -0.557723 
-0.284930 -0.173257 -0.232680 -0.558914 -0.213812 -0.780179 
-1.403772 0.044528 2.079419 0.793019 0.145335 0.577604 
1.000881 0.614458 1.462693 -0.866082 -0.260069 0.384759 
1.183344 0.157237 2.769459 0.864968 -0.086860 0.472894 
-0.112094 0.872899 0.346125 -0.259344 -0.091896 0.955941 
0.637823 0.340493 0.423060 0.948710 0.015631 -0.293716 
0.521814 0.240457 0.406570 -0.781551 -0.189898 0.564512 
1.216593 0.577307 2.226230 0.984474 0.013421 0.131443 
-0.704254 0.470035 0.899189 0.910845 0.032523 0.379226 
-0.061252 0.565913 -0.346495 -0.425256 0.303622 -0.837848 
1.197692 -0.065240 2.318785 0.926155 -0.362580 -0.008181 
1.027101 -0.184794 1.511301 -0.929090 0.197480 0.227500 
0.356695 0.733864 0.176231 0.806383 0.340232 0.379663 
0.264730 1.008555 0.043113 0.881927 0.382624 -0.242828 
0.993243 0.174828 1.364530 0.921317 -0.292516 -0.252332 
-1.569318 -0.141259 2.941218 0.922931 0.366953 0.068395 
-0.359359 -0.468913 -0.091190 -0.791692 -0.189320 -0.564823 
-0.034858 0.242713 0.244305 -0.056230 -0.256302 0.956797 
0.268914 0.225332 -0.306013 0.640817 -0.032802 -0.754682 
1.162126 0.270445 1.755855 0.969835 -0.148595 -0.017200 
-1.238541 -0.342882 2.068269 0.559213 0.391285 0.661570 
0.822731 0.207785 3.311830 0.755045 -0.270739 0.584170 
-0.022283 -0.564758 -0.144199 -0.318132 -0.513982 -0.790311 
-0.321913 0.553053 0.233135 -0.319647 -0.183796 0.879214 
0.000100 1.202160 -0.085987 0.537242 0.232436 -0.770378 
-0.937976 -0.840228 2.198722 -0.723422 -0.548673 -0.405936 
0.815510 -0.021252 3.178266 0.752272 -0.344346 0.545852 
-0.803964 0.297619 1.114668 0.850475 -0.106764 0.460898 
-0.445463 0.389680 -0.082499 -0.845144 0.047529 -0.469761 
-1.107197 -0.157470 1.707319 -0.653794 -0.269608 -0.657873 
-1.660319 0.076498 3.092324 0.946563 0.288649 -0.010899 
-0.965818 -0.216021 1.579240 0.874364 0.239118 0.388754 
0.862241 -0.084539 3.058092 0.772773 -0.338281 0.508627 
0.017267 0.726483 -0.285753 0.295048 0.493548 -0.814105 
-0.513030 0.069305 0.183434 -0.910064 -0.097384 -0.396828 
0.885386 -0.574575 2.464964 0.801491 -0.574295 0.164184 
-1.716558 0.336188 2.572962 -0.946643 -0.086845 -0.230785 
-0.127131 -0.321181 0.183102 -0.208897 0.011661 0.976357 
-0.110834 0.683878 -0.281126 -0.390684 0.419671 -0.805892 
1.010116 -0.121982 1.474285 -0.919949 0.158850 0.256370 
-0.561839 0.208141 0.508591 0.837612 -0.161967 0.489915 
0.341833 0.045588 0.098679 0.072086 -0.174612 0.951224 
0.036437 1.135434 -0.095181 0.376165 0.309445 -0.863944 
0.013488 0.069641 -0.422783 0.437218 -0.097496 -0.866944 
0.122096 -0.809107 0.098777 -0.111260 -0.095926 0.905264 
0.513903 -0.996366 0.390551 0.695731 0.154195 -0.633938 
0.911941 -0.252725 1.261045 -0.925583 0.184357 0.276114 
1.050489 0.031719 1.502944 0.920762 -0.302433 -0.242438 
1.156090 0.405978 3.008751 0.868794 -0.180585 0.453448 
1.094700 0.260182 1.778504 -0.919725 0.015998 0.209062 
-0.220510 1.145504 0.416230 -0.233479 -0.487856 0.805155 
-0.471636 0.654154 0.219444 0.574987 0.454672 0.535219 
0.064173 -0.491468 0.166901 0.154781 -0.166670 0.970499 
0.857140 -0.445955 1.171488 -0.938750 0.197330 0.252425 
1.110650 0.344516 3.025187 -0.853075 0.121614 -0.470594 
-0.968274 0.457507 1.396502 -0.876738 -0.323866 -0.344327 
0.020466 -1.099731 0.037788 0.490817 -0.170885 0.802095 
0.855834 -0.579481 1.411917 0.875442 -0.411455 -0.101343 
0.078275 -0.751747 0.109400 0.126049 -0.157647 0.928377 
-0.109508 0.084964 0.190810 -0.183217 -0.160046 0.967118 
-0.125205 -0.407922 0.183918 -0.175973 -0.126811 0.975760 
-0.945867 0.628407 1.426878 0.832194 -0.252134 0.477052 
0.591070 -0.088323 0.436054 0.912647 -0.080152 -0.398763 
0.384711 -0.137109 -0.114043 0.790873 -0.172331 -0.547720 
1.087232 0.061152 2.837075 -0.847897 0.295420 -0.424978 
-1.111594 -0.311494 1.907321 0.640288 0.372891 0.637319 
0.927998 -0.062132 2.968471 -0.805833 0.364929 -0.447132 
-1.603527 -0.084375 2.882308 -0.951985 -0.264668 -0.006310 
1.261620 0.584407 2.683631 0.986610 0.000867 0.132988 
-1.416024 0.576701 2.176953 0.764838 0.043741 0.526303 
-0.936251 0.383548 1.330224 -0.884806 -0.317205 -0.328114 
0.445686 -0.027968 0.004933 0.871328 -0.120623 -0.468029 
1.026933 -0.247802 2.596165 -0.845344 0.369790 -0.280005 
1.124941 -0.218143 2.327374 0.905775 -0.399951 0.052701 
0.964099 -0.432957 1.928413 -0.716645 0.503771 0.441948 
-0.108253 1.160039 -0.061650 -0.516727 0.342812 -0.776655 
0.777874 -0.757772 1.160462 0.919091 -0.307960 -0.154038 
0.945777 0.300242 1.249263 0.921667 -0.284161 -0.261083 
-0.133791 -0.003623 0.188014 -0.209383 -0.125805 0.965619 
1.045206 -0.044082 2.806038 -0.837644 0.261883 -0.435510 
0.876482 -0.335361 1.155273 0.928007 -0.219891 -0.268878 
-0.418137 -0.083446 -0.056083 -0.865049 -0.133526 -0.476779 
0.776855 0.687230 0.919154 0.894128 0.135288 -0.424596 
0.223107 -0.822906 -0.003855 -0.018477 -0.401588 -0.900802 
0.110882 0.901150 0.348739 0.245819 -0.086108 0.959615 
0.131546 1.126922 0.173321 0.820657 -0.011189 0.523264 
0.242811 1.176569 0.427374 0.659254 0.193942 -0.698006 
-1.670479 0.524513 2.391435 -0.900810 -0.028001 -0.431867 
-0.773127 0.488364 1.004699 0.844699 -0.230932 0.480109 
0.160940 -1.393643 0.229206 0.061102 -0.509886 0.716035 
0.832938 0.168097 1.097354 -0.864513 -0.062840 0.412888 
-0.945552 0.638503 1.227068 -0.907374 0.034025 -0.384720 
0.529442 -0.361161 0.405399 -0.649667 0.026562 0.618487 
0.789764 -0.348076 2.893013 0.763509 -0.514177 0.350273 
-1.515077 -0.254617 2.841835 -0.843847 -0.472448 -0.173901 
-1.415461 -0.222692 2.223575 0.821980 0.341806 0.443305 
-1.354158 0.640400 2.098477 0.733355 0.028829 0.566293 
-0.078483 -0.521087 -0.177122 -0.110846 -0.602923 -0.779541 
-0.315239 0.779863 -0.069492 -0.697107 0.521943 -0.424645 
-1.330708 0.217225 1.957195 -0.811117 -0.101532 -0.547409 
-0.845968 0.652629 1.085512 -0.723335 0.403533 -0.483488 
0.104887 0.185677 -0.399368 0.530804 -0.023162 -0.833421 
0.618334 -0.558339 0.598538 0.871825 -0.046678 -0.449344 
-1.742622 0.336859 2.649555 -0.949054 -0.168179 -0.203688 
0.974730 -0.355257 1.371940 0.928849 -0.278918 -0.227929 
-0.358920 0.409115 -0.219841 -0.699004 0.061656 -0.685684 
-0.397460 0.098037 -0.114156 -0.795182 -0.143377 -0.533339 
-0.848611 -0.685110 1.869255 -0.666767 -0.541759 -0.463133 
0.874126 -0.211324 1.180061 -0.919502 0.144184 0.301075 
0.701097 -0.230001 3.163399 0.735689 -0.462594 0.492513 
0.939971 -0.490345 2.239487 -0.768677 0.529326 0.133218 
-1.092834 -0.351837 1.835181 -0.597345 -0.450192 -0.643092 
-1.348512 -0.371537 2.266607 0.768864 0.397969 0.452170 
-1.415316 0.343240 2.066038 -0.756525 -0.257613 -0.562424 
-1.280385 0.813376 1.902982 -0.806433 0.311149 -0.390073 
-0.710168 -0.543439 1.083562 -0.929495 -0.241944 -0.228733 
1.188651 0.591318 2.469729 -0.936433 0.111247 0.023918 
-1.468047 0.402744 2.154162 0.779829 -0.017221 0.570136 
-0.856516 0.291739 1.250880 0.848471 -0.084460 0.455773 
-1.382439 -0.486416 2.558655 0.843371 0.427360 0.257569 
-0.060975 0.014262 0.191736 -0.132479 -0.125137 0.978300 
0.405657 0.371059 -0.142192 0.790348 0.026888 -0.559636 
-1.567437 -0.149476 2.804428 -0.828527 -0.485312 -0.209020 
0.051448 0.943362 0.363199 0.197862 -0.006576 0.971111 
0.818608 -0.390144 1.044965 0.930659 -0.196213 -0.277632 
-0.818347 -0.100573 1.196272 0.880695 0.113155 0.400336 
-0.196654 -0.051380 0.168747 -0.338841 -0.141537 0.902860 
-0.128120 -0.081162 -0.341221 -0.483901 -0.150225 -0.842208 
-0.811936 -0.499083 1.578072 0.843625 0.389382 0.334052 
0.760376 -0.065404 3.217690 -0.747676 0.400757 -0.517706 
-1.417311 0.144230 2.068341 -0.782915 -0.099711 -0.598840 
-0.521876 -1.000203 0.389383 0.709159 -0.207231 0.582919 
-0.349699 -0.772493 0.140030 0.327531 0.055488 0.889891 
-0.766106 0.188928 0.901679 -0.929264 -0.228005 -0.270331 
-1.313802 -0.616607 2.487499 0.808027 0.486244 0.323718 
-1.764264 0.348880 2.718005 0.955210 0.180556 0.186174 
0.756183 0.175566 0.838827 0.924222 -0.188162 -0.313729 
0.031056 0.144375 0.215026 0.080505 -0.192291 0.971715 
-0.980626 0.205538 1.584168 0.846421 0.011103 0.437413 
0.552280 0.249768 0.477204 -0.814646 -0.182506 0.524124 
0.099671 -0.361808 -0.281432 0.368142 -0.364777 -0.837786 
0.587890 -0.935374 0.529028 0.798106 0.085629 -0.539535 
0.187469 -0.195233 -0.289486 0.485638 -0.209773 -0.830466 
0.778191 0.617687 0.900371 0.833342 0.251472 -0.471096 
-1.005174 -0.284715 1.658414 0.889366 0.287248 0.321540 
-1.643436 0.076208 2.519862 -0.773354 -0.486563 -0.387355 
0.507892 0.302843 0.087001 0.912884 -0.033694 -0.384418 
-0.247109 -0.578341 0.101361 -0.415508 -0.140552 0.880628 
1.233223 0.248033 2.332401 0.926825 -0.267884 -0.183380 
-0.902463 0.437304 1.224243 -0.897796 -0.308017 -0.299995 
-1.591377 -0.002341 2.479036 0.934595 0.198373 0.179937 
1.021090 -0.326875 1.588374 -0.916112 0.301916 0.075731 
1.237326 0.674070 2.550446 -0.949493 0.224715 0.011657 
0.610924 -0.128367 0.501764 0.915630 -0.078379 -0.392667 
1.046724 -0.309186 1.732337 0.848481 -0.412474 -0.282006 
-0.255533 0.011725 0.147212 -0.307789 -0.172923 0.908820 
0.644232 -0.808494 1.857661 0.755443 -0.642570 -0.022551 
0.863190 0.552955 0.986636 0.868504 0.146389 -0.462380 
-1.098758 0.464423 1.645937 -0.773328 -0.305541 -0.503382 
0.343099 -0.146900 0.091040 0.289616 -0.134963 0.876109 
0.678057 -0.022773 0.676334 0.925786 -0.124476 -0.347252 
-1.491895 -0.323250 3.120016 -0.902423 -0.423950 -0.016813 
0.751737 -0.651633 0.969132 0.943104 -0.201913 -0.241952 
0.116939 1.280168 0.146882 0.494572 0.789036 0.268953 
1.128949 0.603846 1.645695 0.906817 -0.255827 -0.288309 
0.524676 -0.927978 0.472524 0.769655 -0.062485 -0.569593 
1.024418 -0.323122 1.660882 -0.902798 0.315937 -0.028623 
-0.230313 0.682924 -0.240774 -0.477142 0.410259 -0.760978 
-0.674105 0.287566 0.567581 -0.960339 -0.034263 -0.273504 
1.035516 -0.370914 1.954150 0.847930 -0.479304 0.214636 
-0.825012 -0.256781 1.230770 0.892631 0.199629 0.376296 
0.946231 0.619717 1.345669 -0.852404 -0.278276 0.421956 
-1.159922 0.169568 1.720765 -0.640751 -0.240369 -0.686432 
1.095097 0.234156 1.699062 -0.933308 -0.066024 0.049733 
-0.309293 -0.235305 -0.187959 -0.582027 -0.252415 -0.736918 
0.380034 -0.714657 0.218198 -0.397955 0.061857 0.828985 
-0.692697 -0.713773 1.347333 0.897922 0.340162 0.206066 
-0.261904 -0.956424 0.056996 -0.537284 -0.261459 -0.801328 
0.945527 0.379498 1.242797 0.920386 -0.282578 -0.267506 
0.297782 0.933220 0.082000 0.921304 0.343464 -0.112427 
0.940787 0.435094 1.331952 -0.864019 -0.175418 0.394926 
1.008453 0.128058 1.473504 -0.902018 0.017027 0.298983 
-0.901092 0.079359 1.318458 -0.886090 -0.313545 -0.328949 
0.171206 1.212989 0.105397 0.714232 0.649550 -0.159680 
0.601783 0.311697 0.614703 -0.862127 0.171678 0.410985 
-0.721812 0.176299 0.779245 -0.937199 -0.198135 -0.271749 
1.268481 0.513268 2.543029 0.996616 -0.025716 0.074188 
-0.438410 0.298829 -0.084498 -0.873741 -0.045456 -0.455008 
0.671680 0.226600 0.746012 -0.871008 -0.153996 0.453226 
-0.623882 -0.490618 0.639968 0.917880 -0.000231 0.353716 
0.404773 0.240810 -0.133878 0.830290 -0.078883 -0.522913 
-1.761390 0.332836 2.904461 0.977191 0.097074 0.002841 
1.189373 0.017822 2.511753 0.880611 -0.443193 0.044113 
-0.162105 -0.751814 -0.047876 -0.182958 -0.380927 -0.898798 
-0.670281 0.525454 0.674970 -0.862198 0.240497 -0.408210 
0.970229 0.461164 1.395319 -0.869362 -0.181949 0.379685 
0.564089 0.339742 0.221260 0.929300 0.008335 -0.338981 
-0.632162 0.337551 0.724289 0.878035 -0.110728 0.458600 
0.514463 -0.035338 0.366704 -0.720692 -0.087892 0.600085 
0.677589 0.105739 0.656243 0.929906 -0.156811 -0.324420 
0.784647 -0.774846 1.078120 0.947268 -0.245270 -0.198276 
1.099293 0.124973 2.882251 -0.829620 0.450803 -0.292370 
-1.402291 0.662254 2.044702 -0.915248 -0.052926 -0.394791 
0.074115 0.508674 0.330702 0.154555 -0.253103 0.946928 
0.760409 -0.328792 2.960979 -0.766719 0.482450 -0.388076 
-0.609174 0.261961 0.407655 -0.938188 -0.082826 -0.321883 
0.104429 -0.280833 -0.300205 0.396991 -0.304886 -0.840439 
-0.101236 1.260442 0.193745 -0.206940 0.865805 0.427127 
1.144096 0.535794 3.038141 0.764696 0.285298 0.533627 
-0.138229 -0.839734 0.098674 0.190354 -0.064969 0.893510 
-0.663237 0.220311 0.620357 -0.938364 -0.186050 -0.290556 
-0.050802 1.245655 -0.035572 -0.569038 0.260036 -0.774381 
1.052611 0.811433 1.629773 -0.900678 0.285459 0.199308 
0.525610 0.041391 0.219906 0.902620 -0.086273 -0.419106 
-1.152884 -0.181288 1.806533 -0.568340 -0.317965 -0.735863 
0.061460 1.265569 0.198420 0.122871 0.860334 0.488202 
-0.029899 -1.251790 0.036887 -0.233369 -0.227097 -0.944888 
-0.723154 -0.268594 0.956345 0.919882 0.133400 0.342596 
-1.189349 -0.333955 1.983496 0.467117 0.389671 0.752396 
-0.104314 1.061715 0.350357 -0.056916 0.034647 0.953411 
-0.806450 -0.890853 2.074410 0.721952 0.541198 0.406473 
0.722824 0.352049 0.860788 -0.844409 -0.200847 0.485634 
0.523374 -0.105894 0.376855 -0.704991 -0.059255 0.602253 
-1.565217 -0.154027 3.123959 -0.929497 -0.349400 0.034698 
1.056911 0.087359 2.927624 0.817925 -0.189193 0.526573 
-0.219273 0.918552 -0.097676 -0.668765 0.384256 -0.631361 
-0.010908 0.757391 0.329911 -0.064819 -0.056477 0.992709 
-0.941556 -0.108561 1.479176 -0.866337 -0.326573 -0.372949 
0.119528 1.016921 0.356220 0.188499 -0.095817 0.974004 
-0.364322 -0.221037 -0.125885 -0.750171 -0.196876 -0.584166 
0.549592 0.087797 0.283161 0.909581 -0.100637 -0.397618 
-0.388156 -0.981298 0.272810 -0.670205 -0.146080 -0.650861 
0.332145 -0.041093 0.110284 0.306800 -0.171215 0.889284 
-0.971997 0.320648 1.443997 -0.870859 -0.327024 -0.358367 
-0.871051 0.483590 1.126723 -0.909747 -0.299535 -0.274162 
0.947661 -0.486620 2.162555 0.820709 -0.532125 0.192812 
0.493521 0.626859 0.126413 0.861149 0.433314 -0.179178 
0.740968 -0.139873 0.830752 0.923747 -0.139585 -0.336003 
0.858407 0.001215 1.149609 -0.888717 0.032096 0.360893 
-0.555857 0.637606 0.422598 -0.893088 0.283515 -0.227488 
-0.920767 0.310330 1.308425 -0.887435 -0.314598 -0.323406 
1.086339 0.543594 1.717290 -0.847408 -0.089598 0.477589 
0.209929 -0.296790 0.158569 0.371293 -0.046174 0.893486 
-1.476753 0.300134 2.161188 0.792482 0.038558 0.576109 
-0.160617 -1.004887 0.053078 -0.300424 -0.268505 -0.912356 
-0.157367 0.165352 0.214746 -0.241118 -0.193797 0.949528 
-1.779590 0.374248 2.785563 0.972587 0.111108 0.091065 
0.553697 -0.578484 0.510491 0.813913 -0.097159 -0.504687 
0.849119 -0.412124 2.727049 0.781313 -0.541141 0.264771 
1.152262 0.592624 2.334110 -0.911400 0.066149 0.048699 
-0.713909 0.265262 0.864381 0.876218 -0.146760 0.433918 
-0.037251 1.240358 0.240101 0.055874 0.766889 0.614311 
0.220143 -0.649028 0.102905 0.216346 -0.112158 0.874546 
-0.324551 -0.434808 -0.145403 -0.661163 -0.252133 -0.669162 
0.531737 0.410023 0.094727 0.923937 0.076022 -0.337580 
0.696830 -0.754982 2.108814 0.769651 -0.623211 0.074573 
0.764583 0.551326 0.995158 -0.906864 0.212987 0.305618 
0.657248 0.066357 0.713678 -0.888582 -0.091533 0.431349 
0.609140 -0.288270 0.566391 0.885484 -0.095741 -0.420959 
-0.594038 0.043993 0.436920 -0.928149 -0.123605 -0.342735 
-1.156378 0.378030 1.705217 -0.770903 -0.188640 -0.493771 
0.756606 0.159455 0.932362 -0.865580 -0.098901 0.439935 
-0.398867 0.495083 -0.160230 -0.727035 0.154500 -0.610995 
0.434344 -0.415156 0.093625 0.817881 -0.167779 -0.526132 
1.108543 -0.153236 2.003491 -0.866176 0.317208 0.285747 
0.696558 0.272954 3.475418 0.726230 -0.234697 0.640009 
0.938476 -0.245736 2.760794 -0.814996 0.389493 -0.351500 
0.996330 0.685338 1.303156 0.783467 0.263226 -0.468485 
-0.849126 -0.585969 1.741319 -0.696785 -0.512897 -0.433701 
-1.522497 -0.253310 3.173350 -0.913923 -0.401240 0.019565 
0.058115 0.734967 0.324074 0.085688 -0.001077 0.994065 
0.138123 -1.254104 0.204882 -0.110520 0.290077 0.852848 
-0.189184 1.053364 -0.065204 -0.628999 0.336922 -0.693074 
0.512097 0.178294 0.156442 0.904577 -0.105955 -0.407006 
0.933855 -0.479387 2.055181 -0.739293 0.521556 0.296669 
-1.417520 -0.419583 2.545006 -0.799828 -0.508445 -0.306763 
0.157741 1.197285 0.218445 0.937137 -0.207451 0.144129 
-0.627289 0.164612 0.519888 -0.932797 -0.160302 -0.315838 
-1.205116 0.141925 1.772050 -0.921771 -0.141566 -0.337748 
-0.329973 0.279756 0.154361 -0.115109 -0.207273 0.957529 
-0.542058 0.424677 0.117343 -0.929202 0.090830 -0.321087 
-0.659667 0.022471 0.641241 -0.940659 -0.148257 -0.300827 
1.093160 0.747824 1.523327 0.893642 -0.097350 -0.365766 
-0.771854 -0.231888 1.076918 0.904801 0.151377 0.366325 
0.526765 -0.763925 0.482482 -0.686927 0.001057 0.602912 
-0.212007 -0.823919 0.092154 0.116785 -0.019049 0.856147 
0.928325 0.094308 1.225669 0.925910 -0.286025 -0.243853 
-0.929063 0.477675 1.285057 -0.890379 -0.313895 -0.315222 
-0.500614 -0.489389 0.404201 -0.805812 -0.156017 -0.489075 
-0.390874 -0.138107 -0.105306 -0.824160 -0.156888 -0.519039 
0.281303 -0.514718 0.102479 0.523930 -0.129648 0.834547 
-0.707305 -0.200521 0.889984 0.919480 0.092187 0.354406 
-0.241181 0.972230 0.269594 -0.762678 0.013605 0.613658 
-1.649306 0.004572 2.740951 -0.887471 -0.396817 -0.172567 
1.096050 0.002844 2.774132 -0.850468 0.224353 -0.441256 
0.816321 -0.278341 1.056269 -0.928073 0.142879 0.306535 
-0.908082 0.701038 1.270116 0.763293 0.559418 0.091821 
0.828447 0.115854 3.261526 -0.755788 0.277832 -0.571398 
0.588304 0.322162 0.297125 0.934878 -0.007165 -0.329483 
-0.594586 -0.905397 0.572451 -0.881525 0.006728 -0.403329 
1.180019 0.740281 2.235677 -0.947342 0.157622 0.101911 
-0.939011 -0.154271 1.534755 0.861537 0.209594 0.409939 
0.975431 -0.425276 1.415957 0.925608 -0.307606 -0.199354 
-1.708097 0.249518 2.603240 0.893496 0.249920 0.294670 
-0.542272 -0.561026 0.518232 0.766171 0.026714 0.492434 
-0.101889 -1.039338 -0.006149 -0.369269 -0.192700 -0.904813 
1.187478 -0.132005 2.271852 0.936127 -0.348741 0.020703 
1.193718 0.431675 2.869414 -0.915928 0.156604 -0.283615 
-0.902802 -0.585866 1.840118 0.848249 0.468330 0.198925 
0.319511 -0.886155 0.178784 -0.324611 0.080739 0.890347 
-1.622180 0.000673 2.545383 -0.782148 -0.504225 -0.356898 
0.000921 0.525134 0.334957 0.029746 -0.266652 0.962391 
-0.687532 0.186209 0.688673 -0.938057 -0.188134 -0.283477 
-0.328024 0.080470 -0.229761 -0.662923 -0.113625 -0.707999 
0.687393 -0.622601 0.811925 -0.930679 0.080400 0.321053 
-1.639245 0.692383 2.386719 -0.873062 0.252085 -0.384306 
0.796165 0.576594 1.073725 -0.892521 0.211405 0.304562 
-0.650859 -0.804711 1.144312 -0.946097 -0.287625 -0.122782 
0.928614 -0.494549 1.974181 0.820649 -0.527628 0.183409 
-0.729476 -0.318901 1.007853 0.920032 0.154088 0.326573 
-0.405959 0.687729 -0.080194 -0.671737 0.574733 -0.405526 
-0.980154 0.770287 1.427864 0.694925 0.648229 0.034220 
0.009629 -0.959419 0.073376 0.525628 -0.089574 0.829820 
-0.663805 -0.087240 0.668716 -0.941759 -0.129411 -0.304349 
-0.652187 -0.748641 1.097680 0.954641 0.235680 0.147111 
-0.046763 0.588153 0.351010 -0.127013 -0.243483 0.953525 
1.194678 0.322707 2.177670 -0.953025 0.004471 0.167993 
0.044359 0.585293 0.350571 0.121416 -0.244224 0.954435 
-1.734687 0.578695 2.615047 0.891746 0.177972 0.362208 
-1.595986 0.090506 2.420599 0.904848 0.175517 0.290691 
-1.720676 0.248008 3.098629 -0.965012 -0.230725 0.051050 
-0.256448 -0.694520 0.102155 -0.298800 -0.051215 0.898431 
-0.708113 0.582082 0.763044 -0.846308 0.233066 -0.447444 
0.811317 -0.246582 2.967354 -0.778100 0.428198 -0.418399 
-1.569350 0.155968 2.280351 -0.730473 -0.362934 -0.567150 
0.691884 -0.750863 2.037697 -0.753581 0.607985 0.081956 
0.451383 0.351874 -0.068656 0.871362 0.010857 -0.443148 
0.914841 0.332727 1.177809 0.922699 -0.279680 -0.262791 
-1.008318 0.661420 1.448894 -0.870434 -0.330370 -0.355287 
-0.307508 0.744894 0.252261 -0.666820 0.249521 0.658325 
0.183371 0.007178 0.174822 0.304758 -0.156097 0.918809 
-0.833110 -0.189324 1.186291 -0.894306 -0.250969 -0.348536 
-0.404409 0.612536 -0.121178 -0.700564 0.294576 -0.577262 
-0.331195 -0.158375 0.111960 -0.445119 -0.150019 0.831412 
-1.066051 0.672091 1.691053 0.658740 -0.114541 0.700146 
0.256375 0.725643 -0.202243 0.477039 0.552649 -0.674585 
-0.811583 0.686083 1.020691 -0.814914 0.257545 -0.440322 
0.793872 0.325225 3.390895 0.737552 -0.133807 0.632299 
0.731672 0.235409 0.879764 -0.854532 -0.149151 0.468710 
-1.319701 0.026362 1.949634 -0.874392 -0.101805 -0.433964 
-0.842451 0.365376 1.202866 0.846332 -0.133169 0.463379 
-0.702623 -0.694736 1.417165 -0.868694 -0.397304 -0.225277 
0.883100 0.403756 1.208016 -0.852167 -0.173781 0.428065 
0.192252 -0.549750 0.124850 0.302562 -0.159719 0.935422 
-1.086172 0.991940 1.687382 0.566379 0.121354 0.684245 
-1.419143 -0.442717 2.856535 -0.861257 -0.457686 -0.138682 
-0.197289 1.244832 0.321251 -0.846731 -0.437530 -0.249272 
0.496638 -0.086497 0.306367 -0.648327 -0.075599 0.656005 
1.024143 0.199217 1.431667 0.919358 -0.295879 -0.255237 
0.557487 0.514878 0.267972 0.887019 0.350287 -0.245912 
-0.818193 -0.926350 2.136453 0.674881 0.548656 0.478181 
-0.301615 0.274938 -0.293923 -0.672355 -0.016558 -0.736013 
0.523461 0.577333 0.208568 0.892544 0.371985 -0.183071 
-1.383698 -0.029469 2.071528 0.782734 0.202885 0.566386 
1.095074 0.441608 1.747202 -0.861690 -0.058644 0.438844 
0.911520 -0.499907 2.528250 -0.817692 0.517932 -0.188518 
0.019030 -0.775850 -0.060022 0.353057 -0.286864 -0.870769 
1.149540 -0.089640 1.970023 0.947050 -0.197380 0.179871 
0.495579 0.270056 0.346885 -0.752026 -0.208843 0.601062 
0.988307 0.300112 1.344177 0.919521 -0.289449 -0.262348 
-1.137937 -0.573395 2.154430 -0.805469 -0.491655 -0.314510 
0.495354 0.091700 0.339887 -0.741270 -0.140521 0.603038 
0.087573 1.115029 0.334769 -0.167199 0.260459 0.909755 
0.864580 -0.195570 1.108158 0.925404 -0.213842 -0.282353 
-1.489865 -0.149573 2.361358 0.873465 0.285545 0.311711 
-1.545349 -0.143295 2.535553 0.921121 0.254174 0.165037 
-1.060930 -0.056296 1.672022 0.907269 0.117118 0.344682 
-1.338439 -0.546218 2.447963 0.816260 0.454409 0.330178 
0.884817 -0.557221 2.198920 0.806884 -0.558032 0.163303 
-0.334962 -0.297672 -0.149372 -0.664526 -0.241495 -0.658429 
-0.139899 1.001442 -0.109037 -0.552806 0.375378 -0.728000 
-0.456874 0.023287 0.224754 0.619205 -0.124842 0.692045 
0.697712 0.259348 0.804447 -0.859977 -0.165574 0.466550 
1.127535 -0.165987 2.417671 0.886182 -0.434647 0.073102 
-0.163467 -0.340666 -0.262071 -0.432721 -0.317506 -0.825931 
0.355644 -0.725672 0.150826 0.667564 -0.217360 -0.663953 
1.029858 -0.340902 2.399316 -0.873043 0.442988 -0.097288 
-0.210736 -1.126267 0.120803 -0.586917 -0.246013 -0.709074 
-0.842939 -0.541084 1.674829 -0.753366 -0.469922 -0.395746 
1.057397 0.142320 1.591514 -0.918848 0.006774 0.198653 
-0.008919 0.939434 -0.189497 -0.349032 0.464380 -0.809314 
0.857475 -0.581555 2.120236 0.802827 -0.563451 0.150247 
-1.727722 0.261994 3.022339 0.972773 0.120596 -0.057244 
1.203701 0.590631 2.052057 0.968463 -0.186236 -0.082676 
-1.096179 -0.759114 2.323498 -0.754718 -0.532593 -0.370517 
1.081749 -0.218318 1.976376 -0.819607 0.367315 0.351839 
-0.736478 -0.430265 1.064745 -0.920509 -0.225432 -0.276094 
0.878775 0.116331 3.197114 0.774107 -0.320859 0.531421 
1.037290 -0.362129 2.152376 0.858930 -0.469128 0.155250 
-0.200419 -0.693099 -0.070808 -0.117071 -0.407852 -0.889477 
1.198738 0.080517 2.470342 -0.938430 0.230298 -0.087196 
-1.290220 -0.611870 2.420684 0.768343 0.484806 0.376443 
-0.455263 -0.095696 0.055255 -0.878223 -0.127300 -0.450244 
-1.348283 -0.552039 2.531675 0.825922 0.458165 0.288114 
0.564989 0.338681 0.556885 -0.856097 0.169238 0.431688 
1.075866 0.500354 1.636520 -0.898913 -0.192266 0.237946 
-0.640449 0.240892 0.693209 0.888245 -0.156074 0.426054 
-0.669454 0.475835 0.727596 0.882999 0.321026 0.307991 
-0.180047 -0.759632 0.102268 0.069807 -0.081196 0.890972 
-0.650738 -0.217395 0.656960 -0.943101 -0.102984 -0.315017 
0.281391 0.003183 0.137022 0.319523 -0.177492 0.899439 
0.199446 -0.458880 -0.201656 0.364414 -0.420348 -0.814483 
0.872081 0.377811 1.079029 0.924123 -0.273483 -0.265167 
0.940721 -0.047718 1.264299 0.926578 -0.281872 -0.240449 
-0.645827 -0.601322 0.797390 -0.946511 -0.114741 -0.254292 
-0.650897 -0.728181 0.673718 -0.942728 -0.000534 -0.319846 
-1.271712 0.070982 1.916990 0.694233 0.105195 0.693804 
-1.470198 -0.343140 2.854949 -0.853226 -0.464522 -0.154051 
0.457912 0.277283 0.261177 -0.711102 -0.222361 0.651629 
-1.634640 0.008230 2.893142 0.880142 0.418357 0.127969 
0.174377 1.092488 0.284731 0.774770 0.479023 -0.273137 
-1.175398 -0.235416 1.857930 -0.846563 -0.333863 -0.371704 
1.195803 0.752891 2.103871 0.996312 0.014715 0.023013 
0.697930 -0.743838 1.915370 0.758150 -0.631057 -0.074475 
-0.818601 0.034486 1.091942 -0.908115 -0.257598 -0.307365 
1.119037 0.139132 1.839855 -0.904278 0.062109 0.344200 
-0.848786 -0.445166 1.545977 0.857847 0.350238 0.346637 
-0.648225 -0.768037 1.496145 -0.838148 -0.466440 -0.216970 
-0.317990 0.655881 -0.227749 -0.556548 0.352186 -0.750812 
-1.044084 -0.499502 1.935941 -0.590867 -0.505668 -0.618742 
-0.268029 -0.286538 -0.224905 -0.522543 -0.261542 -0.797112 
1.128051 0.615557 1.720141 0.917719 -0.350523 0.051259 
-0.484383 0.113009 0.089138 -0.902010 -0.098425 -0.415047 
0.633514 -0.465740 0.618812 0.890138 -0.049622 -0.426008 
-0.401900 -0.502388 0.080217 -0.789171 -0.179303 -0.547575 
-1.756639 0.571051 2.696268 0.862666 0.293425 0.318526 
0.857075 -0.549550 1.499869 -0.864274 0.430937 0.044052 
-0.152945 1.167964 0.214086 -0.902890 -0.109909 0.176551 
0.897975 -0.514712 1.563694 0.843260 -0.471312 -0.122888 
-0.625267 0.385078 0.374818 -0.950738 0.059111 -0.277498 
0.457872 -0.583128 0.354486 0.739431 -0.170605 -0.578045 
0.297723 0.871432 0.010214 0.837683 0.393894 -0.304257 
-0.488770 -0.007190 0.309522 0.687969 -0.097716 0.619465 
-1.039684 -0.435008 1.867858 0.892120 0.417844 0.151426 
1.194175 0.171999 2.159388 -0.975775 0.067819 0.163974 
-0.038413 -1.022290 0.040187 -0.276608 -0.088468 0.927162 
0.353467 -0.355043 0.075877 0.425880 -0.083666 0.800731 
-0.730569 -0.513103 1.144518 0.926528 0.217060 0.257159 
-0.685574 -0.899144 1.890412 0.743171 0.562321 0.339003 
0.903628 0.574814 1.105191 0.899000 -0.048490 -0.369764 
0.187573 0.611654 -0.282532 0.481182 0.321271 -0.797029 
-0.459717 -0.048262 0.219246 0.588388 -0.098320 0.706425 
1.247215 0.278952 2.413046 0.907192 -0.339159 -0.197440 
-0.003138 0.530242 -0.390822 -0.420553 0.296888 -0.855116 
0.111640 -1.106905 0.014071 0.543530 -0.208145 -0.772461 
-0.390202 0.593615 0.147959 -0.235978 0.278061 0.823931 
-1.534763 0.491442 2.376960 0.835319 0.104481 0.389069 
-1.682179 0.277159 3.292102 0.969417 0.134281 -0.140665 
0.991754 0.279438 3.151748 0.807777 -0.239072 0.521218 
-1.594717 -0.068088 2.620491 0.950062 0.217048 0.097536 
0.730254 0.441723 0.894283 -0.836642 -0.196512 0.499193 
1.171730 0.447713 2.554961 -0.916967 0.106350 -0.104496 
-0.487408 -0.136927 0.159153 -0.887743 -0.125273 -0.429285 
0.360780 0.072349 -0.171173 0.719914 -0.135708 -0.626057 
-0.648489 -0.309979 0.677268 -0.944068 -0.098189 -0.304663 
0.736950 0.198747 3.397227 -0.739344 0.241424 -0.613124 
1.175344 0.415931 2.635369 -0.916183 0.126245 -0.160188 
-0.101057 0.811276 -0.214690 -0.463306 0.429721 -0.761679 
0.338598 -0.077613 -0.174903 0.653390 -0.195442 -0.675111 
1.083618 0.174875 2.947544 -0.842914 0.358612 -0.352592 
0.589084 -0.506810 0.558415 0.848870 -0.079737 -0.467253 
1.071380 -0.186787 1.580800 0.910603 -0.276897 -0.282840 
0.724403 -0.844842 1.100482 -0.921843 0.285395 0.141458 
0.172476 1.248795 0.270187 -0.252337 0.933906 0.204055 
-0.743427 0.397907 0.933406 0.857100 -0.198296 0.462836 
1.177722 0.369746 2.083620 -0.936878 -0.057847 0.198382 
-0.235122 1.095421 0.116285 -0.886832 0.420643 -0.056380 
0.670911 -0.815341 0.705744 0.901983 -0.009423 -0.409971 
-0.195408 0.357201 0.266579 -0.254625 -0.252878 0.930862 
-1.623044 0.132561 3.412258 0.953561 0.243652 -0.150422 
0.697517 -0.034602 0.801558 -0.893511 -0.035317 0.413445 
-0.978700 -0.094191 1.590524 0.870088 0.170344 0.397248 
0.911635 -0.170412 2.892982 0.778456 -0.522949 0.297776 
0.477156 -0.488931 0.345114 -0.565687 0.039571 0.688721 
-0.226558 0.420640 0.259173 -0.210799 -0.234279 0.943231 
-1.363726 0.565990 2.041277 0.683844 0.121060 0.673628 
-0.814863 -0.658436 1.791210 0.831750 0.496191 0.208115 
-0.174791 -0.452077 0.158619 -0.262724 -0.137340 0.951753 
0.172246 0.862542 -0.155264 0.556589 0.435233 -0.691492 
-0.604115 -0.186675 0.602909 0.899450 0.024631 0.377986 
0.941333 -0.233540 1.324837 -0.922878 0.190499 0.269713 
-0.450455 0.240827 0.245980 0.712817 -0.205323 0.647223 
-0.201209 1.157177 0.155681 -0.553064 0.051732 0.728162 
-0.709774 -0.655325 1.172709 -0.930897 -0.275581 -0.191413 
1.217603 0.353677 2.241494 0.916921 -0.316453 -0.155559 
0.194488 -0.777977 0.099619 -0.105504 -0.048715 0.846399 
-0.316792 0.857179 0.178076 -0.879515 0.302959 0.326144 
-0.702175 -0.391793 0.985240 0.929505 0.157645 0.291530 
0.332005 0.672380 -0.194313 0.570212 0.426015 -0.672053 
