0.169168 -0.861485 0.198058 0.146749 -0.054954 0.976307 
-1.590784 0.809688 -0.282591 -0.720727 0.005390 0.668404 
-1.456677 1.395969 -0.232278 0.590034 -0.180712 -0.694110 
0.330544 0.134976 0.036001 0.575488 0.045974 -0.797307 
-1.958664 1.082717 -0.884213 -0.789171 0.315780 0.462049 
-0.705237 0.165932 0.189849 -0.378817 -0.296081 0.864453 
0.250434 -0.092551 -0.102465 0.650042 -0.099123 -0.729761 
0.748697 -0.922471 0.014919 -0.179816 -0.213688 -0.942950 
-2.130190 1.342953 -1.165851 0.682728 -0.360918 -0.622733 
1.775971 1.789852 -0.138198 -0.098502 0.203780 -0.972473 
0.279279 -0.690593 0.194992 0.393106 -0.096515 0.885979 
0.614293 -0.121267 0.113076 0.452771 -0.183887 0.861913 
1.747654 0.465907 -0.221397 0.049678 -0.025618 0.978163 
2.359476 1.664609 -0.246813 -0.030462 0.133284 -0.985822 
-1.885675 1.700991 -0.975395 0.769030 0.005953 -0.630860 
0.970021 0.182545 0.074716 0.411137 -0.219507 0.876512 
-1.356686 1.516687 -0.092541 0.487625 -0.155248 -0.838844 
-0.227570 -0.356146 0.275318 -0.447797 -0.080522 0.854153 
1.725031 1.184974 -0.137423 0.310033 -0.053899 0.906959 
3.122684 0.991782 -0.160304 0.196261 0.010067 -0.977135 
-1.706311 0.391211 -0.388724 -0.611625 0.045688 0.770680 
2.096115 0.628651 -0.207190 0.057048 0.051228 0.962633 
3.395676 1.630471 -0.035980 0.292150 0.128986 -0.946827 
0.089537 -0.153828 -0.189675 0.496092 -0.154986 -0.826893 
0.159608 0.310676 -0.197264 0.665241 0.078242 -0.719530 
-1.886233 1.815305 -1.005014 0.762787 -0.088885 -0.633099 
-0.712067 -0.623684 0.034472 -0.399035 -0.015054 0.907627 
-0.983366 -0.792237 -0.106915 -0.302592 0.109639 0.906710 
-1.720498 1.225668 -0.597963 0.717951 -0.030360 -0.660200 
2.315129 1.088344 -0.283177 -0.056655 -0.009062 -0.994796 
-1.853078 2.056330 -0.973629 0.798011 0.207778 -0.540325 
-1.022754 0.242713 0.032296 -0.537626 -0.187548 0.815797 
-1.830667 1.271081 -0.767569 -0.829533 0.195822 0.517587 
-1.733675 1.691697 -0.745958 0.765959 -0.010675 -0.633825 
-0.316741 0.853259 0.358086 -0.872430 0.335827 0.317013 
-1.561903 1.463001 -0.383564 0.663591 -0.232007 -0.663618 
-0.913147 -0.649486 -0.090984 -0.397027 -0.069881 0.901115 
0.287177 -0.798322 0.063190 -0.048978 -0.276451 -0.952340 
0.323855 0.532297 0.457505 0.259251 -0.167926 0.926789 
0.187913 1.243321 0.466525 0.861847 -0.440248 -0.202230 
-2.352008 0.640366 -1.151857 0.699851 -0.256352 -0.663823 
-0.363306 0.113424 0.303074 -0.259066 -0.304102 0.909947 
-2.626137 1.900260 -1.588971 -0.560494 0.012109 0.827014 
-1.430036 1.748968 -0.228205 0.816442 0.348841 -0.359659 
-0.876929 0.925523 0.178143 0.634655 0.184330 -0.744938 
-0.034644 0.233472 -0.286212 -0.559934 0.051209 -0.819680 
0.088935 -0.907308 0.111517 0.035289 -0.421809 -0.890970 
2.993570 1.710628 -0.153815 0.216114 0.110043 -0.968594 
-1.310674 0.171474 -0.164140 -0.518805 -0.086083 0.834597 
1.797038 -0.045077 -0.215738 0.170936 0.045908 -0.954270 
0.982212 0.129440 -0.024952 -0.157260 0.128030 -0.917283 
-0.690093 -0.832855 -0.013447 0.130770 -0.061078 -0.960965 
-0.669508 0.220011 0.229653 -0.355676 -0.327480 0.865836 
-0.011615 -0.294843 -0.193845 -0.386346 -0.303795 -0.847784 
0.169055 -0.435205 0.299074 0.258830 -0.137557 0.948778 
0.297604 0.407983 -0.074707 0.717764 0.087053 -0.685118 
0.881002 0.365308 0.060408 -0.162121 0.104866 -0.947957 
-1.310184 0.404883 -0.175456 0.456072 0.004061 -0.863600 
-0.846563 0.808650 0.176850 0.678699 0.210070 -0.681557 
-1.593665 1.143178 -0.369619 0.675539 -0.292615 -0.585658 
-1.613592 1.715041 -0.552835 0.737982 -0.052736 -0.663235 
1.301085 0.441180 -0.096240 -0.235534 0.051504 -0.963383 
2.424227 1.613597 -0.245483 0.017269 0.162527 -0.978943 
-1.282719 -0.046701 -0.159942 -0.459729 -0.156608 0.872457 
-1.667062 -0.250539 -0.403592 -0.442416 -0.155262 0.878165 
-0.216186 -0.081944 0.301676 -0.333128 -0.202779 0.879425 
0.494402 0.328080 0.104736 0.336223 0.163463 -0.857741 
-0.575526 0.297789 0.086072 -0.225097 0.116543 -0.877456 
-1.718448 1.816862 -0.759712 0.772022 -0.083589 -0.624213 
2.794555 1.512550 -0.212763 -0.109119 -0.026388 0.982424 
-2.305573 1.711782 -1.355608 -0.629298 0.164394 0.739593 
1.788199 0.069043 -0.215268 0.131276 0.032372 -0.959321 
2.971404 0.881311 -0.193796 -0.140308 0.000082 0.985500 
-0.229851 -1.091400 0.178281 0.254231 -0.356648 -0.894048 
1.368945 0.227790 -0.143993 -0.238814 0.100448 -0.957416 
-0.412763 -0.749705 0.112771 -0.441713 -0.013073 0.886250 
0.751411 0.566312 0.223432 0.118067 0.225681 0.930732 
-1.701639 0.983126 -0.501993 0.766700 -0.333452 -0.463686 
-0.300561 0.284904 -0.070452 -0.744122 0.050072 -0.652010 
-0.228460 1.107209 0.290627 -0.887424 0.430548 -0.061695 
2.983799 1.630494 -0.159973 -0.209602 -0.211759 0.943963 
3.205202 1.322540 -0.128664 -0.230189 -0.065290 0.968312 
-0.729205 -0.480502 0.021690 0.174079 -0.022239 -0.950384 
-1.888986 1.612748 -0.953681 -0.796380 0.228708 0.552865 
-0.608318 -0.739587 0.066414 -0.389294 0.015649 0.913942 
-2.008735 1.048873 -0.928950 -0.778847 0.311940 0.479444 
1.076891 -0.133400 -0.046117 0.409019 -0.127750 0.898104 
-0.641626 -0.661241 0.057670 -0.401842 -0.003662 0.907075 
1.479316 1.011443 -0.148484 -0.116348 -0.062732 -0.987138 
0.107827 -0.637131 0.000111 0.032964 -0.378504 -0.920998 
-1.607523 1.549566 -0.484585 0.653036 -0.320424 -0.646755 
-1.031507 -0.059477 -0.054984 0.341811 0.090200 -0.925855 
-1.393516 0.482489 -0.221681 0.490853 -0.029122 -0.840844 
-0.236335 1.029338 0.179849 -0.805369 0.355786 -0.396726 
-1.392640 0.338311 -0.233572 0.498052 -0.003491 -0.838943 
-1.597853 1.076768 -0.336314 0.634425 -0.237092 -0.675368 
2.318258 0.296233 -0.188750 0.041977 -0.087562 -0.986492 
0.162776 1.057760 0.382517 0.509903 0.826802 0.158849 
0.162403 1.077208 0.541500 0.011810 -0.062297 0.945788 
-0.776693 -0.132794 0.028592 -0.492109 -0.149875 0.853515 
0.625691 -1.055317 0.076649 -0.190735 -0.261615 -0.944433 
0.013099 -1.233284 0.282762 0.209547 -0.548872 -0.805989 
1.149189 -0.516354 -0.166759 0.391590 -0.108930 0.903020 
-2.291498 1.198183 -1.270102 -0.671118 0.090437 0.719765 
0.201364 0.755264 -0.018450 0.542164 0.502079 -0.643962 
-0.361644 0.723531 0.195499 -0.882968 0.390103 -0.248982 
-0.592114 0.051635 0.027961 -0.223535 0.088911 -0.868782 
2.882211 1.345340 -0.203550 0.226542 0.175532 -0.952535 
-2.121431 1.032367 -1.057082 -0.747417 0.252321 0.583776 
-1.088997 -0.275744 -0.129037 0.319610 0.095668 -0.922617 
2.025672 1.012942 -0.221433 0.277346 0.073840 0.942596 
0.671731 0.551862 0.195145 -0.174741 0.509619 -0.644535 
-1.196115 0.958982 -0.047831 0.385719 -0.067632 -0.902148 
2.303718 0.407398 -0.199267 0.209572 0.193213 0.922396 
0.454008 -0.480704 0.084397 0.483212 -0.081799 0.864897 
-0.156463 1.169967 0.535042 0.422207 0.249191 0.837191 
-0.184807 0.434374 0.469005 -0.140951 -0.295342 0.943118 
-2.684881 2.130424 -1.616977 -0.542168 -0.038499 0.838326 
-1.245958 1.184390 -0.049500 0.414426 -0.119995 -0.887682 
-0.360128 0.591912 0.461516 -0.460484 -0.080652 0.850047 
-0.579636 0.496775 0.385206 -0.171926 0.058828 0.967847 
-1.882071 0.533476 -0.516257 -0.668682 0.119277 0.730809 
0.822858 0.098236 -0.000845 0.007606 0.112710 -0.902571 
-0.752673 0.058688 0.121814 -0.422006 -0.238879 0.861098 
-2.299260 0.223631 -0.891267 0.696985 -0.271041 -0.657784 
-1.734771 1.009295 -0.585882 0.841325 -0.413340 -0.322704 
-0.591736 -0.270136 0.055862 -0.519039 -0.129779 0.842776 
-0.093837 -0.602863 -0.020241 -0.046372 -0.391732 -0.916348 
0.362448 0.346415 0.098186 0.581555 0.179998 -0.776558 
1.246786 -0.221839 -0.156699 0.411032 -0.153727 0.893593 
-2.529214 2.133073 -1.514778 -0.558743 0.037123 0.813958 
0.981412 0.786164 0.060635 -0.216179 -0.012034 -0.974339 
-0.454416 0.062268 0.257596 -0.368839 -0.298312 0.863583 
-1.643153 1.340145 -0.453549 -0.894865 0.108873 0.353143 
-0.212710 1.244759 0.539329 0.545081 0.652104 0.451458 
1.787534 0.397917 -0.206489 0.028951 -0.026642 -0.969503 
-1.315838 0.949258 -0.076431 -0.746927 -0.124328 0.630633 
-0.101540 -0.284738 -0.157362 -0.477027 -0.231047 -0.822662 
-1.880563 0.952630 -0.741749 0.654087 -0.035282 -0.745229 
0.896057 -0.852297 -0.038813 -0.232185 -0.188960 -0.930092 
0.549638 0.379206 0.110430 0.267151 0.196042 -0.853675 
0.321830 -1.045161 0.149101 0.059999 0.019195 0.992399 
-1.225945 0.707805 -0.095803 0.400789 -0.029652 -0.892298 
1.151380 0.477829 0.002122 0.510729 -0.142109 0.823202 
-0.083358 -0.773430 0.058929 -0.072437 -0.391724 -0.903403 
0.988856 0.823203 0.147444 0.456217 -0.042470 0.878854 
0.428845 -0.400647 0.084144 0.513918 -0.108917 0.849463 
-0.704043 0.466087 0.112107 -0.054037 0.265066 -0.860529 
-0.993086 0.145651 0.034207 -0.468895 -0.201252 0.851637 
0.869641 -0.121079 0.011841 0.451777 -0.133883 0.878442 
0.943114 0.284692 0.100442 0.476196 -0.205494 0.843519 
0.998451 1.125345 0.111990 0.123213 0.117748 0.906654 
0.046247 0.181822 -0.272945 0.551603 0.030803 -0.824958 
2.805516 1.685743 -0.203473 0.165323 0.095890 -0.980153 
0.875465 -0.314551 0.019881 0.395188 -0.075600 0.907123 
-1.245968 -0.200732 -0.186617 -0.443210 -0.182157 0.873556 
-1.054489 0.858080 0.027173 0.314697 -0.016138 -0.943376 
1.191799 1.490843 0.017046 -0.867229 0.342055 -0.153058 
-1.515878 1.187567 -0.176000 -0.775495 -0.104570 0.588148 
0.838090 0.481722 0.084199 -0.199791 0.214192 -0.942707 
-1.629023 1.022368 -0.369294 0.654662 -0.241105 -0.653016 
-1.251766 0.279357 -0.118150 -0.552573 -0.101534 0.805453 
-1.443195 1.023522 -0.193199 0.507445 -0.137362 -0.830199 
-0.406236 0.619235 0.203202 -0.733921 0.403565 -0.453965 
-1.705632 1.696441 -0.627630 -0.838957 0.175647 0.462043 
0.365794 -0.565843 0.137671 0.493997 -0.085386 0.858677 
-1.495120 -0.391764 -0.378946 0.398023 0.215802 -0.888846 
-1.700825 1.231600 -0.514801 -0.883203 0.203030 0.360778 
1.226735 -0.049679 -0.129783 -0.333547 0.135264 -0.928244 
-2.168795 0.982186 -1.091046 -0.740146 0.264209 0.580386 
2.510221 0.962825 -0.262739 -0.019935 -0.023752 0.989214 
-0.281546 -0.290637 0.258654 -0.561080 -0.157602 0.783216 
-1.228505 0.145752 -0.118228 -0.505795 -0.108968 0.843136 
-2.317018 1.133198 -1.282161 0.666470 -0.265358 -0.683809 
-0.103771 0.787241 0.506202 -0.163037 -0.064186 0.979361 
-1.378022 1.061759 -0.147660 0.476417 -0.128934 -0.849190 
-2.403515 1.617728 -1.420524 0.597257 -0.001235 -0.796899 
-2.044708 1.656517 -1.146629 0.668748 0.040898 -0.733324 
-0.257400 -0.436486 -0.057996 -0.553111 -0.200468 -0.796357 
0.163425 0.550960 -0.118020 0.564951 0.250420 -0.743124 
-1.975843 0.825289 -0.786512 -0.819381 0.524477 0.199492 
0.313067 0.175564 -0.024624 0.652038 0.033816 -0.732270 
0.380173 -0.481102 0.115315 0.510443 -0.101059 0.850805 
-2.541480 1.936028 -1.533622 -0.574723 -0.020771 0.812645 
1.507794 0.739279 -0.134450 0.315782 -0.078338 0.900673 
-2.001218 0.872883 -0.838960 -0.805259 0.467215 0.279035 
-2.055333 1.190898 -1.038568 -0.741418 0.169781 0.637090 
-0.545327 -0.357525 0.012823 -0.151601 0.003834 -0.910099 
-1.352767 1.341024 -0.043212 -0.800940 -0.197038 0.551195 
-1.848292 -0.071974 -0.440314 -0.486290 -0.031730 0.865319 
-1.720304 0.104099 -0.388158 0.495087 -0.000319 -0.853366 
0.473026 -0.925662 0.102127 0.351263 0.052986 0.931740 
-0.815918 0.474940 0.111986 0.356738 0.403568 -0.744736 
-0.067695 1.268651 0.350014 -0.152887 0.877125 0.444714 
-1.765226 1.003287 -0.649279 0.764529 -0.144952 -0.616872 
-0.312625 0.403835 -0.016008 -0.675099 0.104264 -0.720082 
1.500331 0.664661 -0.134868 0.309119 -0.069914 0.906354 
-0.326839 0.247974 0.361442 -0.198974 -0.300242 0.930065 
-1.195416 -0.073853 -0.127637 -0.455842 -0.173648 0.871082 
1.582255 0.308133 -0.217343 0.192988 -0.106766 0.963586 
2.224911 1.596308 -0.238389 -0.029535 0.210939 -0.972400 
-2.218017 1.148742 -1.203018 0.684382 -0.298745 -0.653986 
3.279856 1.479300 -0.093972 -0.255471 -0.104495 0.959949 
0.390941 0.505457 0.424253 0.283363 -0.111322 0.912631 
-0.258276 -0.341303 -0.053294 -0.583706 -0.175559 -0.786301 
1.456707 -0.007376 -0.204064 0.234483 -0.182195 0.939735 
0.148861 0.293603 0.426447 0.116074 -0.313338 0.940708 
0.107187 1.245607 0.371855 0.171620 0.892289 0.347733 
-1.398842 1.558109 -0.048686 -0.911846 0.114696 0.336554 
-0.165244 0.427040 -0.157740 -0.653001 0.167012 -0.706270 
0.075506 1.212672 0.121487 0.530202 0.185810 -0.817722 
1.510998 1.099317 -0.159763 -0.112167 -0.080330 -0.985080 
-2.037307 2.001712 -1.187095 0.668976 -0.065833 -0.735086 
0.742720 0.186174 0.188628 0.369181 -0.284585 0.875537 
2.749860 1.036192 -0.235335 -0.134507 -0.089006 0.975295 
1.742979 0.017228 -0.261723 0.045739 0.093128 -0.968840 
-0.334354 -0.135090 0.271772 -0.459087 -0.220044 0.825904 
-1.076471 0.778153 0.005204 0.327345 -0.007086 -0.936245 
-1.386223 0.151491 -0.223915 0.455398 0.042301 -0.870956 
-1.298327 0.500388 -0.159680 0.445501 -0.010008 -0.868429 
0.497120 0.664089 0.368619 0.044523 0.660260 -0.668746 
1.843193 1.510103 -0.168513 -0.061504 -0.159073 -0.965588 
2.520818 0.782090 -0.257731 0.043256 0.065818 0.978460 
-0.274520 0.893196 0.165752 -0.812892 0.348140 -0.390172 
0.300279 -0.981528 0.113977 -0.223603 -0.275148 -0.924996 
0.577906 0.315069 0.310250 0.351320 -0.352063 0.860274 
-1.535204 0.738382 -0.287590 0.546730 -0.107580 -0.803336 
2.857879 1.418687 -0.201701 -0.108167 0.042878 0.977876 
-2.541354 1.303889 -1.485178 0.617751 -0.151803 -0.762458 
-0.184046 1.238362 0.467220 -0.873365 -0.415785 -0.205819 
0.196547 0.372143 -0.151818 0.685615 0.133158 -0.684451 
1.951346 1.051987 -0.235904 0.091512 0.221661 -0.960940 
1.531165 0.823875 -0.144248 0.308056 -0.098204 0.904060 
-0.377961 0.315901 0.372539 -0.193808 -0.251826 0.944988 
-0.866906 0.145865 -0.005690 0.105284 0.116325 -0.898242 
-0.157082 -0.340545 0.305428 -0.265271 -0.027671 0.952012 
-2.111529 1.881845 -1.239851 -0.675435 0.036484 0.728433 
3.061738 1.171522 -0.167068 -0.168715 0.004549 0.976939 
-1.880037 0.204232 -0.480031 0.572013 -0.085753 -0.798480 
1.960696 1.216199 -0.204395 0.247393 -0.043250 0.958585 
-0.282712 0.799125 0.424990 -0.617257 0.325058 0.637541 
1.330335 1.573340 -0.084508 0.022168 -0.008765 -0.976127 
-2.296558 1.948398 -1.384424 0.603424 -0.049499 -0.794654 
0.390324 -0.974290 0.107736 0.008884 -0.167652 -0.976324 
0.195823 -0.680027 0.029860 0.148195 -0.268034 -0.946236 
2.554341 1.251507 -0.268607 -0.048868 -0.211046 -0.968883 
1.385198 1.527391 -0.040200 0.506662 -0.181445 0.785910 
-2.133972 0.510416 -0.828093 -0.650267 0.125903 0.727775 
-2.465949 1.608974 -1.463103 -0.606809 0.139493 0.767173 
0.409220 -0.911084 0.133171 0.361806 0.027149 0.922246 
1.718929 0.872178 -0.200426 0.057903 -0.183006 0.939308 
1.998148 0.130540 -0.153027 -0.283494 0.024854 0.944246 
2.991625 1.322727 -0.178911 0.232185 0.139042 -0.957263 
-0.373753 -1.309116 0.173655 0.392568 -0.255665 0.650822 
2.634648 1.346611 -0.243656 -0.070264 0.024254 0.996357 
-0.042185 -0.671903 0.031800 -0.214682 -0.397974 -0.882515 
2.402038 0.083421 -0.156914 -0.020016 -0.152723 -0.986977 
3.196827 1.474468 -0.121542 0.250089 0.087607 -0.963606 
-1.141989 1.070183 0.073482 -0.596156 -0.108869 0.766879 
-2.296865 0.467921 -1.004018 -0.748521 0.327864 0.536994 
-0.470945 0.347051 0.114089 -0.397821 0.184455 -0.821914 
0.059125 0.113332 -0.256771 0.545224 0.003621 -0.828786 
-1.687395 0.680021 -0.389906 0.619790 -0.132839 -0.758996 
0.755499 0.062035 0.005931 0.073292 0.101230 -0.898030 
0.967473 -0.795012 -0.072674 -0.248223 -0.147109 -0.927226 
-0.489121 -0.259825 0.005513 -0.280785 0.025755 -0.889750 
-0.201666 -0.906610 0.179451 -0.130922 -0.038921 0.981289 
0.684846 -0.946554 0.036077 -0.154587 -0.216289 -0.949436 
3.166526 1.562275 -0.119016 0.246223 0.099558 -0.962733 
0.025621 0.914391 -0.010871 0.386108 0.435962 -0.803721 
3.064916 1.344786 -0.160844 0.239382 0.121377 -0.959015 
3.133942 1.393783 -0.141314 -0.206154 -0.041523 0.968515 
1.078921 1.283710 0.065322 -0.797385 0.276898 -0.366039 
0.424449 0.191500 0.315475 0.258930 -0.335474 0.904189 
-1.940484 0.607656 -0.650284 0.731828 -0.324746 -0.553070 
1.736968 0.091423 -0.261223 0.002841 -0.102509 0.969186 
0.923705 -0.363459 -0.012427 0.390800 -0.077526 0.908304 
1.153293 -0.000447 -0.083704 -0.320548 0.122987 -0.934025 
1.646409 0.342546 -0.253034 -0.128567 0.073836 -0.982856 
-0.385930 0.399053 0.402888 -0.172984 -0.217940 0.958656 
-0.545814 -1.013520 0.079645 0.124840 -0.235154 -0.955550 
-0.311821 -0.319338 0.028924 -0.479953 -0.001017 -0.875180 
0.436612 0.554293 0.386384 0.346695 0.145534 0.854765 
-0.658747 0.612717 0.283332 -0.107564 0.140804 0.931255 
-1.983731 1.321960 -1.015899 0.734308 -0.276034 -0.606681 
-0.753564 0.127948 0.151074 -0.397755 -0.269000 0.864091 
0.119764 -0.075657 -0.192850 0.547149 -0.080782 -0.817816 
-2.256484 0.190677 -0.823968 0.681904 -0.253321 -0.679455 
-0.069736 0.373206 0.456249 -0.051239 -0.341703 0.935807 
0.224712 -1.208994 0.202441 -0.354849 -0.344508 -0.845075 
-1.957771 1.268556 -0.976753 0.751212 -0.233734 -0.609148 
-2.144213 0.728480 -0.943337 -0.775156 0.409571 0.390214 
-1.755358 1.139880 -0.637925 0.708551 0.044663 -0.686973 
-0.164854 -0.613067 0.244858 -0.220349 -0.239371 0.945170 
1.197648 0.894116 0.017480 0.564929 -0.133997 0.772761 
2.664798 1.905926 -0.189008 -0.057603 0.295124 0.944490 
-1.014961 1.128951 0.112862 0.717707 0.249854 -0.548353 
0.349794 0.782330 0.268664 0.912875 0.349685 -0.069359 
-0.828557 0.281859 0.044543 0.110351 0.120157 -0.920592 
-1.122443 0.956097 -0.002356 0.349744 -0.049790 -0.923606 
-0.162013 -0.687352 0.226676 -0.187494 -0.190344 0.958443 
-0.073807 -0.719181 0.246846 -0.270252 -0.116284 0.942228 
1.728464 1.308412 -0.166042 0.043727 0.052346 -0.963379 
-0.142423 0.373793 0.459494 -0.109968 -0.333457 0.935385 
-1.948472 -0.017036 -0.501190 0.529161 -0.066254 -0.828670 
-2.440476 1.192556 -1.386751 -0.652953 0.126990 0.737055 
-0.317500 -0.905637 0.155302 -0.205849 -0.029463 0.956969 
-2.005692 1.554540 -1.082162 0.699638 -0.426390 -0.568964 
-2.301097 1.802827 -1.367917 0.620837 -0.068484 -0.776948 
-1.317493 -0.202954 -0.242922 0.386734 0.171230 -0.902551 
-1.269779 0.778702 -0.117151 0.418110 -0.052444 -0.880653 
0.520992 -0.027648 0.196967 0.417700 -0.242568 0.860430 
-0.652399 0.120787 0.025655 -0.166492 0.105057 -0.867853 
1.335621 0.880031 -0.086545 -0.156367 -0.040903 -0.983889 
-0.025139 1.420683 0.196651 -0.436849 0.843063 0.253006 
1.446032 0.188533 -0.168494 0.260689 -0.137085 0.939970 
-2.013385 0.717409 -0.814222 0.722307 -0.286764 -0.625295 
-0.898103 -0.776445 -0.090559 -0.356117 0.007315 0.907158 
0.242512 -0.938560 0.105229 -0.214990 -0.327511 -0.911204 
-1.987758 1.496277 -1.036923 -0.733749 0.027242 0.657939 
-1.883018 0.097668 -0.473467 0.538576 -0.057874 -0.823057 
-1.304347 1.746086 0.011844 -0.795919 0.425486 0.203773 
0.154389 1.111507 0.335416 0.658671 0.219231 0.568455 
-0.162292 -0.465387 -0.066868 -0.401418 -0.361930 -0.820332 
0.108588 -0.352024 -0.141182 0.456262 -0.275750 -0.826012 
-0.738601 0.321799 0.209569 -0.449015 -0.299370 0.824497 
-1.588119 0.684341 -0.299392 -0.703224 0.031951 0.694122 
-0.523470 0.056235 0.227478 -0.396396 -0.287394 0.854984 
0.358870 -0.431307 0.029948 0.374616 -0.029674 -0.897643 
1.519511 1.350147 -0.140075 -0.149965 -0.086189 -0.956513 
-0.526911 -0.310184 0.068885 -0.525634 -0.126275 0.839359 
0.277735 0.980965 0.267639 0.909731 0.357875 -0.092715 
0.173031 -0.955805 0.120862 -0.139043 -0.389834 -0.900614 
-2.354582 1.739691 -1.398255 0.603292 -0.022039 -0.791949 
-1.319752 -0.506130 -0.296643 -0.407905 -0.177883 0.881466 
1.708820 0.402885 -0.264163 -0.097309 0.052140 -0.986936 
-0.035872 0.834380 0.524277 -0.147172 -0.161050 0.971341 
1.237272 0.651966 -0.018515 0.490427 -0.117233 0.820715 
-0.835890 -0.653550 -0.060400 0.195738 -0.005193 -0.947137 
-1.967415 1.661536 -1.059214 0.718319 0.037666 -0.683265 
-1.556134 1.710700 -0.367867 -0.880705 0.175231 0.376288 
1.416682 1.591818 -0.058822 0.506270 -0.333418 0.773651 
-2.032891 1.263626 -1.033978 -0.734420 0.131329 0.647365 
0.104826 1.097557 0.506095 -0.078573 0.189074 0.919450 
0.129986 0.626133 0.522215 0.081084 0.189088 0.975945 
-1.583026 1.871599 -0.510832 0.826281 0.309802 -0.398036 
-0.025107 -0.519743 0.295496 -0.221132 -0.185843 0.943058 
3.207545 1.240936 -0.131731 -0.227457 -0.060152 0.970518 
0.112217 -0.102214 0.328497 0.159461 -0.128552 0.971069 
0.701794 0.217118 0.043981 0.131970 0.120566 -0.890783 
0.896616 0.646131 0.071908 -0.341433 0.158530 -0.900766 
0.254029 1.046295 0.340024 0.906968 0.391744 0.100868 
-0.160265 -0.246921 0.310941 -0.248833 -0.076985 0.947984 
0.647845 -0.299991 0.007639 0.073899 0.013408 -0.921253 
1.440762 1.054963 -0.096775 0.402020 -0.160905 0.854699 
-2.426739 1.680917 -1.443698 0.588508 -0.001396 -0.804383 
-1.505945 0.690258 -0.242614 -0.702696 -0.002274 0.691480 
-0.328975 -0.341639 0.216554 -0.599760 -0.147486 0.774947 
-2.124962 0.865809 -0.984735 -0.769231 0.392311 0.405665 
-1.826564 0.966962 -0.686021 0.674779 -0.027800 -0.726943 
-0.723620 -0.082705 0.074763 -0.468367 -0.183280 0.854272 
-0.089180 0.880645 0.524065 -0.228536 -0.065455 0.962763 
0.270571 0.806112 0.086443 0.679891 0.451630 -0.527753 
0.172463 0.377719 0.457931 0.127883 -0.323505 0.936804 
2.659764 1.664284 -0.232836 -0.093780 -0.120644 0.984876 
1.382679 -0.147668 -0.226440 -0.361856 0.162053 -0.916004 
1.208238 -0.141517 -0.137049 -0.319002 0.120722 -0.929126 
0.436523 -0.193558 0.025528 0.369705 0.028562 -0.882662 
-0.566000 -0.482103 0.063986 -0.472997 -0.067791 0.869023 
2.531192 1.066485 -0.269121 -0.021595 -0.125366 -0.981957 
-2.105217 1.151428 -1.080346 -0.731872 0.170990 0.647539 
2.336358 0.223766 -0.174056 0.134124 0.172157 0.952836 
-2.230667 1.688995 -1.297021 -0.643968 0.206998 0.716057 
0.736720 0.385597 0.238134 0.466600 -0.254614 0.826781 
1.543177 1.645636 -0.068249 0.387130 -0.046422 0.904518 
-0.530764 0.535360 0.184621 -0.302492 0.422108 -0.645584 
-1.885759 1.784640 -0.911814 -0.761294 0.123056 0.593484 
0.252547 0.908539 0.133053 0.754566 0.349227 -0.498095 
-0.427200 0.567994 0.376099 -0.354321 0.175103 0.844365 
-0.029681 0.587841 0.528849 -0.069053 -0.280758 0.955790 
3.132508 1.299687 -0.145766 -0.201425 -0.033910 0.971186 
0.013786 0.478252 -0.234668 0.511614 0.275257 -0.803707 
-0.255708 1.037233 0.262983 -0.893824 0.378538 -0.109534 
0.960055 0.651990 0.140371 0.639928 -0.136344 0.753858 
0.994163 0.516800 0.090938 0.592103 -0.161404 0.782645 
0.196728 0.784673 0.482667 0.341956 0.133177 0.902172 
-0.176405 -0.104012 -0.151456 -0.597926 -0.089056 -0.778085 
2.798729 1.090405 -0.227414 0.055138 -0.132614 -0.973158 
-1.658266 0.943690 -0.382587 0.653148 -0.218651 -0.675405 
-0.207172 0.361126 -0.147818 -0.709300 0.114247 -0.664051 
-0.217326 -0.771124 0.198835 -0.162040 -0.150239 0.965495 
0.842572 0.014871 0.067711 0.428207 -0.192205 0.875237 
2.987313 1.824374 -0.139828 0.224302 0.251632 -0.929989 
-0.405023 -0.287725 0.018089 -0.374618 0.015850 -0.884174 
0.290662 -0.608132 0.208013 0.505388 -0.111053 0.849103 
2.634801 0.889881 -0.261501 0.022729 -0.116220 -0.986173 
1.324825 -0.298678 -0.215211 0.410038 -0.162526 0.892238 
-0.361658 -1.119966 0.111446 -0.010365 -0.105009 -0.972668 
1.575383 1.312315 -0.106753 0.228375 -0.211306 0.843166 
-0.972492 0.702903 0.150102 -0.463408 -0.060912 0.868327 
0.211384 -0.247113 0.289658 0.371932 -0.119261 0.881082 
-0.368581 -1.171390 0.169173 0.061199 0.047655 0.982813 
-1.878293 1.374296 -0.893168 0.777733 -0.256800 -0.560583 
1.546250 0.369305 -0.190084 0.220329 -0.093316 0.958287 
-0.502479 0.383755 0.388651 -0.249223 -0.216888 0.922588 
0.451174 -0.275166 0.010777 0.339853 0.011599 -0.890173 
-1.726356 1.636889 -0.688612 -0.851653 0.210515 0.457378 
2.897006 1.640006 -0.180453 -0.179905 -0.189139 0.954715 
-2.297334 0.392623 -0.974415 0.703248 -0.260922 -0.651718 
0.430306 -0.836424 0.109402 0.391173 0.018254 0.911549 
-1.441501 -0.362698 -0.339810 -0.427469 -0.229476 0.871896 
-1.448521 1.687784 -0.194677 -0.921181 0.194619 0.305095 
1.409550 1.515555 -0.111380 0.130956 0.149727 -0.977084 
-0.272692 0.406722 -0.105047 -0.740231 0.077873 -0.659433 
0.846890 0.796218 0.182509 0.308091 0.072597 0.931480 
1.530395 0.000375 -0.247689 -0.141411 0.159326 -0.968817 
1.162163 0.249136 -0.026046 0.450849 -0.152880 0.867769 
-2.342001 0.837100 -1.232159 -0.704456 0.228266 0.670503 
0.366351 0.634743 0.444411 0.550969 0.050330 0.791781 
-0.486886 -0.177473 0.017189 -0.300558 0.040782 -0.881272 
0.435585 -0.317427 0.109367 0.499076 -0.140113 0.849104 
-1.050705 0.892955 0.110051 -0.576848 -0.117771 0.778055 
-1.621688 1.621275 -0.552343 0.756986 -0.123521 -0.633087 
0.264352 0.772493 0.464438 0.485413 0.288874 0.814217 
2.506067 1.537543 -0.246918 0.022414 -0.014468 0.987481 
-0.493920 -0.107721 0.170990 -0.450633 -0.222027 0.847177 
-0.226414 0.286333 -0.157421 -0.737320 0.040998 -0.658312 
-0.251821 -0.846584 0.175599 -0.137152 -0.105835 0.973745 
1.001306 -0.406872 -0.063579 0.391559 -0.089131 0.906303 
1.211737 0.278946 -0.073143 -0.281545 0.089349 -0.949713 
0.985753 0.748330 0.126671 0.645770 -0.131342 0.746205 
1.651252 -0.039410 -0.305192 0.117146 -0.185816 0.971401 
0.172324 0.636748 -0.102725 0.544250 0.338015 -0.737873 
-1.747221 -0.093383 -0.383781 -0.463365 -0.069692 0.881865 
0.378537 -0.781739 0.150068 0.429601 -0.021491 0.891135 
-0.339593 0.770110 0.391596 -0.766781 0.394929 0.430634 
0.276563 -0.671047 0.039232 -0.065664 -0.325102 -0.931490 
2.174067 1.535882 -0.231375 -0.004894 0.266300 -0.961967 
-1.632316 0.630754 -0.360548 0.594436 -0.111141 -0.774527 
2.551693 0.420745 -0.213219 0.029074 -0.100498 -0.992032 
-1.466451 0.896245 -0.224246 0.516296 -0.119880 -0.823397 
2.109117 1.305390 -0.236820 -0.171518 -0.000479 -0.975303 
0.165970 1.225142 0.297941 0.656235 0.716813 -0.106964 
0.960395 0.922599 0.053889 -0.601804 0.104364 -0.782288 
2.013564 1.152512 -0.217735 0.229294 -0.007033 0.967926 
0.334166 0.647850 -0.004289 0.703609 0.308234 -0.623506 
-1.540218 1.800763 -0.459025 0.814549 -0.041272 -0.578091 
0.079366 1.206900 0.444450 -0.224517 0.741356 0.624363 
1.803960 1.394568 -0.169126 -0.086680 -0.019944 -0.972703 
-1.924502 1.307618 -0.923112 -0.786660 0.179102 0.588024 
0.689337 0.469510 0.111560 0.067268 0.242399 -0.869539 
0.086982 -0.282793 -0.164440 0.456172 -0.244093 -0.830053 
-1.719485 1.972430 -0.772552 0.833951 0.173210 -0.488529 
2.985384 1.164376 -0.184289 -0.139252 0.036250 0.979487 
0.107007 0.750583 -0.054617 0.462210 0.436305 -0.744710 
0.685432 0.310693 0.248947 0.391482 -0.307775 0.853776 
2.545689 1.894637 -0.200882 0.055210 0.431002 -0.871571 
-2.233320 1.229990 -1.233963 0.670604 -0.326823 -0.652373 
1.060325 1.051794 0.025675 -0.278599 -0.013534 -0.943920 
-0.823284 0.025039 0.074523 -0.441992 -0.208875 0.861506 
-1.782347 1.497854 -0.769480 0.771193 -0.292849 -0.537976 
1.248395 0.204884 -0.069128 0.380338 -0.140053 0.904514 
2.264012 0.240255 -0.174361 -0.090524 0.051456 0.972467 
1.377886 0.137593 -0.142682 0.295462 -0.150196 0.928246 
0.788138 0.505723 0.231997 0.300150 0.141338 0.914754 
2.717034 1.325144 -0.243029 0.213034 0.220720 -0.947463 
1.379243 -0.021589 -0.188809 -0.248800 0.156377 -0.945872 
-0.342140 0.801524 0.313213 -0.882111 0.385723 0.121121 
-2.168783 1.695812 -1.253151 -0.657984 0.215669 0.703122 
0.720705 -0.820608 -0.000229 0.358593 0.002202 0.924835 
0.644836 0.165215 0.041196 0.209500 0.117741 -0.878713 
2.032223 0.267193 -0.172150 -0.269168 -0.011182 0.946729 
-2.280683 0.789112 -1.135877 -0.727535 0.286894 0.580718 
-0.106720 0.393203 -0.202857 -0.613011 0.167255 -0.739918 
2.353730 1.383211 -0.252332 0.036319 -0.123604 0.979627 
2.336590 0.482150 -0.211693 0.201108 0.183561 0.922901 
1.609990 -0.106684 -0.301946 0.178297 -0.195709 0.952800 
0.245856 -0.323865 0.269694 0.476575 -0.110235 0.834755 
0.016620 -0.874444 0.101840 0.405010 -0.377248 -0.812055 
-0.702853 0.370953 0.258849 -0.451146 -0.274656 0.824162 
-0.327267 -0.624006 0.028642 -0.314896 -0.127449 -0.891281 
-0.459565 -0.680009 0.062811 -0.082715 -0.077821 -0.946021 
1.332254 -0.208138 -0.199929 0.415125 -0.171829 0.890172 
0.357680 0.607436 0.060466 0.667627 0.334844 -0.661698 
-0.669068 0.711458 0.287094 -0.299182 -0.008848 0.895604 
2.142026 1.210958 -0.251440 -0.133375 0.032267 -0.984696 
1.250419 1.059883 -0.050788 -0.147627 -0.072105 -0.982313 
-1.750025 0.515427 -0.419087 -0.652978 0.085660 0.740414 
-1.883650 1.092232 -0.811087 0.706565 -0.081020 -0.685166 
-0.347629 0.504886 0.052487 -0.695529 0.218665 -0.668595 
-1.145347 0.435224 -0.068145 0.377570 0.037276 -0.911358 
-0.235316 1.130185 0.561517 -0.537693 0.501456 -0.666836 
2.479169 0.487600 -0.219168 0.081517 0.127513 0.962103 
2.188689 1.678964 -0.164023 0.123147 -0.089776 0.947706 
-1.333091 0.003685 -0.166859 -0.467981 -0.124450 0.872825 
0.923845 -0.157658 -0.016199 -0.203172 0.058699 -0.941408 
1.223522 1.516961 -0.063998 -0.561558 0.116633 -0.814663 
0.163199 -0.759279 0.213237 0.158066 -0.132714 0.970092 
-1.385352 -0.183031 -0.256134 -0.446025 -0.192144 0.871660 
0.156256 0.956089 0.063534 0.577473 0.357574 -0.714759 
1.327809 0.054727 -0.130739 0.316389 -0.170340 0.919169 
-1.476131 0.751907 -0.213830 -0.715398 -0.023238 0.676531 
1.307412 1.494082 -0.076793 -0.083628 -0.146197 -0.984120 
0.421727 -0.743559 0.106866 0.420284 -0.010733 0.896810 
-0.290147 0.064243 -0.048710 -0.671147 -0.022649 -0.714376 
0.364862 -0.678145 0.150942 0.463945 -0.055820 0.873661 
-0.457128 0.560731 0.224754 -0.471970 0.445223 -0.649004 
-1.121236 -0.679854 -0.182923 -0.341323 0.001478 0.896692 
-1.226273 0.507382 -0.113314 0.411517 0.005617 -0.889211 
-0.359424 -0.370323 0.157201 -0.572266 -0.132001 0.802176 
-0.449619 -0.434795 0.028339 -0.238997 -0.017489 -0.909480 
1.461028 0.786670 -0.111129 0.356110 -0.092740 0.879824 
0.584815 0.218957 0.275590 0.347804 -0.331634 0.869691 
1.800878 0.992376 -0.198332 -0.126228 -0.306760 0.923641 
2.000116 0.471593 -0.206532 -0.059134 -0.177359 -0.942270 
2.022547 0.671306 -0.238359 -0.220209 -0.213758 -0.947366 
-1.401137 1.124920 -0.107902 -0.769485 -0.132160 0.597274 
-1.759534 0.649505 -0.438776 0.654365 -0.144298 -0.737978 
-1.596971 0.752925 -0.324137 0.577129 -0.124725 -0.785350 
-0.416968 -0.229886 0.153013 -0.479165 -0.183094 0.843139 
0.566610 0.391177 0.362080 0.298927 -0.196267 0.904774 
-1.359177 0.536143 -0.160813 -0.644627 -0.061018 0.733686 
-2.100797 0.335540 -0.704997 -0.638949 0.135267 0.746363 
1.950445 0.069696 -0.144991 0.253064 -0.085998 -0.939686 
-1.012798 0.403236 0.058378 -0.592142 -0.195115 0.769956 
-1.722908 1.428801 -0.630625 -0.865093 0.093140 0.453629 
-0.661853 0.521799 0.173806 0.084204 0.491153 -0.631091 
0.096059 -0.531178 0.279389 0.155226 -0.199629 0.965416 
-0.607914 0.241868 0.267695 -0.340876 -0.350372 0.865159 
0.263424 -0.293296 -0.056090 0.581804 -0.164588 -0.784378 
-0.921677 0.175620 0.080109 -0.450822 -0.229479 0.850771 
0.899812 -0.765916 -0.068605 -0.199570 -0.079782 -0.941995 
-2.359166 0.532262 -1.109570 0.706912 -0.269608 -0.650875 
-0.886884 0.333714 0.126847 -0.534154 -0.238109 0.800577 
1.061292 0.804088 0.075717 0.648468 -0.139981 0.734655 
-1.898875 1.258996 -0.869726 -0.797461 0.193892 0.568014 
-1.286803 1.374988 0.032438 -0.490191 -0.026954 0.862043 
-0.329422 0.298024 0.041756 -0.614646 0.097399 -0.772849 
-0.162528 0.713068 0.498098 -0.203833 0.144410 0.945287 
-0.067236 1.331043 0.164150 -0.645764 0.616537 -0.408034 
-1.301228 1.671503 -0.017143 0.917664 -0.263084 -0.024624 
2.383783 1.303728 -0.269161 -0.099748 -0.154792 -0.973090 
0.737208 0.534254 0.157189 -0.310780 0.473684 -0.642990 
1.911091 0.471561 -0.204001 -0.193191 -0.061568 0.953284 
0.900576 0.853408 0.126347 -0.728917 0.235986 -0.623885 
-2.201450 1.763476 -1.288906 -0.655855 0.137375 0.728044 
-0.004642 1.312618 0.297263 -0.213304 0.800559 0.536655 
1.310831 0.246377 -0.092816 0.346110 -0.126688 0.917948 
-1.783069 1.079066 -0.591709 -0.819660 0.186955 0.502745 
1.140951 1.336321 -0.025546 -0.606563 0.130094 -0.764955 
-0.081455 -0.636013 0.255280 -0.260265 -0.187140 0.941612 
-2.516600 1.235416 -1.453777 -0.638231 0.127197 0.753079 
-1.773308 1.345543 -0.712879 0.839913 -0.145743 -0.516206 
-1.553985 0.159786 -0.308796 0.485440 0.012534 -0.854744 
-0.007538 -0.018173 0.339089 -0.078313 -0.145724 0.982052 
-1.292904 0.100191 -0.150644 -0.495527 -0.107619 0.851727 
-1.959278 1.811118 -1.031669 -0.732550 0.107180 0.644430 
0.573198 -0.817295 0.061978 -0.087504 -0.106433 -0.973049 
-1.087787 -0.364217 -0.145482 0.304577 0.090181 -0.923403 
2.867177 1.726311 -0.180010 -0.190611 -0.261761 0.936308 
0.176419 1.234253 0.389702 0.888447 -0.327197 0.138014 
1.158035 -0.639560 -0.163489 0.331199 0.000804 0.910649 
1.903869 -0.004394 -0.132828 0.332444 -0.063865 -0.935283 
-1.857241 1.222548 -0.817750 0.772714 -0.121440 -0.606431 
-1.726444 1.341941 -0.632669 0.799467 -0.137095 -0.557600 
1.648809 0.708289 -0.202853 0.207025 -0.062881 0.956271 
1.539574 1.166365 -0.125279 0.281679 -0.225993 0.868073 
-0.301181 -0.533116 0.193314 -0.539874 -0.125015 0.831765 
-0.189261 -0.257246 -0.125370 -0.570610 -0.148201 -0.797772 
-0.158566 1.126286 0.121540 -0.589662 0.375753 -0.673041 
-0.569980 -0.018448 0.022707 -0.235183 0.074759 -0.873604 
-0.658382 -0.512105 0.049110 -0.438779 -0.046561 0.887134 
1.620891 0.247771 -0.254528 -0.129186 0.097572 -0.979542 
0.001161 -0.436443 -0.155175 0.297057 -0.456283 -0.825483 
-1.594705 1.315012 -0.316822 -0.849767 0.113514 0.468052 
-2.369625 1.261681 -1.344952 0.647305 -0.249257 -0.701099 
2.730959 1.628095 -0.222620 0.137063 0.084961 -0.985930 
-0.159111 1.177632 0.172036 -0.719638 0.477539 -0.431345 
0.315938 0.695336 0.478055 0.502623 0.342811 0.788506 
-1.299217 1.145957 -0.087651 0.439642 -0.125587 -0.872161 
-0.254186 -0.630013 0.029753 0.081781 -0.346054 -0.931311 
-0.604162 0.413322 0.350384 -0.324164 -0.162748 0.898641 
0.110683 1.133603 0.096323 0.491657 0.297365 -0.808544 
-0.056517 -1.206963 0.269237 -0.074742 -0.524498 -0.834908 
-2.215252 1.945620 -1.318116 -0.640700 -0.058310 0.753260 
1.829594 0.247407 -0.174886 -0.165191 0.008256 0.954725 
0.013914 0.108088 0.357743 0.059916 -0.218478 0.971284 
0.408135 0.621253 0.358995 0.482057 0.287236 0.765536 
1.946032 1.698016 -0.178802 -0.009175 0.125917 -0.988388 
1.273668 0.905251 -0.060148 -0.163308 -0.045514 -0.982599 
-2.047570 0.875091 -0.895798 -0.791096 0.435008 0.331774 
-0.476180 -1.345353 0.162823 -0.890119 0.202524 0.076879 
-0.336226 0.213354 0.073191 -0.577324 0.085552 -0.803162 
0.327581 0.836049 0.310931 0.885543 0.370855 0.119639 
-1.899828 0.895540 -0.685704 -0.768272 0.181211 0.560011 
0.276790 0.763561 0.015867 0.610321 0.548178 -0.563513 
0.228275 0.340572 0.428495 0.145392 -0.312497 0.936557 
-1.831094 1.045076 -0.662991 -0.850683 0.360101 0.355439 
2.801294 1.363749 -0.216295 -0.077842 0.096505 0.979584 
2.106343 0.211456 -0.166557 -0.208043 0.024010 0.955395 
-2.552171 1.857395 -1.545072 0.564021 -0.030056 -0.823963 
-0.213086 -0.498142 -0.029263 -0.241350 -0.340928 -0.852593 
1.281328 -0.156581 -0.161445 0.415848 -0.166209 0.891028 
-1.140008 0.304631 -0.076029 0.381970 0.061556 -0.910941 
-1.626011 1.093154 -0.407948 0.701307 -0.302878 -0.552378 
-1.489979 1.740075 -0.271180 -0.869153 0.193638 0.436846 
1.059064 1.088863 0.101219 0.121894 0.106531 0.903177 
2.372486 0.815184 -0.253831 0.155344 0.109399 0.944146 
0.315592 -0.519139 0.179972 0.531895 -0.121564 0.837597 
0.870202 0.424453 0.161652 0.549968 -0.194694 0.802378 
0.886956 0.621793 0.152356 0.236732 0.233618 0.938370 
-0.097511 1.168582 0.108132 -0.533621 0.285230 -0.788857 
2.766188 1.163089 -0.233250 0.032669 -0.163589 -0.969356 
-2.038825 1.730412 -1.152531 0.678303 -0.013713 -0.725039 
-0.023111 0.929303 0.536968 -0.155263 -0.015059 0.975719 
0.245071 0.136012 0.336161 0.174526 -0.279110 0.941844 
1.804711 0.158615 -0.192875 0.149464 -0.004263 -0.957658 
0.173665 0.453791 0.476736 0.142958 -0.291549 0.944060 
0.442142 -0.351685 0.017266 0.313024 -0.007023 -0.898528 
-2.131409 1.215407 -1.134892 0.702189 -0.291479 -0.636634 
2.061534 1.356229 -0.215146 0.199278 -0.092759 0.964667 
0.892984 0.534890 0.162404 0.396344 0.103289 0.872794 
-2.591473 1.641368 -1.561601 -0.584850 0.060361 0.807523 
-1.645256 1.904220 -0.615272 -0.668766 0.391935 0.561984 
0.104916 0.209809 -0.235277 0.606155 0.033098 -0.777088 
0.330070 0.703898 0.055394 0.724811 0.488862 -0.436370 
-0.078638 -0.887695 0.104281 -0.079792 -0.410939 -0.890043 
-0.016280 -1.030873 0.213065 -0.489440 0.121225 0.847673 
-1.914850 1.196633 -0.903333 0.753604 -0.155257 -0.629172 
0.172694 -0.467628 -0.061334 0.399720 -0.364963 -0.819781 
2.045088 0.737079 -0.251192 0.095369 0.014094 -0.987575 
-1.228494 1.046017 -0.056649 0.403207 -0.090938 -0.892738 
0.034275 -0.633494 0.010558 0.256332 -0.413948 -0.867771 
2.079705 1.609326 -0.172348 0.200296 -0.060122 0.946015 
1.546553 0.229315 -0.223633 -0.160113 0.101596 -0.972868 
-0.745167 -0.765866 -0.017618 -0.384810 -0.018037 0.911264 
-0.321373 0.857073 0.264373 -0.904993 0.355013 -0.066106 
0.964640 0.894509 0.138942 0.252316 0.068272 0.956918 
0.554451 -0.079822 0.158738 0.435898 -0.213788 0.860468 
1.519865 0.953349 -0.136590 0.331345 -0.131182 0.891357 
-1.370057 1.619950 -0.141280 0.721509 -0.218641 -0.644736 
-0.203600 -0.325295 -0.105348 -0.564827 -0.183536 -0.795280 
0.870807 0.281043 0.140988 0.444290 -0.236913 0.850147 
-2.538842 1.556679 -1.513365 -0.601607 0.109517 0.782525 
0.792398 0.376084 0.195130 0.483275 -0.246397 0.823418 
-0.576039 -0.204682 0.091214 -0.494211 -0.161823 0.845172 
0.155656 -0.571668 -0.014862 0.220346 -0.382457 -0.885451 
-1.554579 0.386783 -0.326109 0.557063 -0.046725 -0.802499 
0.616710 -0.736784 0.073787 0.358933 0.015535 0.927008 
1.423362 0.343416 -0.133337 0.289751 -0.101699 0.937816 
-1.315142 -0.137876 -0.208615 -0.450065 -0.188919 0.870842 
-0.386218 0.313727 0.118332 -0.529955 0.163649 -0.801392 
-2.044730 0.524244 -0.738070 0.740070 -0.361143 -0.528040 
-1.371850 0.759335 -0.142391 -0.718957 -0.062445 0.671574 
-0.227606 0.946837 0.111370 -0.698444 0.335201 -0.599803 
-2.105792 1.735228 -1.214239 -0.674653 0.190900 0.698203 
0.260973 -0.532647 0.236069 0.486815 -0.122515 0.861150 
-1.801131 0.676813 -0.505352 0.699988 -0.205876 -0.652586 
-1.477937 1.319781 -0.134139 -0.793960 -0.149088 0.561130 
-1.217948 0.570493 -0.060282 -0.651609 -0.120683 0.722447 
-0.749166 -0.962765 0.014550 0.218690 -0.285618 -0.921895 
1.646153 0.419922 -0.231645 0.166902 -0.079661 0.975230 
-1.421391 -0.246416 -0.303431 0.398857 0.180988 -0.896661 
0.795981 0.396306 0.082638 -0.076899 0.102111 -0.940833 
0.636223 -0.670873 0.056592 -0.119059 -0.075172 -0.969127 
-2.016545 1.826822 -1.127024 -0.711688 0.097703 0.682715 
1.430592 1.757252 -0.048998 0.113801 0.442529 0.847576 
2.189698 1.763121 -0.175473 0.136164 -0.073883 0.963571 
1.038456 0.601334 0.070589 0.604187 -0.152909 0.770334 
0.918963 -0.247112 0.010928 0.400327 -0.089911 0.904263 
0.132821 -0.242587 0.318448 0.201249 -0.060746 0.972219 
-1.416636 1.623390 -0.222787 0.752581 -0.167168 -0.633479 
0.439966 -0.540344 0.045521 0.202711 -0.053325 -0.924934 
0.264801 0.202216 0.360499 0.178711 -0.307091 0.932438 
2.367209 1.847728 -0.221194 -0.028885 0.157305 -0.984659 
-0.066098 -0.256991 0.321314 -0.150421 -0.036752 0.982369 
-2.154327 0.350178 -0.781820 0.709585 -0.304778 -0.607148 
0.695390 -0.033073 0.114399 0.432006 -0.203409 0.867704 
0.448393 -1.021826 0.113294 0.372746 0.105926 0.906646 
-1.045612 0.340176 -0.014530 0.334815 0.080339 -0.935744 
-0.211206 0.362002 0.441911 -0.136811 -0.312597 0.938145 
2.520075 0.321982 -0.196994 0.012053 -0.117635 -0.991029 
-1.545409 0.055686 -0.296686 0.451237 0.041077 -0.879411 
1.796615 0.321767 -0.188470 -0.087024 0.002393 0.963268 
2.406984 0.504678 -0.218272 0.147222 0.156772 0.939952 
1.234501 1.437118 0.035537 0.429184 0.007922 0.892720 
-1.310288 1.064114 -0.105198 0.443440 -0.113433 -0.868918 
-1.667932 1.137887 -0.447173 -0.717629 -0.126462 0.673125 
-2.089254 0.562496 -0.798899 -0.634684 0.094965 0.748569 
-1.121957 1.275635 0.060388 0.795616 0.313399 -0.358991 
-0.007605 -0.942607 0.118174 -0.525786 -0.346960 -0.753675 
1.028070 -0.665557 -0.125227 0.366388 -0.048750 0.911712 
0.102162 -0.907464 0.215180 0.191005 0.014230 0.968160 
0.549342 -0.154148 0.128546 0.457991 -0.183955 0.858277 
0.075137 -0.629193 0.258262 0.270444 -0.186778 0.939036 
0.103200 0.944828 0.526151 0.218371 -0.045967 0.968103 
-2.181711 0.500308 -0.889135 0.753742 -0.366921 -0.526070 
-2.130078 0.579964 -0.856437 -0.648836 0.113369 0.728623 
0.105273 -0.827523 0.224561 0.190483 -0.050918 0.965511 
-2.003525 1.209261 -0.989331 -0.755980 0.184130 0.620074 
-2.198971 1.867855 -1.301087 -0.655347 0.028743 0.745639 
0.245249 1.025507 0.415261 0.824499 0.113655 0.438850 
-2.067015 1.810433 -1.198393 0.666662 -0.073067 -0.738314 
0.146543 1.169344 0.385598 0.950048 -0.129466 0.108529 
-0.260905 0.416969 0.445255 -0.144870 -0.268497 0.949597 
2.453178 0.561266 -0.228677 0.122730 0.141052 0.946288 
-0.188440 -0.003570 -0.153575 -0.633080 -0.055466 -0.747920 
0.863295 0.240966 0.026272 -0.074258 0.117466 -0.920648 
-2.368907 0.293905 -1.009113 0.725981 -0.306435 -0.613843 
0.235362 0.138663 -0.137396 0.694652 -0.011274 -0.696268 
-2.088235 0.944108 -0.993284 0.678935 -0.166468 -0.707480 
-0.685656 0.517206 0.285748 -0.160963 0.161187 0.947573 
-1.326106 1.633260 -0.073814 0.860295 -0.071384 -0.474668 
0.245241 0.705507 0.486502 0.376055 0.283358 0.857503 
1.839535 0.492926 -0.219358 -0.054005 -0.071096 -0.966334 
1.889721 0.957668 -0.187236 0.012232 -0.156711 0.968211 
-2.186364 1.320986 -1.207066 -0.669805 0.016653 0.726244 
2.085264 1.154693 -0.232689 0.183633 -0.016973 0.977941 
0.064873 0.970386 0.029630 0.426772 0.379222 -0.801561 
-2.136288 0.247792 -0.709390 0.679564 -0.262468 -0.662375 
0.339559 -0.319994 0.212516 0.571131 -0.155056 0.790003 
1.490301 1.744837 -0.095192 -0.115242 0.191797 -0.971020 
0.560572 0.670464 0.333357 -0.040076 0.090334 0.930775 
-0.044396 0.151881 0.370590 -0.062985 -0.253647 0.960548 
-2.042213 0.038134 -0.557844 0.587157 -0.139454 -0.784042 
-1.546198 0.632047 -0.277051 -0.684042 0.015563 0.708430 
-0.183334 0.084179 -0.166368 -0.650409 -0.023771 -0.733821 
-1.828283 0.473333 -0.459603 -0.652475 0.100138 0.741222 
-1.730492 1.519240 -0.665837 -0.861013 0.058580 0.463100 
-0.312023 0.481602 -0.032987 -0.716407 0.136464 -0.674335 
0.898500 1.044637 0.160392 0.387181 0.019857 0.897479 
-1.301330 0.280307 -0.180587 0.458514 0.028102 -0.864281 
-0.072946 -0.078353 0.331977 -0.133523 -0.131631 0.975258 
-0.534140 0.446210 0.417125 -0.232188 -0.077428 0.953312 
-0.114643 0.605349 -0.127570 -0.498325 0.321033 -0.768509 
-1.483616 -0.208855 -0.315488 0.405719 0.151172 -0.897794 
3.076280 1.818064 -0.104532 0.234908 0.396498 -0.851744 
1.404182 0.075378 -0.165302 0.273709 -0.164076 0.931938 
0.655688 0.702819 0.276510 -0.344803 0.354813 -0.745140 
-2.310580 0.576514 -1.071652 -0.735422 0.298206 0.576839 
-0.418240 -0.881547 0.122947 -0.403656 0.024453 0.906655 
0.352255 -1.295113 0.141613 -0.236570 -0.130891 -0.925582 
1.258095 -0.352797 -0.190712 0.404543 -0.144636 0.895769 
0.561604 -0.688483 0.079340 0.389971 -0.005838 0.911586 
-1.813454 0.745440 -0.525486 -0.673387 0.049478 0.729490 
-2.133415 1.573599 -1.216721 0.629735 0.083196 -0.770474 
1.268602 1.483918 -0.006560 0.579687 -0.277532 0.761419 
2.710994 1.519512 -0.233677 0.168852 0.148945 -0.968753 
-2.269944 1.098639 -1.239776 0.676583 -0.289335 -0.667289 
1.716913 0.309967 -0.263704 -0.063132 0.062167 -0.982609 
0.933810 0.555795 0.071985 -0.229115 0.060481 -0.969403 
1.921151 0.547409 -0.223607 -0.107918 -0.132502 -0.956619 
2.346990 1.017469 -0.268400 0.059199 0.003066 0.996442 
-2.132191 2.134092 -1.268814 0.627641 0.377929 -0.663397 
-1.207151 0.887677 -0.012259 -0.740921 -0.149972 0.639738 
2.371685 0.738989 -0.256637 0.100464 -0.004875 -0.990149 
0.718546 -0.305246 0.007776 -0.022100 0.014790 -0.932325 
-1.627509 1.620920 -0.480398 -0.845065 0.211790 0.464535 
-0.865075 0.214962 0.119141 -0.446505 -0.251297 0.844678 
2.532824 1.805259 -0.210358 -0.033064 -0.156032 0.970166 
-2.207471 0.805011 -1.064852 0.665057 -0.187637 -0.716570 
-1.528946 -0.028091 -0.270232 -0.470195 -0.094960 0.873820 
0.420761 0.372387 0.135415 0.500956 0.223954 -0.787762 
2.021157 0.036867 -0.141596 0.234954 -0.089106 -0.947320 
-0.404420 -0.181200 0.032746 -0.397484 0.035417 -0.873435 
0.120546 1.268228 0.257555 0.662938 0.685792 0.045312 
0.162788 1.108564 0.432050 0.831055 0.314448 -0.174133 
-0.646946 -0.071488 0.115267 -0.455567 -0.204778 0.852743 
1.894423 0.154079 -0.156305 -0.297450 0.008860 0.940480 
-0.741098 -0.371732 0.029449 -0.454818 -0.078128 0.878222 
-0.682454 -0.217990 -0.013515 -0.043137 0.041505 -0.906834 
1.844050 0.076128 -0.161966 -0.242368 0.016139 0.945402 
1.027003 0.320861 0.011352 -0.277108 0.099556 -0.952981 
-1.998396 1.985724 -1.129513 -0.710717 -0.001954 0.680990 
-0.490746 -0.767122 0.087838 -0.414499 0.008504 0.900767 
0.399590 0.636704 0.202872 0.761335 0.401934 -0.381903 
0.138293 0.804776 -0.014162 0.500901 0.441310 -0.727935 
1.345053 1.067747 -0.050490 0.474889 -0.169334 0.817499 
0.250492 -0.400721 -0.067831 0.570753 -0.212145 -0.791988 
0.357902 0.232574 0.347074 0.206228 -0.294711 0.930470 
-0.441678 -0.155022 0.175047 -0.461231 -0.212627 0.843779 
0.681794 -1.014612 0.056926 0.266125 0.258516 0.914568 
-0.788617 -0.054116 0.056750 -0.465821 -0.181731 0.857202 
-0.088500 -0.469577 -0.096561 -0.324973 -0.420965 -0.841271 
-0.247637 0.066006 -0.119412 -0.701010 -0.039847 -0.687119 
-1.248417 1.304564 0.050759 -0.458383 -0.018940 0.886323 
-0.346788 -0.255591 0.216459 -0.521678 -0.175853 0.810755 
-0.821396 -0.835863 -0.052123 0.201066 -0.117047 -0.935381 
-0.690863 -0.740308 0.020500 -0.387225 -0.004045 0.912389 
1.319072 0.518626 -0.097502 -0.218145 0.033844 -0.968807 
0.308271 0.244667 -0.055225 0.701591 0.046741 -0.690920 
1.494723 1.220549 -0.145111 -0.137373 -0.109627 -0.975944 
-1.678558 1.946848 -0.690244 -0.667927 0.417537 0.575119 
1.815427 1.069046 -0.232480 0.022805 0.157983 -0.980930 
0.685586 -0.236728 -0.002175 0.062285 0.030332 -0.917805 
-0.160636 0.160714 -0.190308 -0.649891 0.006617 -0.735839 
0.438417 0.439614 0.415236 0.185873 -0.168006 0.960417 
-1.581418 1.764991 -0.509339 0.732669 -0.064855 -0.669460 
-2.546942 1.688511 -1.532377 -0.586415 0.075259 0.799871 
1.945744 1.757336 -0.134628 0.243353 -0.071082 0.937170 
1.262290 0.336401 -0.088809 -0.261743 0.075635 -0.955399 
0.167490 -0.345261 0.300897 0.290322 -0.031476 0.940079 
-1.784304 1.599179 -0.810908 0.768984 -0.316074 -0.542921 
0.583571 0.107317 0.227283 0.381454 -0.285463 0.866675 
1.732219 0.802303 -0.212872 0.056783 -0.152745 0.953690 
-1.859433 1.556430 -0.898623 -0.819756 0.104433 0.561812 
2.301517 0.543149 -0.218933 0.246735 0.200121 0.906019 
0.372495 0.687200 0.380505 0.686075 0.377319 0.505114 
0.168030 -1.151522 0.225460 -0.220857 -0.412458 -0.882477 
1.684602 1.407329 -0.130498 0.378658 -0.190841 0.864719 
-0.577416 -1.087977 0.086224 -0.401374 0.306807 0.828054 
0.065575 0.370613 -0.238041 0.574762 0.156743 -0.780181 
-0.903740 -0.852874 -0.064551 -0.284101 0.163639 0.912208 
2.156111 0.145582 -0.160896 0.079624 -0.130999 -0.960768 
