-0.724381 0.225791 0.406625 0.383893 -0.210956 0.896497 
-1.453918 0.717036 0.721881 -0.195275 0.429698 -0.794583 
1.970598 -0.541994 1.117260 0.426686 -0.464070 -0.765327 
-0.149902 0.176011 -0.311355 -0.601053 -0.005586 -0.775778 
-0.590529 0.277970 0.158681 -0.733444 -0.017917 -0.658087 
-1.156021 0.526515 0.566441 -0.252527 0.390994 -0.882454 
-2.077787 -0.391875 1.032578 0.543065 0.311064 0.767808 
0.267824 -0.567901 -0.088978 0.307572 -0.316632 -0.843722 
0.270411 -1.048525 0.097281 0.229359 -0.263847 -0.887635 
-0.137439 -0.212183 -0.257843 -0.486967 -0.198726 -0.826610 
-0.892190 -0.509677 0.454837 0.551960 -0.039732 0.829748 
0.013451 -0.479450 0.218049 0.186962 -0.155061 0.957748 
2.093682 -0.016810 0.946696 0.740867 -0.104844 -0.658630 
0.776334 0.131313 0.419974 -0.385377 -0.174968 0.901085 
0.988711 0.366835 0.447205 0.438988 0.202297 -0.845639 
2.277161 -0.716977 1.526966 0.681572 -0.489102 -0.540225 
1.856525 -0.390902 0.916247 -0.668119 0.279866 0.630697 
1.050175 0.600943 0.530816 -0.444032 0.171809 0.864903 
-0.240147 1.266681 0.437328 -0.769880 -0.448771 -0.451436 
1.826147 0.334383 0.851019 -0.437753 -0.142450 0.842752 
2.562226 -0.468440 1.842477 0.772320 -0.449510 -0.417960 
-0.501372 0.182765 0.093709 -0.760452 -0.070136 -0.627337 
-1.407308 -0.428289 0.772964 0.458540 0.171190 0.856853 
0.224758 0.416144 0.339118 0.138199 -0.254155 0.951804 
-0.615819 -0.622940 0.297733 0.309885 0.023581 0.918491 
1.646149 0.743979 0.774528 0.034819 0.629765 -0.693015 
-0.055941 -1.068609 0.124910 -0.295669 0.046574 0.942284 
0.772411 -0.946019 0.344038 -0.394001 -0.086473 0.904629 
-2.366847 0.585204 0.982243 -0.442146 0.036502 -0.888725 
-0.214510 0.040240 -0.252467 -0.617561 -0.074984 -0.754773 
-0.291152 0.766826 -0.036326 -0.645827 0.492499 -0.542732 
0.219189 1.106621 0.397931 0.309758 -0.470501 0.782490 
0.766701 -0.068345 0.409497 -0.433642 -0.115940 0.885522 
-0.780000 0.075701 0.339887 -0.628255 -0.098073 -0.757460 
-0.976101 -0.885191 0.510453 -0.606726 -0.020067 -0.786211 
-3.093293 0.322927 1.194786 -0.527673 -0.150055 -0.825514 
-0.736842 0.135926 0.300969 -0.647097 -0.102714 -0.737595 
0.281120 -0.129264 -0.188558 0.620197 -0.161015 -0.740736 
2.376785 0.567370 1.209857 0.793478 0.018684 -0.598380 
-0.783955 -0.063908 0.345871 -0.631549 -0.070093 -0.758390 
-2.327743 -0.355745 1.054962 -0.378500 -0.334561 -0.855334 
-0.623908 -0.783193 0.277605 -0.506329 -0.106058 -0.843161 
2.313526 0.036959 1.158636 0.642818 -0.064529 -0.751027 
0.001658 -0.286630 0.232936 0.114615 0.022993 0.990855 
1.398476 0.358450 0.683710 -0.309793 -0.200109 0.901773 
0.304434 -0.719481 -0.012273 0.490582 -0.221995 -0.828454 
1.218666 -0.265533 0.566501 0.516739 -0.103621 -0.843876 
-0.188612 0.262526 0.299380 -0.167406 -0.280769 0.943678 
2.762889 0.317338 1.646503 -0.828367 0.129808 0.488332 
1.157220 -0.486784 0.554379 0.518650 -0.112487 -0.843518 
0.427381 -1.066013 0.147333 -0.221108 -0.085319 0.956335 
-3.072113 -0.134394 1.354785 -0.412139 -0.433756 -0.780403 
0.402890 0.023234 -0.004168 0.762563 -0.067113 -0.631208 
0.206402 -0.606288 -0.067724 0.053299 -0.410276 -0.889265 
-2.172362 -0.413710 1.042858 -0.436206 -0.369781 -0.818100 
-1.907517 1.039006 0.953083 0.546719 0.236322 0.707249 
0.052219 0.801842 -0.158046 0.422360 0.371570 -0.817950 
-1.409719 0.600424 0.758300 0.445466 0.103055 0.886671 
-0.327671 0.344016 -0.154026 -0.741400 0.019613 -0.659702 
-0.268227 -0.619789 -0.061244 -0.195500 -0.332539 -0.862020 
1.838492 0.693754 0.817977 0.454335 -0.268011 -0.849367 
0.852318 0.295717 0.363035 0.612525 0.025190 -0.781259 
2.740105 -0.298240 2.111434 0.885781 -0.357138 -0.270349 
-1.905186 0.955085 0.922908 0.558237 0.077833 -0.714255 
-2.560735 -0.243407 1.084767 0.308777 0.266807 0.902674 
-0.027726 -0.069770 -0.334040 -0.435207 -0.158453 -0.850680 
1.818184 -0.749916 1.171560 -0.687536 0.462724 0.526616 
2.566994 -0.321630 1.638615 0.693915 -0.485341 -0.523182 
-0.705621 0.069308 0.274801 -0.664854 -0.083429 -0.722492 
0.444346 0.652919 0.056190 0.752803 0.543474 -0.333623 
0.104574 -0.620952 -0.092394 0.054459 -0.434997 -0.896119 
2.677968 -0.327447 1.971721 0.799731 -0.439207 -0.372232 
0.996201 -0.549994 0.496637 -0.480904 0.000776 0.871867 
-0.432438 -1.065860 0.137347 -0.386434 0.017879 -0.906877 
1.606369 -0.836554 1.038602 0.575265 -0.522573 -0.616494 
-2.980041 0.329979 1.134809 -0.481237 -0.050855 -0.854184 
-2.130080 0.037978 0.960004 -0.024838 0.070991 0.981479 
-0.123750 0.891214 -0.082906 -0.527666 0.356177 -0.744927 
1.750417 -0.546128 0.939373 -0.672854 0.359270 0.594097 
-0.313231 -0.074994 0.182392 -0.361129 -0.208509 0.849831 
1.691936 0.650222 0.757763 0.460875 -0.261439 -0.847769 
2.462252 -0.442531 1.549555 -0.758265 0.354517 0.501694 
2.498354 0.040205 1.322285 -0.673180 0.182580 0.710760 
0.030566 -0.706078 0.177820 0.372652 -0.100983 0.917091 
0.155706 0.960227 -0.054884 0.577289 0.284153 -0.748159 
-0.086970 0.126103 -0.344864 -0.536287 -0.013087 -0.826849 
1.923180 -0.131114 0.893223 -0.704064 0.072573 0.654192 
-3.066428 -0.286098 1.438107 0.588442 0.268896 0.740041 
-2.057354 0.140703 0.893177 -0.376723 -0.124850 -0.908877 
-0.338438 0.079177 -0.071559 -0.742979 -0.113644 -0.632131 
0.130509 1.144346 0.220530 0.890211 -0.025979 0.337635 
1.666754 -0.700736 0.980074 -0.700376 0.446248 0.528662 
-0.153053 0.955171 0.386053 -0.290890 0.006412 0.938011 
0.301947 -0.064006 0.185900 0.351072 -0.209150 0.854831 
2.497223 -0.345264 1.534384 -0.777402 0.310184 0.492623 
2.691374 -0.240130 1.881381 0.762866 -0.456265 -0.420855 
2.411349 0.402555 1.234576 0.546016 -0.352688 -0.746948 
-0.941196 -0.433589 0.488077 -0.589234 -0.060695 -0.801781 
2.134596 0.556446 1.050114 -0.466095 -0.260523 0.793601 
-2.148574 0.821695 0.970412 -0.328914 0.579505 -0.723889 
-1.267745 -0.766340 0.773235 -0.577866 -0.231589 -0.775294 
2.916320 0.249042 1.973421 0.930518 -0.192328 -0.292392 
-1.856205 0.048444 0.924155 0.382514 0.017010 0.887940 
-1.963455 -1.008247 1.332602 0.231443 0.465655 0.848409 
-0.210279 -0.786269 -0.007113 -0.147250 -0.337457 -0.920835 
1.990438 -0.786217 1.353727 -0.508204 0.482772 0.668560 
-1.608904 -0.598637 0.985438 -0.403048 -0.351674 -0.831005 
0.574705 0.563284 0.272073 0.666021 0.479138 -0.519620 
-1.058386 -0.230598 0.561749 0.493878 0.030379 0.858555 
-0.570411 -0.100101 0.148219 -0.701636 -0.066761 -0.693571 
-2.416224 0.758022 1.013659 -0.344011 0.458656 -0.784026 
0.643138 -0.547746 0.281897 0.476385 -0.111887 -0.861708 
-0.159048 1.119621 0.194548 -0.641279 0.253600 0.581245 
-1.972093 0.231309 0.933700 0.427190 -0.102665 0.871846 
0.612471 0.093881 0.187691 0.685839 -0.060003 -0.696138 
0.335795 -0.297035 0.133074 0.503811 -0.138446 0.790616 
-0.020633 -0.787630 0.168369 -0.414980 -0.067061 0.902502 
2.407758 0.329361 1.245342 -0.590176 -0.026096 0.767728 
0.526105 -0.107656 0.220339 -0.209033 -0.145532 0.926725 
2.598379 -0.386653 1.826847 0.759590 -0.455997 -0.432349 
0.301376 0.864984 0.083236 0.858313 0.350805 -0.309855 
2.601650 -0.254333 1.640107 0.687976 -0.488704 -0.528540 
-2.387815 -0.808679 1.310071 -0.296953 -0.445973 -0.839675 
2.451702 0.582052 1.268381 0.773542 -0.017550 -0.631654 
-1.312605 0.169431 0.649891 -0.488583 -0.237305 -0.832030 
1.945020 1.051803 0.888276 0.441752 0.252584 -0.834017 
1.209516 0.279554 0.560462 0.492650 -0.200347 -0.842772 
0.509270 -0.555650 0.145180 0.539448 -0.121011 -0.814068 
-0.086845 0.936373 0.404960 -0.224601 0.045252 0.964732 
0.046213 0.627992 -0.252759 0.373953 0.427985 -0.807862 
-1.009663 -0.433187 0.577434 0.556189 0.062250 0.819879 
-0.118765 0.301991 -0.334318 -0.594047 0.070486 -0.778071 
-0.849926 0.443690 0.457386 0.403646 0.256987 0.860463 
-0.292850 -0.289103 0.163824 -0.600211 -0.138059 0.752025 
0.849235 -0.556349 0.417598 -0.425275 -0.046671 0.894404 
-0.530498 -0.766339 0.241500 0.241926 0.032935 0.939859 
1.851655 0.425299 0.867059 -0.448214 -0.191374 0.825987 
0.014973 1.007880 -0.082691 0.279371 0.271109 -0.916432 
-0.256808 0.309671 -0.251068 -0.712992 0.040233 -0.682522 
0.308791 -0.112233 -0.109918 0.654590 -0.175720 -0.702254 
2.770342 -0.050860 1.865657 -0.800141 0.407051 0.413888 
-0.570382 -0.837410 0.245591 -0.490295 -0.123014 -0.850375 
-0.274863 -0.745729 -0.003654 -0.083809 -0.340853 -0.890780 
-0.101268 1.149227 -0.035090 -0.530644 0.218193 -0.812171 
0.273567 -0.546598 0.136976 0.532822 -0.119149 0.834608 
0.263094 0.785810 0.351346 0.504116 0.300703 0.800676 
-2.738462 -0.208102 1.163714 0.450151 0.221494 0.831888 
-2.329412 0.516180 0.992441 0.124968 -0.194503 0.927532 
1.466227 -0.037562 0.664483 0.504955 -0.211062 -0.833984 
1.408427 0.099536 0.677338 -0.365635 -0.069364 0.887386 
1.345668 -0.864295 0.767575 -0.573472 0.313747 0.718513 
0.152571 1.116169 -0.024095 0.568207 0.304493 -0.736341 
2.057517 -0.180323 1.035767 -0.441860 0.192888 0.818696 
0.264606 -0.948498 0.131713 0.013574 0.090578 0.968062 
-1.274217 -0.693110 0.758121 -0.561403 -0.221345 -0.787031 
-3.269361 0.364078 1.323431 0.702265 -0.008479 0.695126 
0.647626 0.517527 0.333912 0.585944 0.512144 -0.576654 
-2.421129 0.071900 0.989111 0.168864 0.066013 0.979969 
2.496678 0.434246 1.299527 0.813489 0.100412 -0.559717 
0.176609 0.119370 0.242137 0.156195 -0.229464 0.959893 
-2.913407 0.353019 1.153073 0.407035 0.096779 0.867830 
0.433986 0.534396 0.326144 -0.350278 0.246643 0.854084 
-1.936985 -0.645320 1.121722 -0.111403 -0.444744 -0.863471 
-0.071301 0.753200 -0.166300 -0.428729 0.372398 -0.811384 
-1.589241 0.149091 0.828959 0.319881 -0.038716 0.908320 
0.090932 0.420421 -0.309534 0.538567 0.203486 -0.785212 
-3.303573 -0.306644 1.655422 0.645796 0.326867 0.687170 
0.556540 -0.853880 0.238559 0.431421 -0.132673 -0.882268 
1.753535 0.360278 0.823243 -0.410850 -0.163235 0.855252 
-2.807061 0.450265 1.047065 -0.362197 0.019394 -0.927359 
-1.202464 0.514257 0.659238 0.438736 0.063332 0.886293 
0.857526 -0.345750 0.412245 0.502946 -0.038833 -0.860459 
0.964100 -0.325396 0.492198 -0.475552 -0.011790 0.876325 
-0.520021 0.023590 0.257581 0.301058 -0.181170 0.899384 
-0.361518 -0.231978 -0.052978 -0.743028 -0.080258 -0.660333 
-0.570573 -0.632291 0.235411 -0.508967 -0.136210 -0.838638 
-3.144326 -0.044846 1.383544 0.499623 0.374336 0.762989 
2.199770 0.074109 1.065848 0.721444 -0.045658 -0.661024 
0.366515 0.626554 -0.087834 0.639343 0.364958 -0.650627 
-0.227076 1.081628 0.059627 -0.844027 0.367588 -0.358375 
-0.019578 1.277567 -0.034775 -0.530291 -0.019897 -0.802090 
1.748576 -0.494635 0.887649 0.510255 -0.356307 -0.759543 
-2.891206 0.265268 1.102059 -0.520936 0.066798 -0.831495 
-1.425651 -0.612179 0.821232 0.500062 0.213489 0.825866 
0.706435 -0.814794 0.327897 -0.321599 -0.019359 0.922476 
-1.820850 -0.047788 0.920371 0.375018 0.073601 0.891953 
1.743335 -0.810771 1.153053 -0.660152 0.483832 0.549642 
-1.263801 0.385872 0.612276 -0.511443 -0.258849 -0.817216 
-2.551885 -0.156547 1.046481 0.304936 0.237921 0.912467 
-0.338156 0.415971 -0.141713 -0.709930 0.067643 -0.686315 
-0.091390 -0.780277 0.153336 -0.213121 -0.086937 0.962586 
0.132318 -0.190473 0.226388 0.200402 -0.066503 0.971112 
0.072231 0.951432 -0.092338 0.444769 0.313938 -0.819512 
2.937647 0.461642 1.870174 0.934831 0.250892 -0.184256 
2.810721 0.002242 1.904328 0.943409 -0.177986 -0.248061 
0.638642 -0.695206 0.302405 -0.278955 0.004678 0.934334 
0.716664 0.420119 0.289841 0.564739 0.377216 -0.680992 
-0.216330 1.001741 0.007833 -0.704443 0.252569 -0.607968 
-3.092456 -0.043122 1.332800 0.459323 0.395424 0.785032 
2.150717 0.804807 1.066385 0.660508 0.533420 -0.480251 
-1.629336 -0.407810 0.878357 0.399581 0.228424 0.880649 
-1.425797 0.031566 0.717651 -0.452140 -0.246559 -0.849126 
-2.501247 -0.688546 1.267865 0.250131 0.406307 0.852706 
-2.264026 0.680590 0.966739 -0.418419 -0.023072 -0.904325 
-0.942525 -0.762285 0.477962 -0.601130 -0.009580 -0.793804 
-2.618843 0.525849 1.019248 -0.384504 0.008903 -0.917738 
-0.515826 -0.199877 0.092654 -0.701519 -0.072766 -0.697843 
-0.341733 0.721701 0.305151 -0.683597 0.368576 0.540090 
-0.479506 -0.126151 0.062098 -0.724895 -0.071446 -0.672889 
1.958472 0.249868 0.921331 -0.647291 -0.121285 0.670248 
-0.632795 -0.498613 0.258171 -0.550998 -0.110261 -0.815123 
-2.605319 0.607230 1.024682 -0.384113 -0.007099 -0.921209 
2.165000 0.722607 1.052566 0.793678 -0.035953 -0.605744 
-0.850974 -0.830792 0.409712 0.534868 -0.058885 0.826066 
-0.179671 0.540957 0.384055 -0.187303 -0.237675 0.949401 
-0.515866 -0.075242 0.098399 -0.722369 -0.068036 -0.673128 
-1.535128 -0.588795 0.906490 0.448312 0.267595 0.836867 
-1.376458 -0.793853 0.894502 -0.522141 -0.310079 -0.776698 
1.694520 0.597876 0.809573 -0.356886 -0.293837 0.871513 
-0.240174 0.915740 0.001194 -0.726084 0.300760 -0.574514 
-2.678598 0.607737 1.075414 0.202346 0.056125 0.946633 
2.231048 0.357204 1.113543 -0.528151 -0.122132 0.793581 
0.600232 0.354181 0.162115 0.736026 0.059477 -0.641351 
-1.840593 -0.380685 0.962993 0.433620 0.278324 0.846337 
0.385276 -0.599823 0.031574 0.578187 -0.137400 -0.781867 
0.120610 0.112207 -0.321872 0.557901 -0.026189 -0.807092 
0.098011 -0.271499 -0.261593 0.431934 -0.264488 -0.835868 
-2.039569 0.093821 0.943137 0.388464 -0.007268 0.886311 
1.568114 -0.771694 0.946361 0.581759 -0.490176 -0.628939 
-0.245656 -1.171617 0.161727 0.208648 0.174956 0.956812 
-0.295109 -0.491831 -0.102805 -0.569145 -0.218324 -0.779748 
-2.411349 -0.377119 1.086720 -0.357840 -0.334659 -0.864051 
-0.180486 1.194564 0.198645 -0.772661 -0.045711 0.477921 
-2.220122 -0.107761 0.984646 0.009612 0.178610 0.965994 
2.941610 0.187324 2.227351 0.948218 -0.208053 -0.213334 
0.138524 -0.749234 0.146486 0.102777 -0.091035 0.969181 
0.484385 0.589828 0.312400 -0.387136 0.342495 0.845762 
0.224184 0.684725 -0.156197 0.467638 0.505956 -0.701648 
0.339423 -0.515567 -0.046282 0.636610 -0.129897 -0.743101 
1.982581 -0.672163 1.252233 -0.384298 0.446460 0.756416 
2.774433 0.372875 1.583299 0.815689 -0.084970 -0.545562 
2.960494 0.245259 2.292172 0.955355 -0.021603 -0.129663 
1.780963 -0.588415 0.993366 -0.735710 0.402202 0.505892 
-0.482364 -0.376647 0.063142 -0.672949 -0.085186 -0.726883 
0.190005 -0.699137 0.143133 0.143679 -0.119803 0.955886 
-1.931561 -0.372047 0.982204 0.481477 0.284430 0.817436 
-0.237836 0.926292 0.323861 -0.709003 0.135628 0.659028 
-0.485714 0.509617 0.069125 -0.822023 0.201185 -0.522670 
2.632456 0.350052 1.472982 -0.717603 0.061746 0.638434 
-2.757151 -0.068648 1.106204 -0.290648 -0.369412 -0.873912 
-0.544022 0.119011 0.302482 0.380323 -0.204455 0.881205 
0.279693 -0.253421 -0.163605 0.584097 -0.215369 -0.761758 
0.051669 1.160865 0.355587 -0.113515 0.501882 0.830276 
0.954893 -0.256548 0.462280 0.517209 -0.042259 -0.853386 
-1.670242 0.377995 0.860880 0.303154 -0.152809 0.907030 
0.420124 0.598747 -0.016113 0.714845 0.331675 -0.577991 
1.837112 -0.863134 1.288776 0.514034 -0.530316 -0.661992 
-3.363984 0.029235 1.559941 0.694290 0.210954 0.674286 
1.185013 0.676090 0.582339 -0.400453 0.087465 0.911673 
0.242868 0.414903 -0.239598 0.646670 0.115005 -0.732356 
0.159220 1.073891 0.236219 0.531373 0.745081 0.202265 
-0.936852 0.492146 0.497484 0.434165 0.243138 0.849849 
0.138808 0.183702 -0.319418 0.593612 0.000027 -0.781555 
0.463983 0.142310 0.245334 -0.297533 -0.234832 0.903228 
0.357744 -1.077370 0.131449 0.345567 -0.136214 -0.908790 
1.400957 -0.863938 0.839303 0.589668 -0.412698 -0.660065 
0.274759 0.995132 0.170206 0.913967 0.353917 -0.031901 
2.901684 0.161523 2.060262 -0.942609 0.131657 0.236152 
1.321314 0.316335 0.651716 -0.294348 -0.186295 0.910387 
1.174755 -0.859967 0.573496 -0.511515 0.100205 0.849490 
0.210051 1.017109 0.344355 0.626826 0.013674 0.736128 
-0.836474 -0.216873 0.434831 0.482823 -0.028787 0.857540 
-2.392275 -0.444915 1.114377 -0.376919 -0.360973 -0.846416 
-0.258637 -0.955356 0.118595 0.038091 0.063130 0.971677 
-0.600575 0.055697 0.182962 -0.716715 -0.061804 -0.673076 
-1.868794 0.590619 0.891973 -0.322217 -0.304955 -0.886014 
0.715841 -0.884965 0.327654 -0.326062 -0.025143 0.921156 
-0.128069 -0.880028 0.133096 -0.104333 -0.040866 0.979877 
2.490306 -0.185760 1.389711 0.683725 -0.358073 -0.622287 
-0.052426 0.031116 0.239796 -0.107702 -0.161234 0.977477 
-2.704950 0.527362 1.032885 -0.357214 -0.013652 -0.932487 
1.584604 0.351269 0.713017 0.481121 -0.248515 -0.840083 
-2.051656 -0.621821 1.144900 0.445564 0.373589 0.790111 
-1.799854 0.567951 0.917536 0.289865 -0.239802 0.904196 
-2.560393 -0.045058 1.015920 -0.228201 -0.255197 -0.931665 
-0.679191 0.601213 0.372823 0.393791 0.276920 0.854912 
0.090185 1.296505 0.146168 0.396236 0.847908 0.328972 
-0.749487 -0.270184 0.353059 0.364067 -0.034069 0.884806 
2.329366 -0.500564 1.402897 0.709864 -0.409735 -0.560377 
1.494791 0.440283 0.676396 0.478434 -0.248001 -0.841926 
-0.614585 -0.269479 0.181733 -0.659864 -0.071391 -0.739735 
1.140946 -0.403729 0.543438 0.518028 -0.100031 -0.845061 
1.172819 0.335260 0.594367 -0.282044 -0.227238 0.920551 
-1.789813 -0.115835 0.897411 -0.299788 -0.266754 -0.900822 
1.304105 -0.097398 0.599926 0.508708 -0.156976 -0.840225 
-0.372870 -0.784996 0.077533 -0.512042 -0.164997 -0.824687 
1.892157 -0.752891 1.247730 -0.402484 0.468551 0.743363 
-0.854812 -0.141027 0.459320 0.505353 -0.050551 0.855045 
0.057917 -0.890713 0.147096 0.269123 -0.030210 0.946591 
-0.322169 -0.005602 -0.098703 -0.703449 -0.137676 -0.665754 
-1.524063 0.686043 0.746007 -0.101475 0.570542 -0.759944 
-0.223307 1.062959 0.289580 -0.357996 0.856164 0.011135 
1.766045 0.659255 0.788180 0.458319 -0.264368 -0.848260 
2.139641 -0.605731 1.323450 -0.446519 0.432158 0.717669 
-2.980063 -0.328306 1.389797 0.550367 0.278047 0.759536 
2.019578 -0.049676 0.916047 0.348561 -0.164031 -0.918530 
2.229184 0.766869 1.112600 0.698202 0.281978 -0.584897 
-1.389992 0.556390 0.650855 -0.460278 -0.085773 -0.857633 
-2.660339 0.450588 1.083516 0.251375 0.032355 0.917688 
0.441041 -0.607156 0.092281 0.546245 -0.135888 -0.805151 
1.990688 -0.403021 1.017379 0.392684 -0.410503 -0.818411 
-2.031610 0.169478 0.957779 0.269828 -0.003140 0.927206 
-1.489039 -0.457578 0.819611 0.446043 0.199714 0.859074 
2.776786 0.006585 1.805326 -0.786395 0.408979 0.438895 
2.360684 0.575983 1.290092 -0.586707 0.009776 0.714063 
-0.910150 -0.891794 0.437983 0.590978 -0.078908 0.802585 
2.327009 -0.058543 1.173786 0.687142 -0.144009 -0.691450 
2.222909 0.139119 1.101364 -0.543474 -0.007326 0.818090 
0.603024 0.002421 0.177872 0.679291 -0.047265 -0.703941 
-0.911895 -0.372698 0.458090 -0.586023 -0.044165 -0.807309 
0.282188 -0.346111 0.164132 0.587209 -0.099085 0.764918 
0.201077 1.246140 0.404955 -0.550805 0.589886 0.541397 
2.562876 0.525071 1.438285 -0.671135 0.074101 0.665943 
0.442708 0.096807 0.036808 0.760447 -0.059013 -0.629136 
0.054483 -0.798479 0.161785 0.282849 -0.064897 0.941068 
2.369881 0.034996 1.203710 0.625925 -0.130431 -0.751106 
-0.222884 0.360953 0.323233 -0.145952 -0.274767 0.946376 
2.393990 0.260401 1.231784 -0.596242 -0.000352 0.775189 
-0.441410 -0.461535 0.095599 0.005842 -0.055166 0.972011 
-0.386292 0.478338 -0.084776 -0.732903 0.139309 -0.645531 
2.454118 -0.363615 1.481225 -0.744490 0.325498 0.540583 
1.677983 0.060640 0.750612 0.495377 -0.243035 -0.833333 
1.513409 0.386856 0.729990 -0.338160 -0.202725 0.887711 
2.804988 0.561623 1.636580 0.821233 0.216845 -0.455900 
-0.304009 0.901476 0.166853 -0.915112 0.305252 -0.008628 
0.795078 -0.590580 0.388079 -0.387687 -0.033398 0.904664 
0.785010 -0.857470 0.364211 -0.373629 -0.042836 0.908151 
1.063761 -0.851971 0.512422 -0.489804 0.025332 0.864267 
-2.716364 0.447718 1.033883 -0.398816 0.053126 -0.907698 
-2.978949 0.410496 1.123276 -0.427958 -0.067117 -0.886965 
1.892725 -0.322681 0.917466 -0.691336 0.229833 0.623091 
2.738618 0.385977 1.523152 0.793923 -0.037251 -0.584350 
-0.174694 0.675533 -0.181245 -0.436040 0.469969 -0.745966 
-2.780923 -0.258058 1.205212 0.481819 0.231188 0.810846 
-2.867087 -0.045143 1.167580 0.557427 0.140413 0.790379 
-0.027138 0.530221 0.402257 -0.060065 -0.287428 0.953576 
-1.824415 0.334685 0.928792 0.319237 -0.117183 0.899810 
-0.113364 0.793458 0.389663 -0.159147 0.010747 0.983668 
1.592492 -0.468859 0.724419 0.517725 -0.209437 -0.828248 
0.234783 -0.745215 -0.013549 0.037152 -0.371883 -0.912926 
-0.076992 1.071733 -0.061109 -0.407660 0.247707 -0.866427 
1.939242 0.151005 0.908536 -0.647870 -0.069411 0.678222 
1.653922 0.572826 0.741984 0.466397 -0.257727 -0.845742 
-1.507411 -0.770257 1.020449 0.452716 0.367052 0.794515 
-0.734124 0.143506 0.408904 0.411911 -0.178237 0.885649 
-0.639348 -0.875817 0.292387 0.346898 -0.006484 0.896338 
2.599946 -0.305183 1.710565 0.715084 -0.476315 -0.492164 
-2.671048 -0.375258 1.193379 0.390975 0.292717 0.847861 
-1.071644 -0.851249 0.616416 -0.608814 -0.110963 -0.773697 
0.355302 -0.056252 0.138773 0.077174 -0.204501 0.963031 
-1.575079 0.616850 0.752120 -0.433052 -0.293062 -0.846889 
-2.514392 -0.394233 1.131848 0.240986 0.320841 0.892846 
0.453086 -0.381419 0.025031 0.660695 -0.086593 -0.736614 
2.252329 0.289578 1.112743 0.611568 -0.149056 -0.749207 
-0.712655 -0.653326 0.331845 -0.531611 -0.083672 -0.832138 
-0.649947 -0.713436 0.294438 -0.512716 -0.104025 -0.840670 
0.206808 -0.785480 0.130081 0.075530 -0.060319 0.954772 
0.631315 -0.414759 0.259520 -0.209186 -0.035085 0.937928 
-2.721087 0.284438 1.042717 0.241183 0.053320 0.964638 
0.402285 -0.819959 0.127122 0.452124 -0.183877 -0.859486 
-0.108916 -0.621092 -0.092084 -0.060816 -0.425578 -0.899053 
2.959229 0.308475 2.163702 0.958671 0.042609 -0.147346 
-1.085112 0.304980 0.575215 0.348720 -0.204071 0.905599 
-0.170955 -0.332540 0.209932 -0.298583 -0.020144 0.934052 
-2.063517 0.793056 0.936140 -0.401600 -0.022874 -0.911452 
-2.139297 -0.037753 0.961445 -0.034591 0.125739 0.989620 
2.531215 0.270639 1.335606 -0.639526 0.059342 0.752673 
0.326156 -0.453887 -0.083205 0.632411 -0.154319 -0.744142 
-0.913927 -0.286901 0.494229 0.540238 0.001013 0.838989 
-1.113162 0.437715 0.507383 -0.432555 0.097519 -0.880505 
-3.229733 0.289836 1.303652 -0.622394 -0.179195 -0.756756 
1.428645 0.533156 0.649492 0.474875 -0.248451 -0.843950 
-2.986075 0.115719 1.168421 -0.639781 -0.053589 -0.751193 
-1.803426 0.655453 0.864083 -0.370610 -0.312398 -0.872873 
-1.423716 -0.849241 0.992261 0.494713 0.357016 0.773203 
-2.465159 -0.191525 1.028685 0.207965 0.258003 0.926225 
-0.541665 0.460156 0.375088 0.436517 0.246576 0.857316 
-0.164620 -0.139562 -0.260669 -0.528735 -0.138746 -0.818828 
0.255932 0.359992 0.308259 0.122669 -0.254753 0.954356 
0.268488 -0.460101 0.158587 0.525450 -0.115034 0.827224 
1.073178 -0.368154 0.514864 0.517871 -0.080891 -0.847884 
0.934575 0.130146 0.442921 0.536755 -0.125392 -0.831219 
-3.192814 -0.191140 1.496459 0.549957 0.364366 0.737789 
-2.134779 -0.607038 1.154367 -0.110106 0.375383 0.880660 
0.635476 0.247763 0.358550 -0.363231 -0.236435 0.899020 
2.712088 -0.363946 2.126897 -0.866707 0.387859 0.297227 
1.029506 0.041272 0.489532 0.504432 -0.109030 -0.850158 
0.712308 0.623703 0.379277 0.516763 0.311494 -0.706130 
-0.551093 -1.057359 0.198967 0.364309 -0.177539 0.906235 
-3.227543 0.190890 1.346741 0.611585 0.169796 0.760152 
0.135182 0.479526 -0.277387 0.538460 0.219785 -0.792552 
2.506459 -0.549222 1.799474 -0.767302 0.434974 0.442732 
-0.050885 1.145930 0.362637 0.105433 0.455086 0.849474 
0.202535 0.642995 0.400257 0.354974 -0.185261 0.889040 
-1.438019 0.507722 0.744498 0.291039 -0.251740 0.914155 
-1.763866 0.075060 0.915731 0.327194 0.022928 0.903065 
-3.207971 0.344788 1.258973 -0.610637 -0.162752 -0.771467 
2.741115 -0.076612 1.802269 -0.920008 0.197058 0.309009 
-1.690092 0.271284 0.835137 -0.388031 -0.289770 -0.871348 
-1.510116 0.502185 0.727830 -0.446962 -0.283859 -0.842727 
0.300422 -0.374367 -0.124555 0.600177 -0.207581 -0.757095 
0.068217 0.526722 0.401012 0.108244 -0.280550 0.950509 
-1.712836 -0.933655 1.229628 -0.334856 -0.492523 -0.793810 
1.822179 0.128003 0.844067 -0.489796 -0.039796 0.815793 
2.711029 -0.046899 1.673682 -0.914007 0.163889 0.337331 
0.763811 0.402537 0.352594 0.500847 0.435430 -0.706698 
-3.295143 0.449101 1.339566 0.613565 0.205086 0.756993 
0.582731 0.167824 0.161283 0.705795 -0.074682 -0.677284 
-3.148081 0.535252 1.230530 0.322040 0.402086 0.828270 
1.401818 0.474944 0.689685 -0.292547 -0.260704 0.905511 
-0.419643 0.665215 0.017925 -0.719576 0.558993 -0.362687 
-0.300788 -0.601090 0.107092 -0.324722 -0.083397 0.907478 
0.632316 -0.361556 0.204796 0.581217 -0.072379 -0.797395 
1.779968 -0.429781 0.865149 0.499045 -0.319105 -0.789150 
0.565059 -0.080098 0.138046 0.679009 -0.055648 -0.708550 
-1.095725 -0.721423 0.655066 0.592800 0.115451 0.786768 
2.635307 0.258213 1.401487 0.609305 -0.228641 -0.730088 
-2.408538 0.393515 0.985937 -0.179346 -0.281447 -0.919909 
-1.899884 -0.919544 1.268682 0.304891 0.453239 0.822727 
0.221673 -0.855646 0.024170 0.106205 -0.339840 -0.925585 
2.891923 0.004573 2.210143 0.930692 -0.283257 -0.216937 
0.522564 -0.466339 0.168359 -0.093553 -0.038266 0.960633 
-1.332856 0.573635 0.719646 0.457511 0.153274 0.852821 
-3.280765 0.254857 1.370344 -0.650930 -0.185128 -0.729215 
2.829746 0.077225 1.887321 -0.848177 0.311840 0.384516 
-2.546324 0.213570 1.001967 -0.129345 -0.183265 -0.956784 
-2.905689 -0.293300 1.309873 0.537249 0.249101 0.774253 
-0.301590 -0.871925 0.123247 -0.111952 0.010033 0.948719 
-2.230344 -0.456369 1.078251 -0.427380 -0.379936 -0.818152 
1.143643 -0.333440 0.540650 0.517472 -0.093230 -0.845781 
0.515093 0.306160 0.317428 -0.362675 -0.214721 0.896322 
0.559894 -0.238913 0.123591 0.651526 -0.064672 -0.740595 
-2.096161 -0.217406 1.009441 0.127495 0.199645 0.926574 
0.218962 -0.130692 0.199990 0.380238 -0.156072 0.861093 
2.883881 0.412842 1.791382 -0.903673 0.011001 0.352362 
-2.841074 -0.315654 1.263641 -0.342016 -0.447113 -0.821125 
-0.702503 -0.791666 0.322055 -0.532741 -0.068542 -0.830500 
-0.508697 0.435286 0.089083 -0.798085 0.129858 -0.561269 
-0.517363 -0.441793 0.164211 0.103088 -0.042782 0.950376 
0.424429 -0.055422 0.158978 -0.149832 -0.179616 0.935884 
2.597185 -0.051977 1.458785 0.672122 -0.398538 -0.609559 
-3.161456 -0.268300 1.506646 0.622440 0.273611 0.719422 
-1.764198 -0.844453 1.191884 -0.275827 -0.478961 -0.811490 
1.438825 -0.418067 0.661262 0.517604 -0.169186 -0.834302 
-2.094011 -0.708795 1.191708 -0.329099 -0.425688 -0.831153 
0.702285 0.547154 0.367610 0.531166 0.416585 -0.660143 
-1.760794 0.138903 0.880331 -0.363332 -0.290604 -0.883890 
-0.141068 1.195284 0.021304 -0.703866 0.443857 -0.504043 
-1.660620 -0.631317 1.047163 -0.357785 -0.398083 -0.827316 
2.613383 -0.462374 1.983208 -0.817564 0.417168 0.365896 
-0.341486 -0.138839 0.137192 -0.240693 -0.185072 0.908528 
1.494438 -0.747801 0.851254 -0.585472 0.372201 0.686040 
-0.811116 0.561560 0.435773 0.410771 0.167699 0.877321 
-1.140969 -0.532009 0.663410 0.549053 0.118557 0.814253 
2.722152 0.094248 1.577245 0.621463 -0.473116 -0.610176 
-0.534434 -0.263173 0.189316 0.150442 -0.089681 0.933889 
0.536648 0.044421 0.271833 -0.305217 -0.191456 0.904762 
1.865161 0.794551 0.885852 -0.489118 0.488327 0.573471 
1.144467 -0.201377 0.562445 -0.462339 0.002353 0.873391 
-2.549501 -0.333290 1.113757 0.296677 0.300473 0.900948 
-1.052658 0.435961 0.582911 0.432430 0.167785 0.872410 
0.361737 0.743116 0.243351 0.816688 0.394975 0.302808 
1.309407 -0.433722 0.626509 -0.500725 0.096523 0.852700 
-1.654025 -0.776737 1.127112 -0.330480 -0.468342 -0.796449 
0.162669 -0.281264 -0.233356 0.480245 -0.236352 -0.824808 
2.031744 0.289806 0.907393 0.745885 -0.105874 -0.650809 
-0.575043 0.052520 0.307978 0.373415 -0.176360 0.882770 
-1.358902 0.248377 0.670336 -0.479825 -0.262906 -0.832632 
0.930925 0.287647 0.418410 0.571625 -0.056727 -0.812264 
-1.677519 0.583996 0.806007 -0.403175 -0.299945 -0.860109 
-1.660637 0.440518 0.807988 -0.402563 -0.293495 -0.862569 
2.021781 -0.138299 0.936504 0.350377 -0.199116 -0.905725 
1.662161 0.520120 0.793751 -0.359798 -0.256603 0.872972 
0.073105 -0.338089 -0.257048 0.393901 -0.325415 -0.838730 
0.852734 -0.274794 0.403836 0.516750 -0.041471 -0.851970 
0.428387 0.426251 0.324345 -0.418513 0.014799 0.881650 
2.715868 -0.271087 1.998924 0.802958 -0.438453 -0.364999 
-1.323650 0.487757 0.635155 -0.498587 -0.268680 -0.820977 
-0.430029 -0.556470 0.106292 0.028493 -0.033301 0.973691 
-0.767774 -0.863142 0.357099 -0.556774 -0.028154 -0.818472 
2.681373 0.114681 1.517142 0.598306 -0.436336 -0.652634 
0.863731 -0.650361 0.406720 0.483480 -0.006590 -0.871503 
-2.220664 -0.923325 1.340202 0.239304 0.447067 0.857955 
2.592819 -0.447573 1.903140 -0.812634 0.398380 0.384572 
1.898760 0.332422 0.848076 0.438449 -0.237723 -0.861941 
-2.325025 -0.862596 1.327528 -0.272978 -0.454816 -0.843224 
0.320659 0.542845 -0.172840 0.628494 0.222920 -0.728301 
0.073658 0.205157 0.283284 0.071869 -0.274728 0.952111 
-1.194504 -0.374687 0.637760 -0.522133 -0.151360 -0.825113 
0.356482 0.397508 0.282428 0.003546 -0.192849 0.969564 
0.235793 0.885410 -0.026949 0.687625 0.330998 -0.635964 
0.598915 -0.626627 0.284481 -0.250389 0.016031 0.941484 
-0.336957 -0.214312 0.136600 -0.365516 -0.163599 0.853705 
2.549830 -0.295011 1.570043 0.679421 -0.476059 -0.553495 
-1.552567 -0.638000 0.956852 -0.432530 -0.336599 -0.819611 
-1.882484 0.239734 0.895953 -0.223946 -0.263329 -0.908389 
0.706939 -0.021928 0.269590 0.630549 -0.045966 -0.748346 
2.034629 -0.372533 1.076292 -0.326411 0.342980 0.849477 
-1.356064 0.305961 0.711258 0.305682 -0.152476 0.915590 
2.482462 -0.241366 1.438206 -0.756015 0.272749 0.548955 
-2.779507 -0.349948 1.240098 0.477386 0.263742 0.804930 
0.255668 0.547393 -0.201229 0.574388 0.245662 -0.752985 
-1.242759 -0.004762 0.621950 -0.499267 -0.189428 -0.833772 
0.483543 -0.012062 0.215781 -0.226405 -0.182953 0.920722 
0.198329 0.321368 0.321523 0.168326 -0.304672 0.936945 
0.509638 0.597461 0.204276 0.744189 0.429253 -0.474918 
-0.836507 -0.581755 0.404356 -0.570466 -0.036719 -0.814180 
1.947997 0.327241 0.917404 -0.610971 -0.157907 0.694774 
-2.957470 -0.522857 1.475638 -0.495090 -0.390715 -0.759720 
-1.700575 0.615170 0.868041 0.285316 -0.277629 0.907206 
-1.792546 -0.207720 0.915554 0.381589 0.160061 0.893330 
-0.923171 -0.162275 0.460179 -0.576287 -0.074997 -0.811942 
-0.733242 0.547868 0.388996 -0.516090 0.367917 -0.698062 
-3.357821 0.126887 1.514350 0.717055 0.131662 0.662463 
-3.278765 -0.258334 1.609662 0.622366 0.333755 0.699221 
0.341256 0.195617 -0.087922 0.774831 -0.063636 -0.613308 
0.130728 -0.856624 0.016020 0.001509 -0.388408 -0.918159 
0.632853 0.315003 0.388110 -0.364501 -0.119676 0.909628 
-2.039554 0.217692 0.893931 -0.405419 -0.127829 -0.894270 
-3.014110 -0.186733 1.341744 0.599820 0.209960 0.748223 
-1.277423 -0.139759 0.647665 -0.483883 -0.177173 -0.843406 
-0.713068 0.026323 0.395068 0.453196 -0.137485 0.867427 
0.062417 1.201110 -0.027945 0.513727 0.104434 -0.841576 
1.626182 0.654871 0.795581 -0.333546 -0.185786 0.904802 
1.060446 0.248825 0.545837 -0.318731 -0.201938 0.916066 
0.930065 -0.778529 0.443450 -0.464579 -0.060341 0.881767 
-0.101745 -0.306899 -0.251732 -0.432257 -0.285583 -0.831366 
-2.919456 0.637803 1.095556 0.242336 0.229737 0.940486 
-0.085994 1.294365 0.021323 -0.677228 0.556812 -0.409754 
-0.160813 1.112676 -0.015412 -0.597070 0.310391 -0.697031 
-0.003277 0.846507 -0.163826 -0.378717 0.369078 -0.847760 
-0.472926 -0.244014 0.147231 0.099224 -0.110845 0.945663 
0.010612 1.245082 0.260232 0.014575 0.816831 0.560325 
-2.350714 0.715300 0.988330 -0.418492 -0.017032 -0.906253 
-0.045361 1.362609 0.057193 -0.569392 0.758998 0.157312 
-0.296555 0.024998 -0.183190 -0.682467 -0.102390 -0.697178 
0.275278 -0.648809 -0.054959 0.322273 -0.301793 -0.852096 
-1.911209 0.839924 0.965996 0.545360 0.204610 0.806889 
2.092319 -0.447173 1.153194 -0.245024 0.380039 0.859600 
-0.159951 -0.133232 0.223814 -0.229644 -0.108702 0.950877 
-0.315058 -0.865655 0.040924 -0.464844 -0.208105 -0.851036 
-3.254441 -0.382534 1.644346 -0.621774 -0.358130 -0.694684 
0.297739 0.914496 0.197648 0.907868 0.297584 0.114504 
0.779753 0.522732 0.399849 0.463018 0.338343 -0.757602 
-0.237371 1.084947 0.141353 -0.888241 0.397157 -0.118188 
-2.526951 -0.466855 1.159535 -0.341171 -0.356605 -0.863147 
1.638225 0.482234 0.735327 0.472071 -0.254413 -0.843474 
-0.775225 -0.002015 0.424604 0.460517 -0.116383 0.868360 
0.074172 -0.263490 0.227616 0.169189 -0.012372 0.980301 
1.685563 -0.870489 1.147705 0.558908 -0.530459 -0.625855 
-0.827557 0.386346 0.418418 -0.443426 0.428866 -0.762947 
-1.432929 0.107642 0.717386 -0.453703 -0.260928 -0.846185 
-0.008318 1.087761 0.395737 -0.094470 0.331968 0.910599 
-0.168928 1.106533 0.410525 0.058934 0.030815 0.921639 
-0.158321 -0.391813 -0.209926 -0.455868 -0.314483 -0.818703 
0.208094 0.332697 -0.271182 0.666368 0.078872 -0.711308 
1.560809 -0.535287 0.734494 -0.524106 0.190589 0.825117 
-2.625425 -0.459364 1.202206 0.351975 0.330720 0.860723 
0.391451 0.717743 0.178187 0.709345 0.691386 -0.111887 
-2.856420 0.428529 1.149158 0.375846 0.095847 0.870682 
-1.617945 0.222791 0.840506 0.314520 -0.075127 0.907830 
1.630251 0.206675 0.731389 0.488236 -0.245760 -0.836722 
-0.568581 0.390829 0.139049 -0.764338 0.091622 -0.605382 
-0.465686 0.313757 0.055289 -0.792884 0.005514 -0.587650 
0.037303 0.364621 0.345280 0.032178 -0.332314 0.938586 
0.235119 0.171916 0.245138 0.143316 -0.264230 0.952437 
0.423147 0.661660 0.207817 0.382005 0.510987 0.732038 
-0.341662 -0.473523 0.059280 -0.222687 -0.090804 0.949734 
0.376519 -0.135250 0.115386 0.017056 -0.169148 0.961811 
2.680704 -0.086129 1.621711 0.666140 -0.500155 -0.551924 
2.697351 -0.158789 1.778182 0.722506 -0.474776 -0.474750 
0.190380 -0.592571 0.153691 0.281546 -0.174372 0.935249 
0.001379 -1.130733 0.103969 0.478029 -0.276740 -0.805472 
-0.303507 -0.530387 0.098982 -0.358581 -0.102500 0.903069 
0.708872 -0.534105 0.328273 0.471782 -0.091202 -0.868947 
1.231833 0.530592 0.651380 -0.435257 0.133430 0.876560 
-0.498257 -0.824757 0.204942 -0.465898 -0.158141 -0.862109 
-1.386050 0.704449 0.693974 0.450286 0.320124 0.739047 
0.265582 0.923565 0.290095 0.802082 0.186725 0.520990 
2.598064 0.585080 1.395101 0.780665 0.011020 -0.623397 
-2.200465 0.372143 0.952079 -0.239918 -0.166760 -0.929198 
0.599235 0.073046 0.327020 -0.376408 -0.189562 0.891015 
2.225415 -0.234092 1.157243 -0.461414 0.276733 0.797711 
-1.697887 -0.150425 0.869815 -0.370173 -0.275327 -0.885415 
0.524390 -0.298878 0.164254 -0.098200 -0.085781 0.952510 
-3.247971 -0.161170 1.536025 0.590027 0.339800 0.715360 
-0.210498 0.127729 -0.266476 -0.637667 -0.038081 -0.742792 
0.402191 0.425395 -0.033426 0.776002 0.099645 -0.598730 
0.318113 0.157939 -0.149435 0.739408 -0.061493 -0.649437 
-1.868128 0.714900 0.890664 -0.350138 -0.317909 -0.879277 
-1.012971 0.643995 0.525977 0.429291 0.072751 0.896858 
0.687073 -0.154832 0.245230 0.616704 -0.046861 -0.766101 
0.318532 0.529054 0.328600 0.188016 -0.154036 0.935563 
-1.242764 0.137813 0.655310 0.360601 -0.095799 0.899909 
-0.141230 0.094260 -0.306168 -0.572117 -0.037488 -0.795398 
0.589803 -0.427449 0.183786 0.567409 -0.088930 -0.802778 
0.942174 -0.084193 0.453427 0.518066 -0.068288 -0.849090 
-0.271781 -0.472069 0.153925 -0.535130 -0.118263 0.822496 
-0.363230 -0.657499 0.027395 -0.579965 -0.139782 -0.780023 
1.253399 0.381691 0.577561 0.487827 -0.230621 -0.840855 
-0.069523 0.611300 0.421931 -0.135467 -0.253161 0.953330 
0.043149 -0.177844 0.232768 0.133373 -0.049069 0.982733 
0.313928 0.378931 -0.193880 0.713117 0.048474 -0.692033 
-0.312405 0.196311 0.226663 -0.113579 -0.275288 0.953473 
0.849318 -0.076359 0.447346 -0.432177 -0.098249 0.891211 
0.248691 1.026711 0.072757 0.858362 0.349255 -0.329374 
1.008661 -0.385696 0.490475 0.518125 -0.068090 -0.849974 
2.196262 0.509737 1.075562 0.605481 -0.316176 -0.704709 
2.041646 0.264752 0.984028 -0.413843 -0.095672 0.858789 
-1.715698 -0.042447 0.896160 0.335718 0.080686 0.903913 
-0.813705 0.338308 0.360832 -0.559923 0.231847 -0.747997 
-1.240078 -0.314208 0.665976 0.470572 0.101863 0.861927 
2.172516 0.275721 1.051682 0.661720 -0.127500 -0.704070 
0.619112 0.004334 0.322252 -0.354534 -0.164528 0.897030 
-2.396878 -0.727732 1.268975 0.203175 0.411029 0.857276 
-1.144734 -0.776407 0.699199 -0.608650 -0.188277 -0.765283 
0.143857 -0.214068 -0.255678 0.483956 -0.198719 -0.829305 
0.301006 0.210149 0.237398 0.120459 -0.280143 0.951062 
-0.424948 0.681697 0.144831 -0.586108 0.783701 -0.114329 
0.532428 0.545800 0.152723 0.756882 0.324788 -0.527514 
-1.929782 0.697172 0.953341 -0.055006 -0.260899 0.941061 
-0.697239 -0.942526 0.314003 -0.533987 -0.044326 -0.828964 
-0.978807 -0.491032 0.527297 -0.592609 -0.085210 -0.795176 
-1.652467 -0.089774 0.867086 0.338736 0.098548 0.905493 
-1.285799 -0.206799 0.680115 0.433264 0.074470 0.877875 
-1.432616 -0.780456 0.947319 0.493943 0.318120 0.789192 
0.125458 0.864214 -0.095961 0.550124 0.331524 -0.745506 
-2.880335 0.351231 1.081570 -0.439520 0.043686 -0.880787 
0.489925 0.652174 0.246663 0.691381 0.598713 -0.377257 
-1.820867 0.257299 0.926952 0.328757 -0.077878 0.898711 
1.412698 -0.798003 0.792028 -0.573142 0.322226 0.717086 
0.090310 0.916086 0.404457 0.232441 0.030924 0.963444 
-1.395322 0.633991 0.683025 -0.153474 0.498151 -0.810949 
0.434495 -0.193224 0.011528 0.709773 -0.075365 -0.688073 
-0.215768 0.450565 0.349802 -0.149907 -0.247605 0.951788 
-1.440202 0.235994 0.712104 -0.456623 -0.268858 -0.842697 
-2.487325 0.738379 1.024459 -0.349232 0.416887 -0.801446 
0.097113 -0.099730 0.231972 0.160864 -0.104833 0.973991 
-2.076337 -0.846917 1.271763 0.057925 0.425282 0.871372 
-1.232781 -0.227446 0.628542 -0.491789 -0.150419 -0.843398 
0.987911 -0.045146 0.507297 -0.406930 -0.102374 0.895392 
-2.644443 0.239476 1.028361 0.220304 0.050765 0.969864 
1.981666 -0.730373 1.300062 -0.443441 0.464784 0.714316 
-0.284391 -0.678044 0.128315 -0.348810 -0.072715 0.893518 
0.312848 0.694808 -0.109373 0.535314 0.563786 -0.611871 
-2.100402 0.201742 0.957196 -0.008366 -0.046443 0.961089 
0.492402 -0.126793 0.068636 0.699152 -0.065752 -0.693694 
1.573123 -0.913092 1.077830 0.599176 -0.538393 -0.589681 
0.014420 -0.377063 0.235359 0.129741 -0.010344 0.983311 
-1.667168 -0.221349 0.859547 -0.376129 -0.270379 -0.883967 
1.006365 -0.466463 0.508296 -0.484116 0.013594 0.870118 
-2.229872 0.620556 1.000547 0.092367 -0.020116 0.968108 
0.004932 1.287178 0.193514 0.120216 0.870853 0.473178 
0.007312 -0.491992 -0.190619 0.168270 -0.656019 -0.719793 
1.954272 -0.865167 1.390435 -0.559382 0.506145 0.630889 
-0.854368 -0.751786 0.409577 -0.581944 -0.004110 -0.807356 
-0.004652 -1.247143 0.165791 -0.551045 -0.551869 0.611255 
-0.427302 0.086639 0.023070 -0.776374 -0.065495 -0.615828 
2.303792 0.531559 1.180582 -0.439437 0.117533 0.855072 
1.369062 -0.377639 0.631639 0.517412 -0.149080 -0.837252 
-1.987041 -0.943594 1.303392 0.264709 0.449333 0.839951 
-1.322198 -0.785162 0.831142 0.555437 0.239034 0.783688 
0.116255 -0.582713 0.174153 0.215344 -0.162562 0.962564 
1.968336 0.387950 0.955674 -0.464621 -0.085305 0.814032 
-0.019052 -0.975657 0.140737 -0.435401 0.001289 0.892424 
1.926796 0.649527 0.927024 -0.263134 -0.194202 0.928158 
1.613560 -0.238020 0.744439 -0.482994 0.126309 0.846532 
1.843789 -0.552285 1.007002 0.457502 -0.455925 -0.744169 
0.244242 1.066993 0.135055 0.888833 0.379795 -0.127943 
-2.585027 -0.394306 1.146754 -0.318305 -0.341141 -0.877906 
1.604792 0.136643 0.720777 0.492987 -0.242721 -0.834920 
1.231568 -0.105071 0.600241 -0.431435 -0.019997 0.877739 
-1.868362 -0.662730 1.114877 -0.155838 -0.451364 -0.847406 
0.257717 -1.187450 0.163964 0.434481 0.294009 0.768626 
0.435135 -0.217110 0.120682 -0.066767 -0.126979 0.955758 
1.579214 -0.697725 0.907751 -0.607501 0.412607 0.647275 
0.504839 -0.049211 0.084778 0.708645 -0.060305 -0.681423 
-0.870098 0.297553 0.506501 0.373952 -0.030233 0.915046 
-0.085920 -0.947480 0.136275 -0.182192 -0.009156 0.971606 
-1.890217 -0.063288 0.923389 0.420712 0.064008 0.879551 
-0.300335 -0.222459 -0.115158 -0.628008 -0.205677 -0.724722 
0.580130 -0.184811 0.238786 -0.212244 -0.111909 0.928449 
2.241549 0.552394 1.131790 -0.507567 -0.198006 0.777965 
0.456514 -0.507928 0.115715 -0.027274 -0.037478 0.974255 
0.007450 0.463388 -0.343604 0.452844 0.271776 -0.839619 
2.635480 -0.117915 1.571444 0.669302 -0.472186 -0.566762 
2.733476 -0.194087 1.936173 0.775794 -0.451169 -0.400239 
-0.690845 -0.491009 0.342426 0.363366 0.009825 0.899359 
1.466046 0.347285 0.664382 0.484605 -0.244147 -0.839552 
1.835477 -0.925466 1.344956 -0.522665 0.520134 0.652839 
-0.286798 0.147498 -0.220515 -0.705301 -0.045783 -0.687719 
1.821578 -0.288073 0.841329 -0.601373 0.175238 0.746400 
1.584683 -0.160869 0.712382 0.509612 -0.220195 -0.829867 
2.228208 0.602542 1.079824 0.713197 -0.085037 -0.690549 
-2.545715 0.574284 1.077559 0.198495 0.027042 0.918235 
-0.400707 0.371325 -0.016893 -0.800489 0.050958 -0.574781 
-2.354754 0.122149 0.968436 -0.184472 -0.016561 -0.979393 
-1.969427 -0.825007 1.230713 -0.153975 -0.462849 -0.857112 
-1.823961 0.762590 0.850099 -0.296656 0.259174 -0.845556 
-1.627815 0.376495 0.796159 -0.409364 -0.288628 -0.860656 
2.155531 0.409257 1.059075 -0.495492 -0.181930 0.801555 
-0.672585 -0.104485 0.243475 -0.669860 -0.062772 -0.723495 
0.168774 -0.772291 -0.011131 0.038861 -0.382590 -0.911779 
1.350740 0.226627 0.617156 0.494035 -0.228350 -0.837615 
-2.333562 0.410510 0.987810 0.128328 -0.139372 0.942198 
0.909754 -0.202446 0.442347 0.517642 -0.033925 -0.854298 
0.239693 1.076102 0.207754 0.884678 0.439092 0.060991 
-0.408195 -0.702669 0.088431 -0.539136 -0.148996 -0.809239 
2.445600 -0.230300 1.352003 0.688445 -0.335215 -0.631445 
-2.614690 -0.174557 1.086198 0.353795 0.232622 0.885297 
-1.399532 -0.290614 0.739971 0.426017 0.140916 0.880494 
-0.559133 0.318622 0.351777 0.382483 -0.154550 0.895379 
-1.583260 0.445578 0.816687 0.297165 -0.200159 0.909781 
2.494635 0.362587 1.317970 -0.609489 0.090995 0.766678 
-2.259270 -0.366207 1.042384 -0.400949 -0.344616 -0.842173 
-1.605024 -0.700739 1.065308 -0.397349 -0.413068 -0.808118 
-1.178092 -0.454804 0.665304 0.520751 0.113190 0.831333 
-0.282962 -0.933722 0.054763 -0.136249 -0.296574 -0.926092 
-2.304404 -0.058338 0.964457 -0.372800 -0.112104 -0.903312 
0.328438 0.331454 0.265632 0.079514 -0.219416 0.969058 
-2.655007 0.028632 1.053033 0.304812 0.161712 0.923749 
-0.991223 -0.563904 0.554663 0.570375 0.038016 0.811153 
-0.385620 -0.165257 -0.027406 -0.746874 -0.076747 -0.653950 
0.341665 0.695395 0.326563 0.626755 0.360432 0.619040 
2.724500 0.205909 1.552024 0.889092 0.023127 -0.411961 
-1.770511 -0.392360 0.939623 -0.294834 -0.310643 -0.887228 
2.511830 -0.282436 1.499055 0.682840 -0.430433 -0.578215 
2.840196 -0.152070 2.247123 -0.913655 0.328888 0.229773 
0.044543 0.127236 -0.370577 0.499836 -0.009612 -0.852782 
0.769455 -0.651794 0.356875 0.471559 -0.051155 -0.872580 
1.630840 -0.872744 1.096390 0.575036 -0.530426 -0.612908 
-0.403039 -0.632694 0.097693 0.021945 -0.019854 0.980204 
1.194162 -0.006695 0.589435 -0.397629 -0.071879 0.888522 
0.218209 -0.047715 0.206914 0.323808 -0.189276 0.881793 
-0.780046 -0.078222 0.424660 0.486633 -0.086784 0.857980 
-0.183994 -0.404799 0.207873 -0.300014 -0.103745 0.943577 
2.768266 0.033775 1.737566 -0.767166 0.420543 0.470684 
-0.258287 0.432325 -0.231328 -0.643160 0.114682 -0.741333 
-1.461635 0.611672 0.671554 -0.345661 0.169712 -0.904668 
0.708892 -0.985085 0.300862 -0.385396 -0.119604 0.909410 
1.018775 -0.232328 0.486437 0.516627 -0.056396 -0.851287 
0.943081 -0.630838 0.461312 -0.469284 -0.041046 0.879336 
-3.137445 -0.401406 1.557624 -0.557504 -0.377025 -0.725293 
0.934079 0.490080 0.460954 0.351531 0.294191 -0.868751 
-2.463429 -0.296915 1.061588 -0.326485 -0.300830 -0.889616 
-1.969182 0.034361 0.929312 0.455242 -0.004156 0.867988 
0.638461 0.434564 0.191993 0.734980 0.141635 -0.628966 
0.023273 -0.615298 -0.082224 0.311435 -0.469506 -0.820321 
-3.328288 0.279031 1.421570 0.733516 0.022350 0.660689 
-1.546489 -0.407260 0.837285 0.419533 0.205410 0.873225 
-1.672095 -0.531198 0.993787 -0.369036 -0.351671 -0.849211 
1.667643 -0.053989 0.772924 -0.451056 0.044364 0.851670 
1.066836 -0.523530 0.534966 -0.492852 0.043945 0.863556 
-0.781268 -0.336607 0.394259 0.426163 -0.009190 0.875825 
0.515684 0.355151 0.094851 0.773754 0.052733 -0.601444 
2.734746 0.285799 1.549782 0.854424 0.013500 -0.478699 
2.286722 -0.205482 1.190780 -0.543943 0.267424 0.757176 
2.083268 -0.653244 1.317636 -0.448544 0.444758 0.714251 
0.965846 0.060636 0.459606 0.522915 -0.109122 -0.840675 
2.082252 -0.305325 1.055093 0.797529 -0.303527 -0.494318 
1.832598 -0.695148 1.127030 0.483790 -0.494875 -0.703314 
1.327488 0.118393 0.608332 0.498988 -0.202464 -0.838775 
-0.442717 0.206784 0.248727 0.328354 -0.256546 0.893176 
1.586781 0.543216 0.714375 0.469953 -0.254422 -0.844774 
-1.413248 -0.032735 0.745343 0.360560 0.024632 0.900530 
0.394368 -0.464660 -0.006734 0.645770 -0.107780 -0.741535 
2.269008 -0.157700 1.140731 0.757169 -0.208218 -0.596603 
-0.194723 -1.243234 0.146214 0.341102 -0.260825 -0.878440 
-0.478261 0.653210 0.189784 -0.723256 0.572508 -0.374289 
2.069906 0.521541 0.999780 -0.450299 -0.274613 0.806518 
0.049954 -0.890315 0.031570 0.216730 -0.355168 -0.895929 
-2.822387 -0.178365 1.195929 0.517382 0.195506 0.799386 
2.119926 -0.762568 1.438408 -0.591530 0.480798 0.613834 
-0.720723 -0.381505 0.312916 -0.574337 -0.087754 -0.805294 
-1.979070 0.309387 0.897565 -0.079950 -0.229084 -0.932133 
2.554636 -0.034900 1.397030 0.650904 -0.360657 -0.650963 
0.329100 -0.258811 -0.090113 0.675168 -0.143880 -0.703981 
-1.820816 0.771741 0.930306 0.450723 0.328396 0.738838 
-2.853211 0.594836 1.074948 -0.383856 0.028359 -0.922364 
-1.431280 -0.199199 0.755888 0.396325 0.106212 0.889674 
0.864856 -0.137955 0.405202 0.543398 -0.043730 -0.830616 
-2.933493 0.162390 1.146362 0.353291 0.258330 0.872020 
-0.057513 1.311104 0.129039 -0.407699 0.820046 0.343297 
1.093851 0.461548 0.582547 -0.419851 0.191328 0.877283 
2.346426 -0.210668 1.234686 -0.609240 0.279264 0.714912 
1.082040 0.340638 0.557344 -0.292051 -0.232063 0.922363 
-0.244804 0.204742 -0.254732 -0.686284 -0.013458 -0.706582 
-1.440307 -0.527016 0.800542 -0.478688 -0.233824 -0.831834 
-3.436406 0.314579 1.547177 -0.771104 0.062825 -0.587801 
2.469082 -0.013437 1.284938 0.621611 -0.280494 -0.718690 
-1.850166 -0.598623 1.082356 0.498466 0.383718 0.768028 
-0.218062 -0.279996 0.193641 -0.410569 -0.083728 0.862348 
2.769585 0.255662 1.607150 -0.798781 0.135325 0.548282 
2.749233 0.019262 1.665727 0.670010 -0.499689 -0.541494 
0.788122 0.052761 0.337064 0.594882 -0.081584 -0.781974 
-0.105123 -0.048265 -0.307009 -0.504468 -0.100424 -0.836360 
-0.158309 0.007250 -0.283908 -0.562817 -0.076909 -0.798436 
1.175944 0.212278 0.590814 -0.323533 -0.172410 0.909261 
-1.019661 0.375776 0.566446 0.345326 -0.135701 0.919565 
-1.515516 -0.526569 0.838529 -0.456063 -0.251492 -0.840932 
-1.687782 -0.462055 0.958379 -0.368105 -0.321606 -0.865075 
-3.312044 -0.065367 1.550680 -0.707118 -0.229795 -0.660198 
-2.804673 0.359789 1.097776 0.311652 0.052081 0.915717 
0.533587 -0.386978 0.157936 -0.076732 -0.057585 0.959542 
-1.824515 0.173015 0.925310 0.343819 -0.036940 0.896210 
0.079294 -0.342326 0.226462 0.166341 0.000364 0.982892 
0.280652 0.763351 -0.064467 0.606272 0.505943 -0.590055 
