0.957041 0.196464 1.379204 -0.910819 -0.248696 0.302754 
-0.765145 -0.621796 0.556895 0.644859 -0.176889 0.622602 
-1.096802 0.795899 2.682943 -0.976851 0.120374 -0.156147 
0.339346 -0.955699 0.086188 -0.212315 -0.095779 0.937328 
-0.592339 0.454614 0.578462 0.878938 -0.100261 0.418941 
-0.748371 1.124301 1.258762 -0.868062 0.355728 -0.321426 
-0.836045 0.825842 1.726429 0.806308 -0.278896 0.480090 
-0.714415 1.440106 1.605054 -0.712235 0.656531 -0.044283 
1.447885 0.093084 2.848865 -0.957229 -0.123255 0.257372 
-0.243662 -1.251504 0.022592 -0.066004 -0.002661 -0.962600 
1.146135 1.201258 2.755904 0.744625 0.635764 -0.060572 
-0.812752 1.028560 1.740674 0.806010 -0.384549 0.383180 
0.802224 0.077797 0.596323 0.867140 0.181035 -0.439457 
0.076891 0.858020 -0.130519 0.459340 0.411043 -0.775161 
-0.053198 0.801179 0.429126 -0.152559 -0.218004 0.954672 
-0.775639 -0.371568 0.548275 -0.774820 0.094921 -0.526124 
0.733943 0.195627 0.688271 -0.745613 -0.408378 0.480381 
-0.230938 -1.375179 0.059779 0.695175 -0.494894 0.316616 
-0.376912 0.249561 0.299484 -0.224398 -0.194178 0.902420 
-0.934315 1.012470 2.103678 -0.976988 0.141013 -0.121047 
-0.334013 -0.237628 0.219182 -0.513062 -0.232748 0.821343 
1.259523 0.609252 2.381633 0.878016 0.016268 -0.461562 
-1.125129 -0.379090 1.764589 0.947551 -0.170543 0.080793 
0.789544 -0.068487 0.646908 -0.705066 -0.271223 0.556526 
-1.224601 -0.173881 2.187598 0.930946 -0.228835 0.236048 
-1.002319 0.274294 1.820492 0.919723 -0.273235 0.084733 
0.532372 1.206334 1.531053 -0.743172 -0.493251 0.371060 
0.569169 1.211017 1.458586 0.198985 0.635033 -0.594131 
0.836885 0.636268 1.597450 -0.816081 -0.401040 0.299243 
-1.075761 0.744423 2.561636 -0.975148 0.154440 -0.131761 
-1.287456 0.872695 3.586115 0.966158 -0.100856 0.235608 
-0.238764 -0.867794 -0.014635 -0.082857 -0.172706 -0.978721 
-1.029454 -0.297803 1.537105 -0.948937 0.107865 0.057538 
0.150603 -1.192102 -0.049629 -0.625947 -0.209541 0.681786 
-1.169578 0.251678 2.471649 -0.958813 0.135191 -0.196676 
0.810196 0.401143 1.063283 0.942100 0.230643 -0.191917 
0.407800 0.689414 0.155470 0.380140 0.869069 0.012084 
1.041454 0.193799 1.724770 -0.969481 -0.156572 0.067352 
0.155083 0.212592 0.421138 0.306474 -0.162158 0.932326 
0.381360 0.450497 -0.081169 0.634351 0.051670 -0.730085 
0.527047 0.332342 0.120179 0.825199 0.098303 -0.513860 
-1.157223 0.278431 2.302603 -0.952407 0.238287 -0.163044 
0.421060 -0.157885 0.031957 0.813628 -0.054682 -0.569886 
-1.000827 0.054583 1.013249 -0.929104 0.202898 -0.270078 
0.637312 1.281766 1.647636 0.895884 0.318386 -0.302397 
-1.148044 0.302791 2.533751 -0.960510 0.099776 -0.213821 
-1.148762 0.858613 2.993509 0.964061 -0.167728 0.187651 
1.114056 1.107385 2.533843 -0.877232 -0.331229 0.326006 
-0.466069 0.632682 0.111756 -0.752814 0.544016 -0.283525 
-0.812462 -0.811175 0.584998 0.615761 -0.260970 0.614716 
-0.887920 1.265990 2.067288 -0.979190 0.121172 -0.103471 
-1.047433 0.790969 2.443302 -0.972690 0.160917 -0.153617 
0.635579 1.351814 1.784826 -0.805087 0.227864 0.509085 
-0.753749 0.124383 0.550001 0.662851 -0.310390 0.590822 
-0.334538 -0.013982 -0.097588 -0.568509 -0.105886 -0.797326 
-0.679846 0.665911 0.776239 -0.605830 0.558636 -0.539819 
0.035175 -0.192103 0.312378 0.061420 -0.258751 0.960949 
1.355961 0.712861 3.168597 -0.939886 -0.310148 0.096798 
-1.016106 0.001409 0.922750 -0.921164 0.202209 -0.277828 
-0.798192 0.853905 1.547388 0.848494 -0.407211 0.228861 
1.209722 0.095508 2.207676 0.962390 0.003374 -0.233712 
-0.332713 0.609243 0.331229 -0.589308 0.046693 0.739712 
-0.354133 0.733610 0.040601 -0.823979 0.468571 -0.242647 
-0.719674 0.290292 0.453201 -0.853905 0.177925 -0.454519 
0.454119 -1.065833 0.118453 -0.226054 -0.220696 0.828971 
-0.323658 0.036833 0.289048 -0.414236 -0.217943 0.878390 
1.270751 0.234890 2.401741 -0.933420 -0.076505 0.306505 
0.847498 -0.088539 0.689264 0.872984 0.182308 -0.428551 
1.064625 0.053254 1.804684 0.876639 -0.089191 -0.358792 
1.128221 -0.134536 2.080676 0.961360 -0.043068 -0.231741 
0.537765 -0.895894 0.283430 0.568792 0.042426 -0.738526 
0.329559 -0.371078 -0.048432 0.732207 -0.138717 -0.641961 
0.017356 -0.389172 -0.217813 0.281355 -0.333574 -0.897262 
0.152609 0.861286 -0.091905 0.521854 0.451967 -0.708739 
0.772812 0.296935 0.906278 -0.777116 -0.420352 0.443030 
-1.110881 0.856818 2.774316 -0.977258 0.087580 -0.193045 
-0.291029 0.765352 0.331883 -0.689803 0.211661 0.634195 
0.906609 0.082216 1.014974 -0.859678 -0.298363 0.392236 
-0.207463 0.037374 0.349322 -0.327083 -0.239446 0.906973 
-0.102478 -0.480349 0.227377 -0.128106 -0.266237 0.951573 
0.976968 -0.089922 1.571759 0.958209 0.031769 -0.030407 
-0.954282 0.503764 1.879444 0.835943 -0.164496 0.490214 
0.589903 1.266589 1.529033 0.812247 0.331780 -0.331428 
0.545312 0.726061 0.769560 0.788872 0.490685 -0.361603 
0.517769 0.403167 0.541024 -0.784995 -0.295032 0.500190 
-1.200920 -0.153552 2.116856 -0.949264 0.219372 -0.187471 
-0.132372 -0.455505 -0.139889 -0.266824 -0.377797 -0.871896 
1.357885 0.397812 2.639020 0.904922 0.018906 -0.394688 
0.709277 1.038232 1.678774 -0.584667 -0.522376 0.552553 
0.035899 0.007316 0.378141 0.114141 -0.259296 0.957314 
-0.850099 0.734063 1.673543 0.889404 -0.375725 -0.003329 
-1.026141 -0.036752 1.653549 -0.906162 0.115096 -0.201963 
-0.195581 0.945236 -0.012655 -0.633964 0.439749 -0.622489 
-0.363903 -0.317064 -0.009941 -0.802894 -0.099656 -0.584530 
-0.397861 0.108955 -0.058442 -0.648263 -0.041862 -0.731589 
1.010018 -0.405894 0.858969 -0.756024 -0.351386 0.454358 
-0.744569 1.060786 1.191711 -0.772511 0.406563 -0.402707 
-0.708429 -0.211202 0.444079 0.505450 -0.179666 0.684603 
-1.094000 0.952998 2.737613 -0.974991 0.097765 -0.196921 
1.129708 0.957817 2.452860 -0.861942 -0.314425 0.342076 
1.037673 0.558731 1.899340 -0.788662 -0.173022 0.572276 
-0.497002 0.175268 0.038844 -0.789421 0.036863 -0.604271 
0.525220 -0.770770 0.289114 0.602243 0.028046 -0.722708 
1.098884 0.452368 1.922765 0.944936 0.226328 -0.138486 
-0.043551 -0.358385 0.259923 -0.031501 -0.206124 0.973355 
0.665791 0.304109 0.649275 -0.711350 -0.468829 0.482804 
0.528372 0.500097 0.534954 -0.923329 0.011422 0.347796 
-0.782216 0.336304 0.634342 -0.884013 0.241452 -0.378444 
-0.000965 -1.050665 -0.017045 -0.660721 -0.309339 0.678764 
-1.119753 0.473433 2.673487 -0.976729 0.188645 -0.070631 
-1.113352 0.168590 2.022229 -0.962940 0.261030 -0.052199 
-0.019344 -0.707327 -0.047359 -0.333211 -0.107764 -0.913721 
-1.046919 -0.090179 0.982785 -0.916801 0.222283 -0.165899 
0.385817 -0.211813 -0.009007 0.810624 -0.078738 -0.576739 
0.610355 0.347350 0.637866 -0.725338 -0.435003 0.497349 
0.309813 0.147367 -0.121144 0.529899 -0.089733 -0.840144 
-0.170835 1.163528 0.495203 0.487359 0.364509 0.748358 
1.023226 0.840858 2.040492 0.843974 0.262099 -0.438750 
-0.138327 0.987660 -0.023078 -0.550483 0.451752 -0.682102 
-0.136450 -0.602749 -0.072699 -0.064828 -0.283781 -0.951475 
-0.409793 0.672587 0.228279 -0.571558 0.785117 -0.074822 
0.658683 0.050921 0.351065 0.839989 0.093158 -0.508176 
-1.005522 -0.251089 1.485775 0.967840 -0.149964 -0.119210 
0.631881 1.212705 1.577221 0.959640 0.269505 0.010684 
1.166167 0.952135 2.538325 -0.881957 -0.318311 0.296383 
1.182110 0.529934 2.108623 0.924816 0.181025 -0.312655 
-1.085403 -0.292104 1.694995 -0.934225 0.126130 -0.111321 
0.530587 -0.012130 0.165320 0.823825 0.018053 -0.546402 
0.652462 0.134669 0.317985 0.835779 0.097561 -0.518728 
-1.041461 0.869537 2.435256 -0.971425 0.142970 -0.183204 
1.124623 -0.275703 2.129474 0.950887 -0.085830 -0.280315 
0.958902 -0.370033 1.599174 0.962355 -0.099203 0.134532 
1.427845 0.290653 2.935358 0.958971 0.187459 -0.182277 
-0.714734 -0.353418 0.475923 0.598789 -0.170449 0.647392 
-0.120029 -0.890423 0.045201 0.074900 -0.352481 0.899726 
0.313235 0.338957 0.327560 0.260902 -0.113093 0.947510 
-0.018522 -0.957923 -0.067784 -0.387153 0.088584 -0.895630 
-0.654008 -0.127613 0.347244 -0.850523 0.037807 -0.486164 
-1.140064 -0.340470 1.827476 0.942876 -0.188414 0.130500 
-0.222917 0.898084 0.382319 -0.669387 -0.020758 0.731326 
-1.207673 0.269676 3.034495 0.973251 -0.112736 0.170463 
0.914280 0.116435 1.098134 -0.869028 -0.290357 0.372999 
-0.702250 0.130239 0.486581 0.605541 -0.318371 0.639897 
1.039144 -0.350386 1.886698 0.941066 -0.112310 -0.170511 
-0.134190 0.289498 0.442148 -0.277193 -0.116162 0.944979 
0.461861 0.355887 0.311313 -0.568126 -0.299443 0.727404 
-0.735229 0.548465 0.756984 -0.530210 0.674733 -0.492996 
-0.827200 0.698081 1.343950 -0.981113 0.104837 -0.065237 
0.540663 0.596701 0.574070 0.686972 0.650217 -0.221323 
-0.729750 -0.781286 0.522699 -0.693248 0.073112 -0.604739 
0.256631 0.828301 0.344439 0.696452 0.125904 0.656094 
1.270342 0.164923 2.382379 0.936011 0.007260 -0.340350 
-1.103678 -0.307234 0.971542 0.878972 -0.266099 0.362050 
-0.656229 1.069819 1.107802 0.846982 0.051980 0.000899 
-0.520696 0.215074 0.272448 0.423670 -0.372464 0.803366 
-0.068535 0.957429 -0.072206 -0.450331 0.499044 -0.720955 
0.698531 0.637170 1.195428 -0.736182 -0.479917 0.429268 
0.151549 0.136648 0.402358 0.284988 -0.213896 0.931213 
-0.976113 1.260613 2.423001 0.941024 0.062016 0.282361 
0.329101 -0.879931 0.030287 0.562160 -0.086158 -0.799991 
1.419170 0.256748 2.832869 0.953872 0.188913 -0.194249 
1.363764 0.706202 3.241612 -0.945361 -0.298502 0.094271 
0.659890 0.455693 0.588702 0.633825 0.666834 -0.335186 
-0.661469 0.907412 0.980544 0.932524 -0.053913 0.104099 
-1.209780 -0.100638 2.180950 -0.952163 0.229839 -0.165513 
1.078706 -0.250378 1.265550 -0.893412 -0.336914 -0.039883 
0.581106 -0.722973 0.353302 -0.514552 -0.162987 0.756688 
-0.484433 0.445333 0.461777 0.785618 -0.239372 0.538039 
-0.560122 -0.908468 0.314790 -0.610380 0.018637 -0.712435 
-0.253735 1.014978 0.307385 -0.870687 0.329238 0.272403 
-0.895720 0.518647 1.638192 0.922879 -0.321670 0.018176 
1.216621 0.581061 2.224795 0.903628 0.128743 -0.391372 
0.237776 1.085375 0.173719 0.872278 0.428089 -0.146774 
0.380441 0.286713 0.301088 0.095160 -0.201932 0.891671 
-1.123550 0.354575 2.329176 0.941082 -0.295438 0.100945 
-1.008437 -0.171738 1.525300 -0.955313 0.136713 0.023606 
0.691211 -1.006971 0.279334 0.455765 0.526712 -0.692093 
-1.191693 1.026584 3.248323 -0.923456 0.285727 -0.145976 
-1.060262 0.511196 2.241685 0.937305 -0.289433 0.136801 
-0.956768 -0.189641 0.788175 0.835317 -0.226773 0.432673 
0.409755 -0.897569 0.116035 -0.349901 -0.097036 0.914263 
-0.121276 -0.016271 0.362029 -0.208204 -0.249374 0.942899 
0.934744 -0.710014 0.723304 0.694973 0.268987 -0.518219 
0.588717 0.696263 0.898844 -0.969031 -0.190762 0.080634 
1.267704 0.780318 2.607741 -0.918230 -0.204834 0.306172 
1.018975 -0.262282 1.495754 -0.941341 -0.128653 -0.116583 
1.325478 0.453874 2.559992 0.892627 -0.012429 -0.429640 
-0.198569 -0.522133 0.194720 -0.277735 -0.274312 0.919681 
0.222564 -0.139363 -0.160749 0.510541 -0.133382 -0.841514 
-0.418424 -0.056806 -0.006589 -0.792271 -0.033120 -0.601990 
0.211823 0.178973 0.381267 0.335339 -0.182860 0.919109 
-0.157681 1.019616 0.451455 -0.261501 -0.252288 0.890350 
-1.189970 0.470887 3.003927 -0.975578 0.123341 -0.152356 
0.584136 0.327782 0.532629 -0.646989 -0.431387 0.590042 
1.020818 0.224921 1.655333 -0.957261 -0.188241 0.159390 
-0.464910 -0.131657 0.080514 -0.809070 -0.030154 -0.569394 
1.303037 0.751209 2.780108 0.941165 0.291474 -0.153596 
0.195800 0.294765 -0.190314 0.505403 -0.010386 -0.859915 
-0.340636 -0.140466 0.238589 -0.485778 -0.225600 0.839016 
0.626940 1.065541 1.412573 0.979040 0.125793 -0.138491 
0.363237 -0.048355 0.233456 0.314088 -0.190584 0.893290 
0.930524 0.626110 1.720567 -0.863684 -0.440022 0.141310 
1.230149 0.180679 2.273638 -0.875078 0.002286 0.435283 
1.078703 0.387272 1.828313 0.901475 0.103937 -0.361508 
1.113670 1.202408 2.678328 -0.913166 -0.260235 0.298958 
0.226673 -0.625256 0.147929 0.261691 -0.262603 0.904054 
-0.866941 0.363214 0.843382 -0.937404 0.194058 -0.238208 
1.125072 0.931452 2.387279 -0.852414 -0.297123 0.388613 
0.539322 -0.175529 0.261870 -0.381629 -0.214454 0.826167 
-1.142684 0.798790 2.905475 0.970418 -0.120925 0.201917 
-1.187796 -0.254265 2.007678 -0.943851 0.200032 -0.229307 
-0.953219 0.584296 1.937484 0.891136 -0.194707 0.384247 
-0.308865 -0.742658 -0.023156 -0.559958 -0.131242 -0.804298 
-1.046592 -0.131153 1.049446 0.903245 -0.267332 0.128713 
-0.148794 0.165723 -0.214143 -0.487873 -0.027592 -0.866279 
0.403531 -0.982571 0.117032 -0.366855 -0.093559 0.911029 
0.866431 1.106475 2.053108 -0.745160 -0.353139 0.510214 
-0.222774 0.300830 0.409505 -0.357804 -0.100994 0.925009 
1.241182 0.777087 2.504679 0.910613 0.370545 -0.150596 
-1.141377 -0.218937 1.898368 0.938674 -0.224157 0.158163 
-0.926584 0.792411 1.972599 0.910800 -0.244976 0.292668 
1.269692 0.873181 2.754842 -0.926671 -0.310484 0.204521 
-0.748450 -0.556509 0.535358 0.651739 -0.172295 0.621953 
0.833098 0.019961 0.636348 0.866606 0.184586 -0.444426 
0.418725 -0.825821 0.157991 0.575539 -0.033471 -0.771747 
-0.427476 -0.178516 0.040786 -0.804877 -0.051953 -0.578500 
1.044713 0.993051 2.208561 0.869887 0.411172 -0.259721 
-0.382457 -0.263681 0.161488 -0.212350 -0.179965 0.904973 
-0.505031 -0.678999 0.229643 -0.653856 -0.018510 -0.690036 
0.432968 -0.473986 0.122295 0.750761 -0.052924 -0.612279 
-0.761280 1.148472 1.485120 -0.989891 -0.052949 -0.020143 
0.963172 0.877172 1.959675 0.855382 0.260198 -0.403869 
0.678977 0.327259 0.523504 0.893607 0.207461 -0.337401 
-0.281660 0.023883 -0.133836 -0.513370 -0.110455 -0.845686 
-1.175124 0.579389 2.970747 -0.975316 0.112397 -0.166201 
-0.746759 1.275193 1.403295 -0.881664 0.354520 -0.298560 
1.237586 -0.594686 1.036517 0.769941 0.491736 -0.355625 
-0.779717 -0.209771 0.534811 -0.839018 0.088793 -0.466837 
-0.991463 0.092476 1.151029 -0.937923 0.210605 -0.222031 
0.958244 0.395992 1.618767 -0.906106 -0.302651 0.223098 
0.771505 -0.250931 0.615640 -0.681748 -0.232165 0.579674 
0.133282 -0.138432 0.324660 0.196869 -0.245770 0.946817 
-0.524666 0.326827 0.297092 0.456264 -0.411943 0.783188 
0.031437 1.267429 0.309877 0.133455 0.784158 0.600394 
1.248872 0.219252 2.329985 -0.919875 -0.039649 0.369314 
1.314517 0.546487 2.533919 0.891475 0.014439 -0.427894 
-1.064507 -0.144404 1.297770 0.920098 -0.286273 -0.037830 
-1.161531 0.907824 3.059024 -0.975038 0.070205 -0.210511 
-0.968904 0.130728 0.840977 -0.929034 0.180982 -0.298868 
-0.309725 -0.857110 -0.007566 -0.524337 -0.120030 -0.838699 
0.391305 0.508139 0.362308 -0.846635 -0.053097 0.515534 
-0.672629 0.666304 0.903598 0.899948 -0.268838 0.286493 
1.184594 -0.155897 2.243467 0.947707 -0.067027 -0.300139 
-1.209240 0.347355 3.064193 0.971181 -0.094964 0.192140 
-0.279570 0.479658 0.354265 -0.217746 -0.045091 0.971121 
-0.834058 0.106113 0.647555 0.749352 -0.294249 0.515650 
1.044271 1.213898 2.414076 0.867928 0.391042 -0.301868 
-1.068061 0.518194 2.399082 0.931475 -0.335941 -0.001603 
0.050057 0.748825 0.411103 0.082708 -0.054346 0.984587 
0.616596 0.594877 0.839637 -0.971570 -0.122515 0.127642 
-0.414879 -0.731669 0.092268 0.270363 -0.100673 0.940561 
1.420913 0.455421 3.111719 0.964607 0.224132 -0.127646 
1.014860 0.175971 1.532578 0.947502 0.200676 -0.195865 
0.451554 0.289714 -0.017177 0.742708 0.002700 -0.649970 
-0.951313 -0.124211 0.749136 -0.875007 0.165495 -0.399826 
-1.113613 0.544831 2.690665 0.944817 0.034721 0.311450 
-0.458543 0.426553 0.005512 -0.723272 0.166401 -0.590714 
0.958535 0.175348 1.275722 0.931723 0.207018 -0.279682 
0.927512 0.372501 1.556153 -0.893514 -0.276318 0.287021 
0.632425 1.119403 1.517309 0.980726 0.100032 -0.159952 
0.043932 -1.014017 -0.068515 0.308074 0.129814 -0.937587 
0.662210 1.192213 1.762036 -0.751969 -0.379028 0.526816 
1.131305 0.106459 1.989017 0.979889 0.030872 -0.145536 
-1.078627 0.526999 2.475266 -0.954625 0.010912 -0.295048 
0.762926 0.352241 0.958808 -0.769526 -0.423899 0.448231 
0.619785 0.700115 1.034221 -0.698935 -0.533114 0.469264 
-0.961274 -0.272509 0.773174 -0.854629 0.167910 -0.414125 
-1.130901 0.318154 2.246201 0.943632 -0.266300 0.183884 
0.533970 -0.347280 0.217936 -0.309210 -0.157434 0.867218 
0.183816 -0.454717 -0.123466 0.323595 -0.349242 -0.856193 
1.062010 1.116521 2.337351 0.872934 0.363229 -0.320104 
-0.284776 0.961564 0.146812 -0.901701 0.379515 -0.179946 
0.704794 0.193666 0.464234 0.864357 0.156100 -0.437970 
0.540338 0.987260 1.127503 -0.882487 -0.097279 0.000094 
1.014661 -0.754012 0.736951 -0.626749 -0.502990 0.504641 
1.047758 0.515649 1.842657 0.931368 0.322310 -0.078082 
-1.206623 -0.470796 1.096070 -0.907261 0.261159 -0.309620 
0.356577 0.540041 0.283030 0.252353 0.154831 0.865479 
1.050848 -0.613719 0.857179 -0.690494 -0.385219 0.479684 
1.310304 0.638040 2.673431 -0.925057 -0.149353 0.315239 
1.001423 1.278826 2.419823 -0.883254 -0.176677 0.400739 
1.165471 0.456100 2.053555 0.942471 0.154247 -0.253340 
-0.753012 -0.278170 0.507978 -0.810813 0.079790 -0.497900 
0.485154 0.459707 0.068263 0.799545 0.219131 -0.458527 
0.022322 0.775425 -0.175468 0.399324 0.316291 -0.852788 
-0.672879 0.593241 0.755087 0.928399 -0.097751 0.301897 
0.939129 0.690380 1.812499 -0.735539 -0.274173 0.585888 
1.220490 1.014268 2.722837 0.927397 0.307083 -0.203724 
0.143988 1.126055 0.352233 0.925128 0.033487 -0.024627 
0.756825 -0.879795 0.451399 0.567568 0.335093 -0.634906 
1.236038 0.551882 2.321983 -0.923879 -0.234685 0.251458 
0.414666 -1.151398 0.110296 0.427158 0.112080 -0.815014 
-0.344223 0.472530 0.309347 -0.240214 -0.032324 0.937004 
0.870534 1.099118 1.972785 0.894148 0.383854 -0.208310 
-1.127228 1.067272 2.970203 -0.975492 0.066723 -0.209628 
0.928321 -0.332396 0.773092 0.801711 0.244343 -0.455595 
1.134650 0.712764 2.173411 -0.868784 -0.286391 0.390247 
0.228996 -0.533465 0.181525 0.314470 -0.257141 0.911376 
-1.143510 0.603746 2.829923 -0.975737 0.136365 -0.136215 
0.626877 -0.529446 0.426740 0.692700 0.075056 -0.629071 
-0.212234 -1.036502 0.005551 -0.211937 -0.051794 -0.953209 
1.295846 0.602120 2.490503 0.879270 -0.010135 -0.460060 
1.126678 -0.347948 1.228113 -0.875451 -0.376410 -0.033263 
-0.796457 0.597722 0.918070 -0.968695 0.158609 -0.116109 
-0.183015 1.198615 0.281070 -0.669894 0.715114 0.007662 
-0.802090 0.684111 1.185734 -0.984112 0.128992 -0.055684 
0.744911 -0.407220 0.587254 -0.679168 -0.221936 0.596974 
-0.471702 -0.812445 0.201770 -0.599410 -0.027307 -0.746342 
1.317117 0.739513 2.859470 -0.937845 -0.274635 0.191331 
-0.739885 1.174178 1.393286 -0.992516 -0.049448 -0.010458 
0.438597 -0.591163 0.099835 -0.252329 -0.117351 0.942181 
1.094052 1.188822 2.510865 0.871718 0.386631 -0.295346 
-0.343630 0.537528 -0.113731 -0.581583 0.130978 -0.768576 
0.678270 0.399689 0.524381 0.892086 0.298123 -0.280946 
1.398580 0.589002 3.244198 0.962676 0.249513 -0.098800 
0.977176 0.018204 1.568588 -0.953557 -0.112570 0.095440 
0.788803 0.312380 0.830056 0.928505 0.254172 -0.239980 
0.560767 1.294422 1.641032 -0.643309 -0.411978 0.638556 
1.243083 -0.046596 2.357777 0.944005 -0.051034 -0.322276 
-0.449751 -0.042263 0.195003 0.133186 -0.243699 0.893904 
-0.122881 1.238431 0.119581 -0.675976 0.559235 -0.441529 
0.511800 -0.682542 0.276408 0.633352 0.014185 -0.703093 
0.122040 0.929750 0.446040 0.224424 -0.181073 0.953247 
-1.125038 -0.278961 1.036533 0.899205 -0.277113 0.263280 
-0.006797 1.052809 0.464590 -0.097527 0.190430 0.950407 
0.934187 -0.040792 0.814727 0.884064 0.233970 -0.402185 
-1.096176 0.440359 2.186774 -0.945929 0.269760 -0.177064 
-0.063144 1.119921 0.014179 -0.386544 0.438341 -0.798863 
1.005837 0.159169 1.624407 -0.955567 -0.164991 0.142379 
-0.893273 -0.234826 0.685026 -0.837269 0.141896 -0.445373 
1.350166 0.576222 2.810717 0.943136 0.309528 -0.092333 
-0.501185 -1.106681 0.150696 0.127951 -0.288987 0.745569 
-0.783303 0.986603 1.424932 -0.986937 0.004942 -0.035677 
-0.527670 -0.224209 0.216501 0.293637 -0.194066 0.861886 
-0.329668 -0.396834 0.181794 -0.535738 -0.239168 0.800604 
0.446167 0.390229 -0.012482 0.738072 0.074887 -0.617916 
1.027010 0.037833 1.514346 0.943382 0.193389 -0.089469 
0.874862 0.316194 1.289871 -0.856019 -0.321426 0.346375 
1.101511 0.718475 2.109782 -0.853909 -0.298834 0.414822 
1.025943 -0.304451 1.817953 0.937434 -0.106779 -0.131636 
-0.444177 0.084884 -0.010382 -0.766280 -0.003195 -0.628486 
0.495993 -0.080097 0.129277 0.821470 -0.006954 -0.551622 
0.898448 0.583821 1.601814 0.900625 0.147101 -0.331939 
-0.397118 0.493919 -0.042112 -0.641959 0.167760 -0.654574 
0.797056 0.718350 1.522796 0.968149 0.141039 -0.193098 
0.035825 0.632058 -0.214299 0.319841 0.192359 -0.920460 
-0.769076 0.202449 0.615194 0.696924 -0.363570 0.551090 
-0.920265 0.291155 1.110837 -0.953892 0.187236 -0.188305 
0.745863 1.078049 1.761622 -0.616168 -0.562441 0.491719 
-0.956742 0.108029 0.971871 0.894947 -0.256529 0.343185 
0.095971 1.292669 0.162633 0.707256 0.597998 -0.127515 
-0.762081 0.864499 1.387764 0.817137 -0.428067 0.334720 
-1.129560 0.356864 2.481795 0.937191 -0.330420 -0.015625 
-0.792749 1.143568 1.581669 -0.973445 0.104976 0.111701 
0.046113 1.282620 0.108668 0.567008 0.263701 -0.746430 
-0.921671 0.476360 1.803077 0.894166 -0.241089 0.269563 
-1.204202 0.947593 3.255952 -0.973313 0.079776 -0.214594 
1.037625 1.022089 2.337842 -0.824262 -0.335583 0.382425 
0.767160 -0.168542 0.593403 -0.641160 -0.236348 0.599486 
0.363676 0.748253 0.145831 0.907666 0.371895 -0.004170 
-0.225432 -1.177898 0.028824 0.052867 -0.063951 -0.977352 
1.076672 0.099900 1.863122 -0.983274 -0.092537 -0.020778 
-0.345575 -0.385164 -0.018018 -0.798456 -0.116678 -0.588095 
1.011155 0.120547 1.487538 -0.930647 -0.243218 0.190142 
1.356735 0.509190 2.787816 -0.936987 -0.150079 0.278213 
-0.289600 0.331775 0.353780 -0.289680 -0.102179 0.943031 
0.331907 0.432192 -0.132443 0.553103 -0.005520 -0.832117 
0.863614 0.519813 1.563471 -0.843834 -0.337712 0.318432 
1.005340 -0.532308 0.823155 0.758752 0.301305 -0.453887 
1.209387 0.517057 2.184378 0.918392 0.155525 -0.356428 
-1.140007 1.004185 3.001952 -0.975341 0.067939 -0.209911 
0.990246 0.131431 1.409250 -0.923491 -0.240106 0.250985 
-0.107300 -0.946938 -0.070009 -0.232766 0.046057 -0.949798 
-0.181974 -0.806188 -0.019345 -0.087178 -0.157956 -0.978094 
-0.765806 1.011716 1.646735 0.791705 -0.256688 0.520492 
0.852573 1.312965 2.162920 -0.853443 0.004987 0.450376 
0.576910 0.783368 1.094844 -0.861026 -0.388918 0.278951 
-0.684873 0.389917 0.699939 0.712741 -0.455178 0.528617 
0.288306 -0.678496 -0.054798 0.515615 -0.155516 -0.836308 
0.935556 0.513181 1.658773 -0.880261 -0.368430 0.196430 
-0.946614 0.207162 1.379287 0.939428 -0.254460 0.198714 
1.259348 0.996306 2.902861 0.943550 0.290346 -0.155530 
1.055528 0.655353 1.939863 0.880127 0.352354 -0.254183 
1.102207 -0.611168 0.910300 -0.706236 -0.410144 0.451533 
-0.852702 0.481594 1.381085 0.884454 -0.333971 0.254058 
0.916177 1.295494 2.271750 -0.864889 -0.083713 0.425562 
0.477663 0.623976 0.313648 0.739767 0.626305 -0.117152 
0.001432 -0.817558 0.115650 0.561419 -0.297070 0.763007 
-1.067163 -0.160704 0.950161 0.897213 -0.259620 0.306445 
0.881422 0.218157 1.151173 -0.852140 -0.317993 0.372450 
0.936463 1.100975 2.093907 0.887064 0.376077 -0.246820 
0.517808 -0.606233 0.243677 -0.401237 -0.141074 0.835357 
1.282542 0.947024 3.003158 0.947588 0.285362 -0.137295 
-0.452441 -1.029828 0.115965 -0.497291 0.151098 -0.792916 
-0.153932 0.379884 0.457695 -0.323035 -0.052016 0.941621 
0.216506 1.133523 0.245571 0.880902 0.468288 -0.000666 
1.124127 1.166248 2.587624 0.886628 0.367690 -0.266251 
-1.015367 -0.367906 0.848390 -0.857936 0.187963 -0.397917 
1.248634 1.000125 2.832404 0.940204 0.292678 -0.171108 
-0.370255 -0.479608 0.026426 -0.755439 -0.098115 -0.622965 
0.032936 0.984608 0.472712 0.164902 -0.045514 0.980344 
-0.301586 0.887360 0.119401 -0.883632 0.363578 -0.222953 
-0.125454 -0.370362 0.256507 -0.130563 -0.230311 0.961513 
0.576093 0.035363 0.224352 0.828577 0.047061 -0.535335 
-0.967710 0.057608 0.844902 0.885260 -0.251044 0.384363 
-0.665481 -0.569180 0.425636 -0.705173 0.050251 -0.610940 
1.020318 -0.229507 1.777465 -0.971542 0.024712 -0.037882 
0.932142 0.361430 1.483996 0.956957 0.185922 -0.211863 
0.133201 -0.825715 -0.043181 0.106555 -0.099692 -0.967377 
0.519876 0.278334 0.074236 0.812681 0.041197 -0.573705 
-0.375800 0.576493 0.261635 -0.204548 0.298076 0.745571 
0.612606 -0.872869 0.364562 0.589146 0.085801 -0.699082 
-0.270398 -0.660074 0.126197 -0.225324 -0.207869 0.894389 
-0.960306 0.333892 1.636463 -0.912377 0.167034 -0.310171 
-0.652544 0.089332 0.418517 0.535595 -0.307247 0.694182 
0.170267 -0.094909 -0.192114 0.499834 -0.103222 -0.849653 
-0.978340 0.262845 1.640639 -0.915424 0.173198 -0.296974 
-0.222732 1.044744 0.088146 -0.747730 0.406378 -0.448196 
-0.159606 -1.152267 -0.053480 -0.455594 0.009892 -0.842961 
1.047351 -0.407747 1.942001 0.947503 -0.117727 -0.188055 
0.353720 0.025000 -0.080621 0.610985 -0.095266 -0.760244 
-0.981068 -0.437529 0.821585 0.790449 -0.233828 0.459151 
-0.801687 1.376483 1.822722 -0.875587 0.374182 -0.142261 
0.460583 -0.926272 0.187256 -0.404227 -0.117676 0.867604 
-1.209469 -0.556069 1.105798 0.872976 -0.294814 0.338616 
-1.230957 0.452440 3.192112 -0.975179 0.087170 -0.197201 
-0.347795 0.781760 0.121863 -0.911838 0.370460 -0.112531 
-1.009083 0.799699 2.280951 0.939907 -0.028218 0.335340 
-0.089703 -0.816540 0.084988 -0.073448 -0.362422 0.894285 
-1.027091 0.418509 1.997106 0.831660 -0.183835 0.443118 
1.000714 0.798537 1.961568 0.834210 0.347960 -0.411910 
-0.909193 0.309000 0.963913 -0.949857 0.174100 -0.207471 
1.304482 0.859706 2.982773 0.950147 0.274791 -0.141097 
1.031894 0.121043 1.711830 -0.970902 -0.125615 0.027272 
0.779104 0.656968 1.488775 -0.782685 -0.415030 0.366700 
0.438672 -0.760974 0.137304 -0.335107 -0.111017 0.905706 
-0.606946 0.671422 0.696369 0.849422 -0.255119 0.425385 
0.012131 -1.186923 -0.116036 0.347845 0.161602 -0.905818 
0.964297 -0.018677 0.981239 0.897626 0.235071 -0.338410 
-0.058370 1.231189 0.076884 -0.543997 0.350476 -0.752473 
0.897223 0.207317 1.082487 0.924262 0.224005 -0.275169 
-0.092773 -0.222645 -0.211387 -0.410782 -0.193075 -0.869935 
0.559392 -0.648913 0.326834 -0.496330 -0.152227 0.771828 
0.921588 1.098685 2.184027 -0.775646 -0.359518 0.439878 
-0.856526 0.172956 0.635870 -0.885833 0.191431 -0.398514 
0.494034 0.100884 0.076009 0.814044 0.008772 -0.570432 
-1.195861 0.231947 2.965473 -0.979319 0.145286 -0.118951 
1.296674 0.935229 3.255659 0.853615 0.458187 -0.005616 
0.846065 0.824939 1.659165 0.833304 0.119231 -0.455569 
1.309146 0.311885 2.517843 -0.940226 -0.161311 0.225788 
-0.905674 0.446900 1.501517 -0.971194 0.163248 -0.107209 
-0.680684 1.521404 1.544817 -0.870721 0.316907 0.166528 
0.253182 0.992885 0.338067 0.836344 0.065804 0.446039 
-0.211428 1.138126 0.177701 -0.851970 0.481310 -0.165551 
-0.853947 0.964177 1.789570 -0.948392 0.052415 -0.154343 
0.588092 0.389780 0.290133 0.856615 0.219225 -0.387883 
0.253200 -0.457870 0.200845 0.365018 -0.241241 0.892626 
-0.737689 0.365600 0.562063 -0.870905 0.234518 -0.401152 
1.316127 0.778156 2.939241 -0.929648 -0.321250 0.140268 
0.124936 0.300396 -0.227378 0.485821 0.017868 -0.870233 
-0.553671 -0.700430 0.292625 0.505173 -0.122737 0.775124 
0.352440 0.641242 -0.088408 0.613121 0.271006 -0.700581 
1.277091 0.979212 3.185911 -0.944916 -0.103806 0.213975 
0.099191 -0.598490 -0.076946 -0.005368 -0.289786 -0.953179 
0.950594 0.972995 2.066891 -0.810544 -0.354827 0.448097 
-1.023031 0.650095 2.186491 0.944582 -0.272122 0.173930 
0.483461 0.473506 0.483577 -0.889641 -0.033516 0.416311 
-0.907395 0.072857 0.744901 0.820640 -0.280014 0.445362 
-0.093668 -1.095631 -0.084458 -0.321180 0.129201 -0.932427 
0.839889 0.282176 1.111802 -0.824771 -0.354657 0.393326 
-0.677409 1.230055 1.323853 0.773641 0.307274 -0.308583 
-1.052710 0.232725 1.849328 -0.959393 0.246100 -0.078911 
-0.965233 0.957531 2.258581 0.914222 -0.108570 0.347109 
1.037488 -0.470699 0.873501 -0.739835 -0.369138 0.454343 
0.539525 0.131646 0.139653 0.819454 0.036220 -0.557696 
-0.686720 1.451616 1.511142 -0.359498 0.135785 -0.852862 
0.728409 1.321950 1.881949 0.807207 0.482617 -0.305487 
-0.259558 0.944002 0.341494 -0.816033 0.027065 0.534658 
1.159350 0.372214 2.073137 -0.807476 -0.037488 0.529756 
-0.179267 0.135362 0.388298 -0.294161 -0.216215 0.927437 
-0.231096 -0.294938 -0.150250 -0.516235 -0.177916 -0.832018 
0.323545 -0.234559 -0.086977 0.607082 -0.152286 -0.753448 
0.354301 -1.095406 0.080480 -0.031710 -0.033488 0.851030 
1.229838 0.510666 2.257924 0.908905 0.102469 -0.384053 
1.383553 0.378900 2.782830 -0.941399 -0.135430 0.285055 
1.268963 0.726609 2.551319 -0.913112 -0.157786 0.351364 
-0.075668 -0.284237 0.281415 -0.089238 -0.251527 0.959799 
-0.065645 1.196502 0.388425 0.173668 0.674961 0.700464 
0.619307 -0.350340 0.385990 0.784199 0.055715 -0.548523 
-0.515644 0.139811 0.255065 0.394216 -0.342580 0.819451 
-1.079093 -0.158522 1.744383 -0.909393 0.122543 -0.237046 
-0.207479 -0.050557 0.328648 -0.356273 -0.244801 0.889506 
-0.537780 0.040132 0.134974 -0.810211 0.026877 -0.564559 
1.026225 -0.184502 1.495644 -0.937395 -0.167627 -0.061326 
0.944220 -0.415564 0.777162 0.780868 0.258411 -0.462529 
0.163034 0.550659 -0.184603 0.432308 0.107420 -0.878891 
1.110492 0.810175 2.178642 0.841791 0.209649 -0.486462 
-1.198968 0.630243 3.107685 -0.975081 0.077936 -0.207467 
0.571799 0.242253 0.171068 0.822970 0.067311 -0.548201 
0.539674 0.833002 0.918291 -0.911995 -0.332849 0.227138 
0.080527 0.147181 0.411373 0.181512 -0.217259 0.951684 
-0.855680 0.353149 0.930562 0.835869 -0.336832 0.408095 
0.844971 0.294498 1.020795 0.929381 0.231426 -0.240296 
-0.616918 0.307390 0.246446 -0.818875 0.126911 -0.532544 
-0.841795 1.274948 2.011216 0.862654 -0.215845 0.416546 
-0.947706 0.876444 2.116018 0.905598 -0.340913 0.173567 
-0.721089 0.281498 0.600474 0.658823 -0.423356 0.573011 
-0.800561 -0.907702 0.473769 -0.583628 0.452146 -0.597936 
0.790234 0.158596 0.771221 -0.794910 -0.408657 0.421875 
-0.311107 -1.339922 0.063363 -0.883549 0.138473 0.288778 
1.252265 1.013477 2.973303 -0.893540 -0.433176 0.074460 
-1.034067 0.950476 2.530747 0.940401 -0.131089 0.269541 
0.386306 0.089011 -0.058057 0.658517 -0.066750 -0.719056 
-0.670369 0.793789 0.862362 -0.645706 0.484694 -0.582023 
1.112784 -0.323235 1.298439 0.899592 0.330867 0.157045 
-0.391471 0.327593 0.301719 -0.087047 -0.187474 0.909952 
0.994107 -0.038719 1.632483 -0.966133 -0.070156 -0.009858 
-0.999262 -0.113362 0.808375 -0.893256 0.184203 -0.372845 
0.924974 0.226056 1.316116 -0.887838 -0.277535 0.325497 
-0.056517 1.017632 -0.035020 -0.386339 0.477604 -0.767458 
-0.865007 -0.315421 0.655886 -0.814599 0.130142 -0.471087 
-1.096484 -0.516022 0.961579 -0.862084 0.217986 -0.374280 
0.568903 0.491740 0.263638 0.864254 0.340933 -0.300710 
-1.122246 0.944935 2.902837 0.963283 -0.179419 0.183153 
-0.387331 -0.403304 0.039529 -0.788061 -0.094402 -0.589717 
0.491900 -0.438603 0.206300 0.759459 -0.018264 -0.593796 
-1.227720 0.701038 3.275342 0.967728 -0.117269 0.211832 
0.038520 -0.165842 -0.237798 0.374556 -0.186115 -0.884600 
1.275489 0.669845 2.474050 0.920442 0.312876 -0.175865 
1.227802 -0.438674 1.164780 -0.830837 -0.449377 0.189383 
-0.877239 1.275392 2.139810 0.940170 -0.138699 0.303452 
-0.355294 0.658412 0.283661 -0.585714 0.309848 0.666850 
0.630599 -0.117885 0.406243 -0.506802 -0.241287 0.723934 
-0.962893 0.173458 1.448400 0.947083 -0.256063 0.137955 
0.558636 -0.344338 0.292587 0.796641 0.016593 -0.548394 
0.971717 -0.399355 1.531279 0.962436 -0.030266 0.204074 
0.163341 -0.284633 0.275140 0.210246 -0.242902 0.940434 
-0.816306 0.482642 1.102090 0.835831 -0.363506 0.364556 
-0.869658 -0.048839 0.669187 0.741549 -0.227709 0.504151 
0.710511 0.869364 1.564837 -0.724470 -0.492278 0.388219 
-1.142093 0.288992 2.615034 0.947824 -0.290595 0.006657 
-1.205170 0.081057 2.722200 -0.972089 0.173913 -0.123390 
-1.130183 0.525091 2.759852 0.947651 0.023413 0.301804 
0.088523 0.963127 -0.059452 0.480948 0.479395 -0.712937 
-1.106976 0.607743 2.657705 -0.976105 0.171916 -0.092177 
-0.757622 1.345240 1.769567 0.820213 -0.247165 0.493622 
0.212892 -1.181196 0.024202 -0.035275 -0.038842 -0.982992 
0.385937 0.142112 0.281284 0.162997 -0.233081 0.869064 
-0.840306 -0.483823 0.648037 0.712373 -0.196531 0.553373 
-0.739393 0.675226 1.074324 0.790638 -0.425332 0.413941 
0.471009 0.651531 0.131694 0.775547 0.580433 -0.199993 
1.043767 0.873990 2.107738 0.851506 0.192241 -0.461891 
-0.840534 0.549993 1.400751 0.875990 -0.348172 0.261373 
-1.009482 0.944709 2.425377 0.931538 -0.117928 0.299280 
-0.155847 0.530682 0.445487 -0.323430 -0.013729 0.944873 
-0.228896 -0.383846 -0.143070 -0.497928 -0.221728 -0.832454 
-0.011035 0.355062 0.463887 -0.079962 -0.102161 0.988127 
-0.068955 0.230730 0.432702 -0.156890 -0.172262 0.964297 
1.081867 0.050159 1.943831 -0.843257 0.047356 0.497070 
0.088761 -0.317233 -0.201934 0.377495 -0.251254 -0.874563 
-0.565509 0.562511 0.480173 -0.568478 0.744475 -0.257755 
0.537023 0.236297 0.345295 -0.538220 -0.349876 0.742692 
-0.176468 -0.108522 -0.188130 -0.501433 -0.109831 -0.847874 
-0.047554 0.794508 -0.161049 -0.425647 0.344421 -0.824051 
-1.138456 0.932819 2.992607 0.960422 -0.197541 0.178092 
-1.062711 -0.344569 0.905898 -0.877981 0.206559 -0.369607 
1.155948 0.192610 2.020528 0.981521 0.050071 -0.139969 
0.852291 -0.797843 0.594057 0.631920 0.305054 -0.573974 
-0.551228 0.528058 0.220287 -0.809592 0.432268 -0.317805 
-1.216417 0.774280 3.245280 -0.973719 0.078452 -0.213447 
-0.794333 1.274792 1.684693 -0.977710 0.101119 -0.178687 
0.697714 0.113301 0.395696 0.843211 0.120045 -0.500853 
1.051555 -0.105885 1.846987 -0.974193 -0.018879 0.005318 
-0.594219 0.547883 0.322569 -0.825197 0.478106 -0.269080 
0.804910 0.527261 1.382244 -0.808251 -0.386110 0.361737 
0.286184 -1.050678 0.067407 -0.138174 -0.027298 0.937047 
0.954407 0.939226 1.997221 0.871294 0.172077 -0.412745 
0.194081 1.025776 0.430111 0.473249 -0.258236 0.756310 
-0.901851 0.718130 1.776670 -0.946609 0.225446 0.015925 
-0.390905 -0.140957 -0.021760 -0.765308 -0.065301 -0.622975 
1.080778 -0.195422 1.972742 0.909012 -0.109173 -0.362084 
0.065940 -0.607003 0.195296 0.247802 -0.312110 0.906703 
-0.550206 0.199381 0.107368 -0.799082 0.060147 -0.584530 
0.132558 -0.358776 0.259033 0.140400 -0.229328 0.960689 
0.097386 -1.075680 -0.081065 0.329006 0.131064 -0.931542 
-0.375752 -0.215171 -0.022143 -0.773639 -0.082812 -0.613710 
0.254162 -0.812908 0.092031 -0.042734 -0.181834 0.893618 
-1.190410 0.544813 3.036149 0.964781 -0.052263 0.242425 
-0.777149 0.942445 1.339612 -0.987596 0.029361 -0.035009 
-0.784936 0.838808 1.265309 -0.986466 0.070905 -0.042409 
-0.873266 0.632718 1.526257 -0.966785 0.102754 -0.116715 
1.226315 -0.511866 1.055594 0.805261 0.431995 -0.345693 
0.017507 0.581597 0.453867 -0.002257 0.328027 0.941438 
1.042086 -0.105516 1.255457 0.910648 0.268924 -0.085229 
0.866928 0.754992 1.759084 -0.755433 -0.304467 0.522550 
-0.630126 -0.045469 0.370695 0.467485 -0.255179 0.735957 
1.080949 -0.065715 1.940876 -0.971711 -0.032258 0.089520 
0.036914 -0.257943 -0.227675 0.345564 -0.241771 -0.887668 
0.286294 -0.381896 -0.103372 0.582334 -0.190951 -0.771886 
0.074839 -0.980594 -0.004573 0.023541 -0.381794 0.876339 
0.120106 -0.019878 -0.223339 0.489699 -0.065860 -0.858556 
0.051829 0.286618 -0.269451 0.471788 0.039848 -0.878750 
-0.994908 1.014703 2.434473 0.922137 -0.154958 0.298950 
1.013617 0.402741 1.740711 -0.931966 -0.304843 0.088463 
1.293202 0.722624 2.662538 0.933294 0.326662 -0.123929 
1.360324 0.448135 2.730319 -0.935166 -0.128597 0.305993 
-0.656543 0.991042 1.184189 0.952052 -0.193608 0.196625 
0.978521 0.576936 1.815576 -0.854238 -0.302774 0.368725 
0.996395 0.970008 2.123019 -0.786546 -0.294887 0.522060 
0.288623 -0.569284 0.144575 0.380625 -0.222117 0.892472 
1.124693 -0.048431 2.035286 0.968962 -0.015228 -0.195975 
-0.959857 -0.346216 0.777141 -0.842309 0.166639 -0.424624 
0.205796 0.492809 -0.181034 0.492324 0.062411 -0.860214 
-0.276984 -0.035936 0.296106 -0.403446 -0.231028 0.875376 
-0.208308 -0.920200 0.068471 0.313725 -0.213457 0.875253 
1.036584 -0.077625 1.321173 -0.906107 -0.293072 0.097716 
-1.019359 1.194951 2.489499 -0.955895 0.204236 -0.202491 
-0.515020 0.284786 0.033278 -0.783862 0.063110 -0.613803 
0.996491 1.086262 2.318123 -0.813444 -0.350823 0.388440 
1.454270 0.142298 2.908828 0.961766 0.136455 -0.230010 
0.607004 -0.956738 0.281495 0.515858 0.257543 -0.719367 
0.823721 0.920046 1.731322 0.931733 0.210362 -0.167986 
-0.240615 -0.078830 -0.153084 -0.510433 -0.123767 -0.843595 
0.683520 -0.567452 0.483835 0.689482 0.111269 -0.612391 
0.460622 0.396982 0.393888 -0.709750 -0.253561 0.609698 
1.006396 -0.049810 1.225260 -0.897951 -0.285564 0.186765 
-1.164953 -0.189429 1.970753 -0.946457 0.207603 -0.202023 
0.799424 1.316959 2.068502 -0.839123 0.038364 0.457853 
-0.769817 0.640400 0.837189 -0.860628 0.346542 -0.341009 
-0.294585 -0.539622 0.149451 -0.392506 -0.217501 0.883353 
-0.880027 0.978467 1.901182 -0.950234 -0.000726 -0.211327 
0.282211 -0.202784 0.254874 0.465190 -0.235285 0.841393 
-0.526008 0.592131 0.278902 -0.719054 0.620028 -0.238948 
-1.172690 0.138248 2.235163 0.885809 -0.227466 0.283055 
-0.435553 -0.290944 0.111673 0.114608 -0.163892 0.954409 
1.067846 -0.242189 1.446986 0.927454 0.219013 0.125784 
-0.633314 0.605914 0.665838 -0.630463 0.566872 -0.477995 
-0.641755 0.916584 0.910589 -0.747206 0.418571 -0.481738 
0.529502 1.359758 1.614980 -0.802916 0.006412 0.465237 
0.779960 0.117543 0.709932 -0.766814 -0.362942 0.483944 
-0.388136 -0.802996 0.082771 0.241176 -0.100198 0.942657 
0.778529 0.804799 1.557289 0.952275 0.127442 -0.226647 
-0.557301 -0.963193 0.255221 -0.554146 0.161221 -0.726982 
-0.816896 1.300870 1.940366 0.850786 -0.225261 0.438470 
1.261342 0.534020 2.403112 -0.930900 -0.255796 0.195278 
0.824408 0.532613 1.454059 -0.819461 -0.370441 0.346534 
-0.679310 1.583704 1.505763 -0.784671 0.305908 -0.499983 
-1.235392 0.057664 2.377324 0.950862 -0.272177 0.136496 
-1.000065 0.035840 1.256201 0.926433 -0.260324 0.141258 
-0.647707 0.178106 0.425545 0.557936 -0.343672 0.685680 
1.075116 1.111946 2.467188 -0.857632 -0.337366 0.348479 
-0.907798 0.269265 1.186573 0.895080 -0.289650 0.288520 
-0.074336 -0.943768 0.017661 -0.037532 -0.378460 0.878778 
0.778332 0.669969 1.375988 0.966636 0.174304 -0.160865 
-1.208591 0.559685 3.122216 -0.974901 0.085046 -0.200310 
-1.128027 -0.633828 0.978024 -0.829164 0.306231 -0.376157 
-0.862364 0.832580 1.655134 -0.900144 0.047054 -0.315466 
-0.967691 0.195076 1.595575 0.956405 -0.254702 0.070634 
0.685964 -0.390545 0.494579 -0.596809 -0.200709 0.661640 
0.580304 0.416772 0.616580 -0.907262 -0.078901 0.341111 
0.903563 0.888934 1.857182 0.875690 0.268478 -0.327069 
0.600855 0.506258 0.554814 0.623030 0.709713 -0.251641 
0.688552 0.610128 0.866474 0.752655 0.513097 -0.368164 
0.752290 0.107661 0.642051 -0.731364 -0.335982 0.542890 
1.317781 0.134947 2.519509 0.935827 -0.008180 -0.338720 
1.016303 0.069422 1.647137 0.925653 0.034505 -0.214059 
0.914517 -0.635065 0.713115 -0.643285 -0.320030 0.557722 
0.702798 -0.477438 0.529406 -0.640922 -0.206049 0.635544 
0.903570 0.159070 1.025278 0.916429 0.227535 -0.298898 
-0.657293 1.329032 1.506688 0.928935 -0.171302 0.156903 
0.092191 0.787465 -0.141285 0.452463 0.371534 -0.789005 
0.522247 0.474784 0.139791 0.844175 0.284370 -0.368532 
-0.210568 -0.007310 -0.172742 -0.503338 -0.094554 -0.850527 
-0.397783 -0.368680 0.116926 -0.102762 -0.163047 0.925777 
-0.818940 0.564153 0.990101 -0.973905 0.152543 -0.103289 
-0.981423 0.138386 1.380556 -0.951307 0.226107 -0.127498 
0.071879 0.133239 -0.256215 0.480289 -0.008854 -0.869855 
-1.041417 0.042687 1.765217 0.953278 -0.254984 -0.071986 
0.324539 -0.355015 0.198201 0.543390 -0.236181 0.802261 
1.263556 0.063059 2.372945 -0.909934 0.028179 0.386102 
0.517245 1.279611 1.578600 -0.903240 -0.044758 0.226784 
1.013372 0.683470 1.879558 0.878112 0.381386 -0.216916 
-0.637176 0.311043 0.478195 0.576830 -0.429711 0.658400 
0.635681 0.374507 0.701338 -0.837427 -0.288896 0.372643 
-0.832057 0.521716 0.926554 -0.967631 0.151501 -0.131143 
-0.938766 0.141667 0.909543 0.877705 -0.272163 0.374900 
-0.700699 0.986324 1.240299 0.766888 -0.479120 0.417826 
-0.189084 -0.628908 0.156899 -0.230449 -0.288532 0.915140 
0.988689 1.070259 2.165428 0.879844 0.383799 -0.262728 
-0.670552 1.191225 1.387509 0.865396 -0.325408 0.303847 
-0.719249 0.427148 0.527868 -0.857778 0.312749 -0.365091 
0.829094 -0.507197 0.652475 -0.666234 -0.269748 0.574511 
1.000679 -0.130640 0.916523 0.880444 0.273897 -0.321510 
-1.057552 -0.099156 1.354334 -0.932145 0.260257 0.057242 
-0.491312 0.376900 0.352153 0.589224 -0.367585 0.694914 
-0.839294 0.448512 0.866238 -0.947369 0.184208 -0.197557 
-1.053477 1.186743 2.747444 0.954674 0.019594 0.261439 
0.666828 0.637765 1.092357 -0.717226 -0.505950 0.452959 
0.122113 1.153914 0.448683 -0.355791 0.407748 0.800446 
1.338303 0.748935 3.080106 -0.930112 -0.333359 0.096979 
0.742368 0.722250 1.464534 -0.755654 -0.449058 0.386992 
0.497551 0.662547 0.558444 0.751767 0.583767 -0.206731 
0.774373 0.568533 1.203099 0.963460 0.218141 -0.126432 
-0.816999 0.079760 0.519271 -0.868488 0.133325 -0.447049 
-0.713159 0.433675 0.769330 0.721721 -0.469422 0.507918 
-0.066378 -0.588596 -0.075224 -0.085234 -0.278841 -0.941941 
0.585405 0.144797 0.396109 -0.557391 -0.323904 0.713916 
1.268750 0.915120 2.857086 -0.912457 -0.364770 0.141497 
0.710015 0.513128 0.797319 0.778343 0.486939 -0.320772 
1.293725 0.822054 2.837374 0.944206 0.275159 -0.174360 
-0.503127 0.579510 0.149175 -0.790321 0.494205 -0.287314 
0.763477 0.488365 1.185087 -0.782665 -0.419740 0.402197 
-1.142140 0.206942 2.158558 -0.957535 0.262841 -0.100685 
-0.265106 -1.137110 0.074576 0.202017 0.001513 0.962825 
-1.118063 0.326232 2.170356 -0.951640 0.266822 -0.138968 
-0.994730 0.656739 2.057429 -0.941483 0.234515 -0.233689 
-0.537825 -0.536301 0.243197 0.381842 -0.132148 0.828683 
-1.119526 -0.294827 1.355512 0.916438 -0.309529 -0.201701 
0.368264 -0.205342 0.191296 0.295918 -0.191348 0.881087 
0.767685 1.265746 1.923051 0.910113 0.343347 -0.209363 
1.233293 0.704199 2.428193 -0.896798 -0.179057 0.388625 
0.240419 -0.965951 0.005353 0.075139 -0.124905 -0.987187 
0.868269 0.889252 1.789098 0.907030 0.245512 -0.229579 
0.989865 0.335338 1.593249 0.911000 0.172760 -0.318323 
-0.359451 -0.746020 0.045292 -0.637093 -0.086778 -0.733660 
0.218338 -0.358226 -0.150066 0.489246 -0.211114 -0.838772 
0.382913 -0.765111 0.083114 -0.189368 -0.114620 0.943455 
-0.291103 -0.103367 0.272949 -0.436391 -0.232520 0.858524 
-0.930024 0.875095 2.018507 -0.947934 0.055521 -0.249577 
-1.206058 0.019620 2.255918 0.899642 -0.230845 0.257687 
0.216975 0.536007 0.394791 0.262572 -0.028993 0.958622 
-0.994804 0.091810 1.636364 0.957598 -0.242190 -0.020762 
-0.577589 -0.248580 0.272098 -0.840040 -0.009396 -0.505111 
-1.279303 0.782635 3.517255 -0.971422 0.091451 -0.218835 
-0.823112 1.042561 1.611944 -0.970852 0.123556 0.046307 
0.743829 0.743959 1.359189 0.968956 0.169770 -0.150872 
-1.030104 0.304805 1.905120 0.735987 -0.121646 0.624290 
0.552176 0.928245 1.239602 -0.897422 -0.349231 0.243520 
0.724132 0.867612 1.476218 0.972831 0.134330 -0.169820 
-0.726716 0.473310 0.586747 -0.794719 0.458892 -0.327866 
-1.025148 0.076357 1.705127 -0.887678 0.118598 -0.315439 
1.014059 -0.179189 1.719471 0.921988 -0.096038 -0.115943 
0.928432 0.481046 1.587704 0.917254 0.158354 -0.302515 
-0.620569 -0.051887 0.278377 -0.836532 0.039638 -0.513113 
0.129245 0.391105 -0.207290 0.458338 0.049464 -0.879494 
0.722985 0.217484 0.535711 0.880468 0.183466 -0.391682 
0.559475 0.595609 0.647551 -0.914217 -0.193064 0.285705 
0.600345 -0.438303 0.371453 0.742782 0.050771 -0.589047 
-0.736158 1.281965 1.493644 -0.989490 -0.095371 -0.017351 
-0.620475 -0.623439 0.377910 0.575091 -0.138446 0.711765 
0.812713 0.499610 1.242442 0.961297 0.217814 -0.141562 
0.618254 0.347964 0.358357 0.861893 0.185555 -0.399787 
-0.886057 0.377874 1.009290 -0.957821 0.171276 -0.172537 
0.256911 -0.846088 -0.015084 -0.023101 -0.191453 -0.962980 
0.883988 1.265668 2.212090 -0.846975 -0.312888 0.421385 
-0.443892 0.581863 0.421734 0.878364 -0.079120 0.448380 
-0.795564 1.283773 1.758609 -0.989943 0.094368 -0.029172 
1.365237 0.728154 3.320950 0.958155 0.269072 -0.087222 
0.022472 1.034554 -0.030186 0.296475 0.483996 -0.811481 
-1.196845 0.838775 3.184986 -0.974108 0.075882 -0.212612 
-1.013720 0.025593 1.183098 -0.934229 0.224105 -0.147123 
0.712018 0.752340 1.250642 0.969222 0.189735 -0.123539 
0.028550 1.364730 0.094546 0.463930 0.431022 -0.711145 
-0.737161 1.151887 1.324643 -0.973254 0.050409 -0.062717 
-0.859606 0.098318 0.574360 -0.876290 0.151835 -0.431120 
-0.934769 -0.421779 0.764084 0.771832 -0.221486 0.484967 
-0.950487 0.193098 0.961280 -0.939290 0.184616 -0.253147 
-0.996967 0.264140 1.709356 -0.886953 0.144793 -0.389546 
-0.670167 0.778809 0.934635 0.976443 -0.123025 0.145411 
-0.630710 0.237310 0.210644 -0.813575 0.095639 -0.554890 
-0.013584 -0.631287 -0.055275 -0.448765 -0.182956 -0.830419 
-0.421940 0.674785 0.062635 -0.706729 0.606171 -0.246685 
-0.970759 0.881819 2.206425 0.920738 -0.063970 0.359331 
0.313416 0.693366 0.341676 0.686344 0.204201 0.673028 
0.632978 0.301852 0.577911 -0.673091 -0.445895 0.542534 
-1.270310 0.868937 3.514883 0.965572 -0.111880 0.228519 
0.705095 0.986098 1.628417 -0.707229 -0.566177 0.331617 
0.549147 0.364022 0.184150 0.838161 0.156567 -0.456754 
-0.762590 1.209587 1.587419 -0.962488 -0.076346 0.005640 
0.577743 1.328221 1.564060 0.675149 0.403472 -0.583488 
-1.134000 -0.310895 1.107936 0.901666 -0.287883 0.138673 
0.822643 0.588220 1.530217 -0.814046 -0.375214 0.341694 
-0.325238 0.610915 -0.134362 -0.576953 0.196604 -0.782531 
0.509896 -1.019958 0.158328 -0.382316 -0.288226 0.833116 
-0.447811 0.582067 0.065543 -0.719462 0.395073 -0.435461 
1.398022 0.503758 3.026780 0.958128 0.253475 -0.113125 
-0.816743 0.004127 0.540379 -0.875021 0.119531 -0.435061 
-0.636806 0.436135 0.633156 0.850693 -0.172764 0.427973 
-0.832532 -0.579331 0.635757 -0.761053 0.114962 -0.523279 
0.220963 0.859209 -0.058183 0.577199 0.485024 -0.650691 
0.649809 0.993289 1.387609 0.976774 0.138164 -0.138086 
-1.105419 -0.241057 1.094696 -0.912954 0.253314 -0.044516 
-0.873535 -0.378191 0.687728 0.752399 -0.205107 0.515310 
-0.026520 -0.316060 -0.224646 -0.318213 -0.280691 -0.892567 
-1.226774 0.956791 3.355820 -0.972458 0.084578 -0.216606 
-0.131051 0.780599 0.413058 -0.206562 -0.094556 0.962378 
0.017176 -0.271601 0.285476 0.017783 -0.260746 0.962768 
0.229697 0.416473 -0.161737 0.493716 0.023178 -0.860803 
-0.712427 -0.055719 0.409593 -0.857174 0.071602 -0.471755 
1.000096 -0.605329 0.806975 -0.678995 -0.359860 0.505021 
0.038209 1.319302 0.243065 0.435338 0.705353 0.503674 
0.412094 0.572232 -0.004725 0.690786 0.256876 -0.566543 
-0.196532 1.218638 0.455893 0.437148 0.725365 0.419914 
0.989497 -0.698226 0.776636 -0.641393 -0.360886 0.531829 
-0.660918 0.509445 0.552475 -0.568935 0.702307 -0.375091 
0.365607 -0.636617 0.046208 0.679199 -0.082636 -0.688577 
0.721953 1.216419 1.792016 0.916184 0.348981 -0.176620 
1.165878 0.647797 2.187847 -0.890105 -0.237806 0.375524 
-0.124861 1.100282 0.455458 0.206887 0.112593 0.910193 
0.865377 -0.325500 0.708785 0.792098 0.206416 -0.484201 
