-0.418388 -0.134296 0.061094 -0.626491 0.055882 -0.761817 
-1.350476 0.965491 1.768125 0.438356 -0.722784 0.505567 
-0.292161 -0.267700 -0.053567 -0.553353 -0.085445 -0.817839 
-1.222535 0.595245 1.117476 0.368874 -0.740515 0.548813 
1.782031 -0.100753 0.825017 0.428319 0.578509 -0.665577 
-1.847320 0.709508 1.570880 0.029102 -0.691218 0.639885 
-1.945198 1.082183 2.205359 0.231214 -0.485274 0.832085 
1.990969 0.536767 1.757482 -0.308335 -0.586787 0.739792 
1.367554 1.160460 2.005168 -0.399805 -0.509987 0.755671 
1.154173 0.519322 1.044971 0.568090 0.621691 -0.506436 
-0.914956 1.416484 1.727619 -0.698993 0.496088 -0.475062 
1.003514 0.044320 0.433320 0.582906 0.311154 -0.719150 
-1.229870 1.552945 2.191516 0.635404 -0.284219 0.714269 
0.634941 0.794293 0.872882 0.069239 0.688405 -0.687463 
1.414153 1.189770 2.057344 -0.379969 -0.530956 0.750445 
1.694797 0.799522 1.846239 -0.346543 -0.623808 0.693820 
0.189515 0.043387 -0.110788 0.464088 -0.051202 -0.876574 
1.635710 0.808945 1.799498 0.388542 0.659260 -0.626474 
-0.729524 1.046027 0.984727 -0.556501 0.671416 -0.439780 
1.820763 1.269345 2.277911 0.256557 0.629744 -0.729337 
-1.695924 1.631978 2.491399 -0.247975 0.592537 -0.750728 
0.482746 0.418045 0.089722 0.629326 0.281737 -0.645975 
0.408635 0.431567 0.005934 0.578352 0.136638 -0.758850 
0.753053 -0.197094 0.285748 0.586273 0.182521 -0.739806 
0.021337 1.409720 0.245536 0.404073 0.761267 0.467897 
-0.430248 -0.293243 0.158814 -0.299797 -0.208555 0.910273 
-0.150589 -0.011773 -0.131821 -0.482342 -0.043088 -0.866057 
-1.544940 1.081705 2.072217 0.400602 -0.449188 0.785859 
-1.326803 1.164583 1.960844 0.481892 -0.472408 0.729039 
1.343581 0.650548 1.445105 -0.520218 -0.770260 0.337502 
0.722469 1.298262 1.637995 -0.248933 -0.565105 0.782766 
0.958091 1.054786 1.555129 0.619974 0.598573 -0.414787 
-1.191912 0.439166 0.693737 0.416977 -0.576329 0.681462 
-2.100364 1.649932 2.579781 0.185261 -0.487067 0.849003 
0.282666 -0.973963 -0.010559 -0.044458 -0.017404 -0.997886 
-0.082869 -0.872914 -0.049647 -0.147613 0.065978 -0.960861 
-1.057693 0.549930 0.722006 0.374548 -0.615052 0.672709 
-0.769616 0.065559 0.225881 -0.585966 0.217334 -0.747103 
-0.280470 -0.341848 -0.047434 -0.569852 -0.105298 -0.807730 
-1.050469 -0.343415 0.360788 -0.416994 0.263438 -0.823000 
1.607185 1.045787 2.014512 0.288965 0.743927 -0.587209 
-1.568527 1.409180 2.322892 -0.387166 0.468460 -0.785777 
1.291891 0.376184 0.990932 0.524278 0.575577 -0.609140 
0.181079 1.217378 0.467402 0.875898 -0.408400 -0.223485 
0.854150 -0.071906 0.363341 -0.200559 -0.361812 0.847542 
-1.014892 0.028579 0.366073 0.251000 -0.380713 0.816541 
-1.931419 0.992004 2.132082 -0.257810 0.716845 -0.630448 
1.748077 0.633165 1.700736 -0.219830 -0.465402 0.844071 
1.192906 0.072028 0.568832 -0.448944 -0.453530 0.753365 
-0.730726 1.155553 1.191086 -0.801890 0.480477 -0.293811 
-0.350207 -1.324011 0.009312 -0.485985 -0.014576 0.625121 
-1.840845 0.674201 1.508677 0.014780 -0.662686 0.679832 
0.387118 0.393926 0.368094 0.226474 -0.152947 0.929392 
1.817654 1.017001 2.053020 -0.197170 -0.500883 0.838710 
0.630447 -0.486406 0.196566 0.467345 0.137669 -0.822022 
0.864690 0.325340 0.535436 -0.294283 -0.637266 0.677312 
1.662700 0.050090 0.811299 -0.457181 -0.598416 0.618012 
-0.937821 1.347038 1.699788 -0.695130 0.507277 -0.470955 
-0.556047 0.502565 0.198588 -0.551770 0.503033 -0.549839 
0.336735 0.055902 -0.036489 0.505357 -0.038574 -0.847845 
1.519786 0.977692 1.897793 0.350506 0.537282 -0.734719 
0.645612 0.763470 0.954283 -0.603691 -0.638125 0.388729 
0.373601 -0.788060 0.033035 0.410762 0.018778 -0.880280 
0.450933 -0.781572 0.063499 -0.014242 -0.185424 0.975839 
0.652094 -0.659505 0.194097 0.357546 0.158032 -0.882560 
-1.519614 0.175116 0.603772 -0.534804 0.441889 -0.716390 
-0.063404 0.566965 -0.140757 -0.353229 0.094105 -0.924271 
1.754370 0.304690 1.353459 -0.571691 -0.700062 0.255631 
-1.383693 0.499716 1.129681 -0.425821 0.715355 -0.536309 
-1.332982 1.229203 2.001441 0.433332 -0.493288 0.745333 
0.886899 -0.156737 0.366976 -0.229472 -0.346078 0.846699 
1.238819 0.499744 1.162112 -0.451638 -0.666786 0.578616 
-0.330872 0.385545 0.409861 -0.349008 -0.069073 0.929783 
-1.519040 0.314019 0.882192 0.374151 -0.647925 0.639072 
-1.368061 0.274227 0.525624 -0.534088 0.454645 -0.711046 
-1.034910 -0.718580 0.255036 0.171548 -0.471179 0.839238 
-1.876517 0.464796 1.210486 0.043060 0.617607 -0.741774 
0.657569 0.624708 0.699176 -0.608073 -0.630075 0.448685 
-1.216108 -0.424124 0.443752 0.299187 -0.325242 0.843794 
-2.092034 1.365008 2.431578 0.185377 -0.534647 0.822521 
-0.195074 1.161717 0.251278 -0.842067 0.507247 -0.122950 
-0.737994 1.220727 1.303735 -0.803313 0.455155 -0.304337 
-0.114399 0.006100 0.462021 -0.220707 -0.286406 0.927239 
1.604929 0.600647 1.548050 0.510795 0.733214 -0.423128 
-0.512196 0.220786 0.277642 -0.168249 -0.437254 0.839760 
0.277983 -0.527628 -0.055067 0.487476 -0.112267 -0.852993 
1.038749 0.263028 0.504494 0.575713 0.449522 -0.650529 
-2.175096 0.849168 1.985789 -0.166180 0.809065 -0.539116 
-0.623964 -0.119744 0.202675 -0.046900 -0.319927 0.897153 
0.603495 -0.789026 0.155380 0.324135 0.129041 -0.902055 
-2.112461 0.594593 1.422463 -0.113899 0.846556 -0.502820 
-1.114465 -0.528423 0.388363 0.258936 -0.296868 0.867133 
-1.092828 -0.676625 0.288073 -0.210401 0.470280 -0.826789 
-1.617205 0.072464 0.665124 0.477565 -0.455340 0.739725 
0.862166 0.000684 0.385119 -0.220555 -0.393722 0.834672 
-0.319933 -0.041374 -0.046892 -0.503705 -0.039538 -0.847073 
1.509633 1.185017 2.103488 -0.330751 -0.537720 0.766020 
-0.265985 -0.117828 -0.068950 -0.480192 -0.104973 -0.863141 
-1.864274 0.962927 2.098016 0.253130 -0.499175 0.806020 
0.023988 -0.433866 -0.121284 0.174873 -0.412746 -0.877083 
1.396204 1.543102 2.345566 -0.436716 -0.340732 0.812058 
-1.570131 0.129035 0.631065 -0.531356 0.435941 -0.719649 
-1.480311 0.960608 1.886314 0.355559 -0.842465 0.388400 
0.962555 0.687596 1.138121 -0.336617 -0.711923 0.599118 
0.721830 0.610629 0.821758 -0.517725 -0.685545 0.481403 
1.256021 0.181260 0.678066 -0.481639 -0.497607 0.715793 
-0.430319 -0.606406 0.065082 -0.468359 0.037626 -0.842976 
-1.495233 0.356311 0.953726 0.374281 -0.672266 0.614199 
1.039795 0.667449 1.133932 0.607004 0.646495 -0.431861 
-2.079088 1.466710 2.480887 -0.218980 0.464116 -0.849936 
-2.140264 1.312374 2.412714 0.177867 -0.535777 0.824265 
-0.393350 -0.050550 0.034843 -0.611018 0.067903 -0.776093 
-1.488063 1.603834 2.397182 0.490496 -0.161933 0.839816 
-2.022537 1.213628 2.318000 -0.226717 0.575675 -0.769272 
-1.766443 0.181176 0.886197 0.299351 -0.679915 0.660116 
-0.607668 1.198472 1.212322 0.741677 -0.432886 0.213798 
-0.633907 -0.056356 0.168825 -0.609999 0.144220 -0.746756 
-0.018592 0.296164 0.550200 -0.114699 -0.078105 0.984281 
0.877345 0.478248 0.732589 -0.317899 -0.710370 0.616981 
-0.439030 -1.163268 0.028750 -0.184834 0.087410 -0.947943 
-1.516534 0.927656 1.825601 -0.312311 0.821213 -0.459600 
0.948678 0.653365 0.995602 0.636521 0.643873 -0.394042 
0.873301 0.414643 0.669357 -0.297157 -0.749235 0.589747 
-0.625685 0.986235 0.885014 -0.103645 0.638063 -0.680202 
1.011971 0.146177 0.422842 0.569546 0.331947 -0.730616 
-1.440569 0.807012 1.569563 -0.367847 0.862393 -0.323252 
1.754721 0.992614 2.002700 0.231209 0.518045 -0.811368 
0.219874 0.728871 0.448013 0.413533 0.236950 0.853557 
-0.002112 -0.810171 0.141967 -0.549336 -0.340675 0.753433 
0.943177 1.382591 1.868554 0.543588 0.607810 -0.546467 
-0.837817 -0.153002 0.273844 0.131201 -0.319324 0.865198 
-1.397154 -0.354061 0.532300 0.342023 -0.367141 0.814029 
-0.089126 0.973221 0.513941 -0.189078 -0.126591 0.967120 
-0.250363 0.151697 0.445845 -0.424273 -0.196540 0.867895 
0.816672 0.461629 0.691880 -0.471144 -0.636745 0.536824 
-1.952910 1.239103 2.320081 -0.249650 0.559409 -0.776355 
-0.927904 0.557515 0.527372 -0.435863 0.707812 -0.518309 
1.660291 1.076236 2.071674 -0.227657 -0.493705 0.834930 
1.367779 0.602329 1.387661 0.430243 0.583063 -0.662958 
0.534269 -0.874243 0.100721 -0.122076 -0.204180 0.956756 
0.270358 -0.871600 0.077226 -0.033280 -0.279106 0.903777 
-0.199346 0.657243 0.475407 -0.310780 0.299183 0.865729 
-2.032542 0.708612 1.606020 0.084094 -0.830468 0.495883 
1.410948 0.237752 0.921089 -0.511280 -0.627395 0.496993 
0.831003 0.077162 0.310968 0.595997 0.244564 -0.733869 
1.285546 -0.376275 0.541681 -0.292744 -0.443720 0.784810 
-1.672901 0.200512 0.791509 -0.392944 0.612764 -0.662725 
-1.071054 -0.183986 0.377497 0.331166 -0.367708 0.822331 
-0.477041 -0.066678 0.199676 -0.212289 -0.304033 0.893030 
-1.271090 -0.507520 0.417306 -0.308891 0.425850 -0.805698 
-0.439224 0.182805 0.327006 -0.383689 -0.304647 0.817497 
0.158923 1.117674 0.441170 0.883235 0.164295 -0.200154 
-0.786006 1.309916 1.513326 -0.789034 0.311504 -0.463483 
1.827937 0.271384 1.365345 -0.541106 -0.689272 0.326352 
0.853878 0.635438 0.939164 -0.296986 -0.693770 0.643667 
1.653864 1.340695 2.295122 -0.271182 -0.634593 0.721191 
0.324585 -0.960190 0.060252 -0.001600 -0.202850 0.965567 
0.270269 1.003132 0.288573 0.912587 0.355593 0.055837 
-0.192806 -0.940219 0.046820 0.148268 -0.355614 0.901782 
1.509536 1.324511 2.224579 -0.309099 -0.620463 0.718661 
0.605735 1.260115 1.536370 -0.279603 -0.688996 0.638681 
1.056936 0.419591 0.828648 -0.389228 -0.601970 0.674039 
0.706949 0.268421 0.196289 0.584804 0.225080 -0.764203 
-1.031795 0.122298 0.362571 -0.573037 0.315654 -0.723642 
0.295504 0.913721 0.188976 0.885528 0.351291 -0.217751 
-0.068985 1.216923 0.415207 0.044396 0.750103 0.625094 
2.007107 1.570157 2.574573 -0.214816 -0.649275 0.727626 
1.330420 -0.314749 0.573184 -0.314619 -0.460516 0.771165 
-0.790150 0.730194 0.686038 0.010656 0.741356 -0.642852 
-1.113637 0.199005 0.396508 -0.557947 0.360511 -0.724281 
0.256315 0.501225 0.443344 0.295472 0.003877 0.952210 
0.168302 0.695855 -0.101989 0.430939 0.230622 -0.847300 
-2.106067 0.692183 1.592237 0.100284 -0.874981 0.454599 
1.421686 1.458852 2.288352 -0.302842 -0.677078 0.664662 
-0.652756 1.423287 1.423837 -0.703031 0.522680 -0.477979 
-0.275346 0.945102 0.360750 -0.877318 0.167574 0.385997 
-2.216036 1.264064 2.398189 0.165259 -0.533616 0.828048 
1.916055 1.284017 2.314563 0.242865 0.620282 -0.741839 
1.921572 0.929671 2.000099 -0.230151 -0.686261 0.671887 
-0.629971 0.029231 0.237043 -0.028755 -0.392438 0.872198 
2.084011 1.360922 2.421329 0.223770 0.609543 -0.754609 
1.841507 1.333279 2.333415 0.262329 0.592414 -0.755102 
-1.085319 0.462409 0.613064 0.346520 -0.608931 0.689294 
0.593628 0.040349 0.263992 -0.068249 -0.396528 0.882024 
1.766019 1.577753 2.514757 -0.321075 -0.433942 0.816635 
1.908331 0.563182 1.731238 -0.279552 -0.546186 0.773722 
0.137052 1.229058 0.405084 0.047964 0.870405 0.349899 
-1.199704 -0.587917 0.356943 0.232757 -0.475002 0.816316 
1.607095 -0.268879 0.688987 0.357533 0.585324 -0.697435 
-0.663048 0.585164 0.352518 -0.556960 0.709430 -0.385888 
-1.124510 1.271448 1.838747 0.413254 -0.498136 0.753266 
0.702078 0.855416 0.992210 0.728310 0.600217 -0.317347 
-0.729017 -0.464406 0.196303 -0.394735 0.184653 -0.853040 
1.291192 0.287292 0.842516 0.532726 0.528440 -0.638327 
0.442063 -0.958043 0.053989 0.286543 0.063742 -0.941171 
-1.068646 0.559222 0.651188 -0.634421 0.527615 -0.508101 
0.790546 0.507627 0.744013 -0.358723 -0.733712 0.553784 
0.603883 0.388740 0.202297 0.615221 0.311264 -0.656595 
1.308998 -0.175882 0.578323 0.444401 0.418898 -0.741116 
-0.190843 0.491688 0.498864 -0.322056 0.031154 0.943877 
-1.758664 0.220771 0.971403 0.290905 -0.713416 0.632110 
0.368898 1.387413 1.425405 -0.122394 -0.040499 -0.941460 
-2.229138 1.113683 2.285419 -0.173434 0.625731 -0.743045 
-0.229972 0.043015 -0.088124 -0.452094 -0.062286 -0.881337 
1.436247 0.494215 1.326544 0.488679 0.609758 -0.529763 
-1.697975 0.024789 0.699996 -0.524588 0.423944 -0.726109 
-1.840231 0.243620 0.943584 -0.289505 -0.441958 0.845630 
1.181074 1.342816 2.024854 0.482678 0.590669 -0.636979 
-0.452266 -0.003869 0.245053 -0.302239 -0.278512 0.867472 
0.233422 -0.136107 0.373630 0.415323 -0.276630 0.854679 
0.839752 0.544015 0.787342 -0.298711 -0.699403 0.637871 
-1.113269 -0.023452 0.404356 0.374829 -0.404490 0.796133 
-0.657896 -0.830009 0.149763 -0.296911 0.124943 -0.916350 
-0.882264 -0.857753 0.148137 -0.117539 0.490167 -0.854439 
-1.083069 -0.095688 0.386542 0.353388 -0.387263 0.808876 
0.994553 0.655883 1.059051 0.620585 0.653013 -0.406609 
-1.296570 0.394141 0.769769 0.436887 -0.585580 0.657590 
-0.895103 -0.197817 0.285214 -0.467292 0.256427 -0.795733 
0.501151 1.186290 1.319255 -0.886222 -0.204914 -0.134921 
-0.673198 1.247639 1.352165 0.277865 -0.774878 0.565947 
0.317706 0.846457 0.170285 0.896489 0.354214 -0.216618 
-0.953125 0.688132 0.738603 -0.677388 0.569417 -0.408418 
-0.549214 -0.007084 0.202492 -0.089128 -0.378556 0.889351 
1.737097 0.068554 1.096647 -0.759557 -0.620824 -0.092092 
-1.010707 0.751713 1.079410 0.323954 -0.749304 0.570880 
1.090978 0.369379 0.787942 -0.405728 -0.579039 0.685421 
-0.580192 1.427936 1.362068 -0.092822 0.553795 -0.677489 
0.752238 0.262592 0.396016 -0.209656 -0.501414 0.815906 
1.919476 1.446588 2.445545 0.262673 0.564572 -0.774205 
0.821399 0.236454 0.423292 -0.245547 -0.493786 0.806184 
1.118197 0.400857 0.868654 -0.413628 -0.599214 0.662404 
0.618010 0.121818 0.295933 -0.099893 -0.433166 0.864514 
0.412513 0.474011 0.425991 -0.538061 -0.379208 0.688264 
-0.945089 0.265642 0.293371 -0.546937 0.322063 -0.753281 
0.795112 1.210509 1.644658 -0.389466 -0.662567 0.627128 
-1.297282 -0.309057 0.491258 -0.441227 0.298449 -0.801396 
0.288833 -0.797887 -0.008154 0.004318 -0.101897 -0.961888 
0.252017 0.883912 0.062684 0.703807 0.426437 -0.526070 
1.009767 0.578405 1.026160 -0.359769 -0.681723 0.618256 
-0.391689 0.101385 -0.010396 -0.549003 0.080678 -0.816764 
0.521596 0.358233 0.091295 0.603569 0.200518 -0.743560 
-0.781702 0.883204 0.961326 0.282261 -0.733906 0.615647 
2.250276 1.070748 2.198773 0.165778 0.625593 -0.759303 
-1.396090 0.614946 1.319969 -0.324298 0.699000 -0.596909 
-0.117235 -0.707393 -0.025163 0.005579 -0.090444 -0.986834 
-1.608095 1.001816 2.049923 -0.367453 0.709946 -0.588857 
1.737002 -0.166171 0.778867 -0.363061 -0.612797 0.681382 
-0.335782 0.169490 -0.036672 -0.447223 -0.014094 -0.880430 
-0.231616 1.053199 0.361181 -0.840924 0.474279 0.227626 
0.307864 -0.474206 0.216820 0.481136 -0.289068 0.822112 
-1.766829 0.668228 1.462813 -0.223137 0.881905 -0.389194 
-1.158909 0.473695 0.620542 -0.596687 0.509622 -0.573847 
-1.244466 1.414876 2.073291 -0.584763 0.496140 -0.633663 
0.505809 1.147044 1.255218 -0.890294 -0.211690 -0.132846 
1.685094 0.426894 1.436857 -0.533209 -0.740671 0.312335 
0.475704 -1.097286 0.044437 0.308111 -0.120237 0.788614 
1.225185 1.297594 1.993858 -0.282972 -0.589967 0.752766 
-0.979573 -0.763159 0.220332 0.150667 -0.470917 0.846707 
-1.639001 1.135191 2.175548 0.329983 -0.468989 0.814801 
0.354821 0.066205 0.357392 0.549450 -0.200574 0.809571 
-1.336492 0.209170 0.526118 0.464046 -0.467565 0.744376 
-1.155755 1.010569 1.630225 -0.578347 0.648865 -0.440130 
0.059259 -0.189221 0.385278 0.075272 -0.325863 0.938824 
0.253560 -0.671154 -0.015082 -0.143679 -0.176160 -0.961307 
2.046650 1.145832 2.229662 -0.190052 -0.589018 0.778544 
-0.465337 0.473607 0.105729 -0.559602 0.422130 -0.593027 
0.744647 0.921045 1.237103 -0.245983 -0.738318 0.611673 
-1.445690 0.710607 1.500893 0.198523 -0.724370 0.615424 
0.685863 0.255588 0.361939 -0.168490 -0.494818 0.830221 
0.525590 0.996640 1.069875 -0.092204 0.606270 -0.641467 
1.427739 0.291260 1.023510 -0.512250 -0.662760 0.459407 
0.852717 0.760160 1.122625 -0.292024 -0.720275 0.613535 
-0.641568 1.476157 1.469274 -0.582284 0.626078 -0.496301 
1.228137 -0.432127 0.505092 -0.273161 -0.424021 0.799840 
0.132086 1.076210 0.076278 0.499925 0.433662 -0.730349 
0.536245 0.934505 0.996764 0.024225 0.644272 -0.629631 
-1.291887 1.459413 2.166954 0.470851 -0.600231 0.640125 
1.409488 -0.039859 0.655743 -0.414351 -0.503148 0.729444 
-1.841946 0.896372 1.999673 0.221660 -0.886465 0.384025 
-1.365360 0.378321 0.785636 -0.481353 0.573813 -0.633670 
0.186372 -0.741973 0.152106 0.085237 -0.356665 0.896472 
-1.994955 1.281550 2.360055 -0.238279 0.529834 -0.807328 
-0.532951 -0.280204 0.133748 -0.610863 0.073392 -0.753432 
-0.136854 -0.284824 0.342588 -0.147774 -0.320286 0.934309 
-0.290504 -1.356179 -0.014911 0.667875 -0.596829 0.004887 
1.997496 1.092573 2.165419 0.213764 0.703678 -0.660783 
0.072326 0.815655 -0.083336 0.448511 0.345758 -0.805737 
-0.105855 -0.414451 0.294992 -0.058178 -0.279896 0.954589 
0.540675 0.475977 0.193715 0.652964 0.428540 -0.514721 
0.122987 -0.051464 0.437951 0.211613 -0.291750 0.927876 
0.072196 1.332840 0.189565 0.653207 0.652663 -0.344089 
-0.865136 0.906976 1.110344 0.301095 -0.750967 0.582514 
-0.365952 -0.428373 0.176878 -0.407246 -0.258504 0.854782 
-1.842188 1.467398 2.438766 -0.294943 0.420443 -0.847744 
0.562729 0.991235 1.187449 -0.554061 -0.667214 0.477570 
0.459143 0.247650 0.031354 0.611960 0.117913 -0.777343 
-1.438202 1.223374 2.100488 -0.489518 0.528599 -0.681167 
0.601954 -0.858698 0.144637 0.301337 0.127679 -0.908233 
-2.338783 0.869151 2.119897 -0.157424 0.763581 -0.624884 
-0.075396 0.148425 -0.172470 -0.463228 0.013904 -0.880283 
-0.355497 0.713175 0.247598 -0.956093 0.229175 0.053630 
-1.298670 0.957295 1.721291 0.459638 -0.665120 0.563625 
-1.507910 0.096244 0.598440 -0.521427 0.421158 -0.728585 
-0.790816 1.119413 1.229543 -0.766567 0.499077 -0.315991 
1.194526 0.737426 1.390246 0.474781 0.550749 -0.644675 
0.708256 0.927693 1.109973 0.731593 0.574860 -0.339863 
1.094102 0.274974 0.650743 -0.414146 -0.583412 0.676883 
-0.813845 1.190779 1.381819 -0.731509 0.430644 -0.422921 
0.856298 -0.724213 0.271532 0.299899 0.267185 -0.853301 
0.535145 0.183829 0.093117 0.612259 0.138890 -0.765045 
1.087442 0.094075 0.482378 0.568458 0.354687 -0.719732 
-1.120932 1.175670 1.747288 -0.594863 0.552452 -0.573397 
1.521811 0.175321 0.929398 -0.536873 -0.675651 0.367688 
0.080749 0.474669 -0.134431 0.360809 0.058587 -0.928247 
-0.307384 -0.391993 0.008536 -0.622005 -0.062036 -0.772164 
-1.805184 0.122031 0.837188 0.399499 -0.578533 0.689579 
-0.216223 -0.600423 0.200308 -0.313155 -0.337786 0.883394 
1.138170 1.042429 1.708440 0.498706 0.630751 -0.571975 
0.453173 0.482898 0.098453 0.637574 0.340654 -0.571660 
1.076345 -0.675537 0.331888 -0.188572 -0.511379 0.805967 
1.027872 0.901582 1.422396 0.527372 0.494293 -0.624165 
0.753739 -0.930192 0.108857 0.139547 0.454537 -0.859095 
0.350070 -0.366202 0.052445 0.689900 -0.028929 -0.717328 
-1.120784 -0.368422 0.396854 0.296730 -0.331372 0.844066 
-0.797540 1.044861 1.221996 0.293825 -0.762249 0.572476 
-1.022971 1.532293 1.961215 -0.355662 0.786081 -0.452544 
-0.253921 0.322226 0.472165 -0.395647 -0.058688 0.906203 
-2.246767 1.681985 2.621662 -0.172407 0.449756 -0.874183 
-0.109403 0.802567 -0.070205 -0.479393 0.354699 -0.778035 
1.358736 -0.462753 0.519113 0.292599 0.549518 -0.744333 
0.087892 1.191376 0.443602 -0.187958 0.695373 0.670855 
-0.413490 1.629716 1.399867 -0.392593 0.647464 -0.604867 
0.070594 -1.117921 -0.072093 0.126081 -0.439380 0.738646 
-1.113443 1.398626 1.922403 -0.635175 0.492171 -0.568465 
-0.350264 0.720210 0.117477 -0.884825 0.372471 -0.211557 
1.186214 -0.115103 0.523103 0.471686 0.385768 -0.752990 
-0.367514 -0.347144 0.209097 -0.456966 -0.257776 0.829118 
1.509352 1.032040 1.962601 -0.338500 -0.762962 0.546342 
-1.285770 1.125605 1.903136 0.513232 -0.458269 0.718734 
0.164216 0.009952 0.454700 0.301952 -0.273440 0.908420 
1.453024 0.188676 0.883461 -0.522165 -0.634400 0.455174 
0.622827 -0.313847 0.195642 -0.026156 -0.254899 0.927166 
-1.193233 1.411564 2.013700 0.406085 -0.562886 0.709934 
-0.812613 0.898356 1.025917 0.289561 -0.741240 0.601883 
-1.860924 0.385541 1.118182 -0.098618 -0.622081 0.668706 
-0.639042 1.318832 1.235032 -0.468537 0.719559 -0.506208 
0.347761 0.601999 -0.021574 0.594880 0.227883 -0.709005 
0.863200 -0.639580 0.302699 0.346453 0.227857 -0.850159 
-1.162533 0.667411 1.161949 0.351743 -0.759971 0.540526 
-1.240255 1.034503 1.763978 -0.555404 0.620847 -0.542714 
-0.344282 0.657748 0.354277 -0.817842 0.209044 0.431647 
0.014629 0.368153 0.553488 0.105190 -0.015113 0.988809 
1.833770 0.218502 1.313974 -0.575892 -0.671576 0.263768 
-0.827600 1.285423 1.597266 0.507691 -0.585297 0.618613 
-0.953708 0.726445 0.837078 -0.663552 0.609965 -0.378168 
-1.286657 0.519049 1.000350 -0.484191 0.659213 -0.535677 
-0.789717 -0.493127 0.224204 -0.373438 0.198447 -0.862226 
1.322282 0.177932 0.738106 -0.495878 -0.539896 0.631787 
-0.847586 0.978889 1.100674 -0.724484 0.558824 -0.324948 
-1.154713 1.495354 2.079408 0.535766 -0.533222 0.647213 
-0.495695 -0.109900 0.100265 -0.621243 0.086714 -0.755934 
0.320263 0.579409 0.416580 0.560747 0.010546 0.795202 
-1.049397 1.145485 1.653856 -0.651781 0.496172 -0.507625 
1.309475 0.484043 1.190195 0.513835 0.643631 -0.557465 
-0.034429 -0.977826 0.002474 -0.319100 -0.423441 0.834679 
0.659890 0.870834 1.071191 -0.214145 -0.733104 0.641844 
-1.448664 0.625347 1.369110 0.334309 -0.851856 0.371734 
0.046466 0.653292 -0.137003 0.295433 0.145184 -0.934843 
0.099075 0.402757 -0.138185 0.387037 0.042762 -0.917669 
-1.395845 1.319172 2.106280 0.362744 -0.524605 0.768713 
0.950338 -0.150037 0.405934 -0.289038 -0.366789 0.827426 
-1.347455 0.465717 1.025045 0.412828 -0.680352 0.578320 
1.302314 0.964994 1.741133 0.446094 0.688273 -0.565243 
1.038264 1.130218 1.730558 -0.303265 -0.752828 0.551955 
-1.350456 0.099491 0.529650 0.441069 -0.445016 0.758630 
0.189030 -1.211998 -0.044650 -0.607306 -0.325707 0.586203 
-0.720912 0.722220 0.664562 -0.082359 0.691110 -0.696944 
-0.370673 0.616720 0.042999 -0.602397 0.381467 -0.577074 
-1.961865 0.574370 1.360399 0.015888 -0.687210 0.683792 
1.734248 1.044710 2.060647 0.257131 0.779889 -0.561244 
1.281461 1.433357 2.196982 -0.362962 -0.671223 0.642693 
0.592561 -0.124271 0.222943 -0.033136 -0.325078 0.907800 
-0.207791 1.214553 0.526387 -0.828484 -0.389168 -0.360826 
1.808231 0.060109 0.994555 0.556281 0.746978 -0.217913 
-2.003019 0.666388 1.527319 0.060463 -0.779902 0.560691 
0.793499 0.597879 0.818746 -0.277315 -0.715158 0.635839 
-1.023501 -0.653709 0.298906 0.201666 -0.363392 0.864902 
0.069183 -1.038496 -0.072362 0.265590 0.196854 -0.942513 
1.476827 0.036866 0.700482 -0.441442 -0.527131 0.710625 
0.154277 1.142968 0.115698 0.563422 0.468927 -0.648439 
-0.292525 -0.699962 0.138352 -0.268202 -0.271709 0.882582 
-0.653721 1.100277 1.137181 0.507432 -0.651253 0.515213 
-0.217403 1.116461 0.320556 -0.364655 0.231234 0.794225 
-2.217407 1.326762 2.433770 0.164586 -0.523002 0.835600 
-0.090673 1.209057 0.126728 -0.557890 0.372990 -0.735599 
-2.096991 1.210299 2.333223 0.194236 -0.504959 0.837351 
-0.856418 0.966060 1.185818 0.302257 -0.759020 0.571526 
0.722536 0.776043 0.873783 0.510820 0.679722 -0.465396 
-1.088377 0.060051 0.384230 -0.520056 0.342734 -0.746598 
-1.841873 1.298169 2.337512 0.285375 -0.530244 0.791985 
0.321097 0.848823 0.283581 0.907861 0.295377 0.175882 
-0.517033 -0.384711 0.115297 -0.125665 -0.213856 0.949684 
0.757414 1.376945 1.763019 -0.395239 -0.600744 0.682944 
-1.967382 1.339328 2.389574 -0.249670 0.494414 -0.823435 
-0.061642 0.394765 0.546419 -0.174343 0.011605 0.972130 
-1.815935 0.552370 1.320390 0.128118 -0.823490 0.451847 
-0.414252 0.520089 0.087121 -0.559866 0.392745 -0.573342 
-1.560861 0.545793 1.274180 -0.088708 0.606998 -0.726861 
-0.045594 0.943089 -0.033545 -0.416738 0.513468 -0.734471 
-0.837481 0.821311 0.837122 -0.718309 0.616278 -0.305451 
-2.074433 0.637098 1.487187 -0.128508 0.861466 -0.470970 
1.904090 -0.007986 0.917148 -0.431583 -0.657884 0.587180 
0.339064 0.794929 0.225347 0.927404 0.305381 -0.016490 
-1.961551 1.180759 2.281362 0.233360 -0.491706 0.832620 
-1.175182 0.185602 0.451001 0.370548 -0.442762 0.770773 
0.065544 1.234995 0.393205 0.074518 0.805727 0.572012 
-0.345884 0.763482 0.198724 -0.939553 0.288003 -0.091042 
-0.566588 0.167993 0.246288 -0.060526 -0.463277 0.858584 
-1.990878 0.859283 1.935740 0.177086 -0.881941 0.413542 
-1.534331 0.391165 1.073377 -0.383768 0.717237 -0.566580 
-0.129464 0.540535 -0.122913 -0.400393 0.069891 -0.905289 
0.126875 1.107985 0.333563 0.813626 -0.016999 0.550518 
-0.126887 -0.847062 0.086681 -0.014117 -0.411699 0.891124 
-0.446401 0.068277 0.277446 -0.336247 -0.287225 0.847804 
-0.442717 0.634908 0.220082 -0.629225 0.740420 -0.202350 
0.447813 0.070006 0.281507 0.218906 -0.301497 0.865895 
-0.191281 0.017109 0.444552 -0.354842 -0.266204 0.887677 
0.462559 -0.040128 0.229454 0.151675 -0.294076 0.896097 
1.204764 -0.506288 0.470128 0.333639 0.404260 -0.781669 
0.603585 0.285349 0.329161 -0.125512 -0.503313 0.841995 
1.053366 0.031553 0.485914 -0.341377 -0.417361 0.791778 
-0.869491 0.351208 0.403530 0.160762 -0.557493 0.773164 
-0.312269 -0.240546 0.293015 -0.529150 -0.271163 0.797000 
-0.266286 0.165948 -0.067791 -0.416216 -0.053162 -0.901570 
0.598133 0.475683 0.256597 0.652020 0.467638 -0.493976 
-0.703059 1.443068 1.525659 -0.764902 0.502027 -0.376299 
0.232809 -0.452904 -0.059436 0.284570 -0.209891 -0.872539 
0.840433 -0.213287 0.332291 0.530366 0.232700 -0.764472 
0.146524 -0.544676 -0.048018 0.140004 -0.296189 -0.933836 
-0.950284 1.481242 1.805335 -0.582482 0.558093 -0.583594 
-1.980652 0.826508 1.801565 0.153602 -0.908904 0.380753 
0.267728 0.177991 0.441005 0.449191 -0.163666 0.864099 
-0.034488 1.274522 0.351845 -0.156726 0.791067 0.585288 
-1.432466 -0.093325 0.565233 0.409874 -0.408840 0.778797 
1.116924 1.484607 2.113789 0.375055 0.711693 -0.591731 
-0.128711 -0.567139 0.237589 -0.164942 -0.367003 0.911595 
-0.218301 0.248218 -0.093801 -0.408514 -0.020444 -0.907947 
0.447377 0.638957 0.281306 0.620768 0.737211 -0.165901 
-0.241721 -0.808926 -0.014062 -0.002284 -0.078613 -0.991356 
0.405788 0.567057 0.400278 -0.287700 -0.043595 0.680422 
-1.869525 0.773248 1.683337 0.069611 -0.760385 0.550365 
-0.107158 0.172318 0.513546 -0.238605 -0.190136 0.940503 
-1.105774 1.347399 1.863312 0.357606 -0.521600 0.772084 
-1.536078 0.659376 1.417136 -0.095717 0.612543 -0.770632 
-0.798100 0.224709 0.335035 0.108125 -0.479914 0.817083 
-0.120263 -0.568364 -0.043492 -0.035683 -0.258953 -0.957444 
1.921184 1.500851 2.492936 -0.211978 -0.663715 0.715343 
0.202345 1.052901 0.471020 0.656350 0.661902 -0.301950 
0.733684 0.971004 1.297478 -0.240497 -0.743841 0.605452 
-1.573196 0.472209 1.192720 0.116376 -0.687938 0.572799 
0.835337 1.135875 1.568874 -0.242454 -0.709245 0.621162 
-2.276151 0.853195 2.050543 -0.157373 0.793586 -0.575489 
-0.791290 -0.849710 0.147122 0.109893 -0.375291 0.893331 
-1.225941 1.192231 1.887947 -0.601536 0.536580 -0.575153 
-2.051952 0.388697 1.131008 0.067979 0.653154 -0.697130 
1.058819 1.425974 2.006151 0.492239 0.612193 -0.597380 
0.521596 -0.562171 0.131246 0.476305 0.083018 -0.827215 
-0.990551 1.091355 1.510061 -0.662753 0.559304 -0.352802 
1.161278 0.598694 1.183178 0.563285 0.663536 -0.472746 
-0.832438 1.141079 1.330185 -0.737790 0.481522 -0.361972 
0.841771 0.569583 0.685636 0.579803 0.660832 -0.443389 
-0.754951 1.142928 1.308891 0.289813 -0.771146 0.563524 
-0.549428 0.097224 0.225239 -0.079241 -0.429516 0.872436 
1.513770 0.920980 1.832346 0.383096 0.646511 -0.642865 
0.467708 0.333652 0.336944 0.085775 -0.361782 0.869729 
-0.486533 0.305157 0.322336 -0.233166 -0.399103 0.829385 
-0.319967 0.547288 -0.062091 -0.555727 0.095835 -0.802421 
-0.049678 1.305382 0.168939 -0.620497 0.450584 -0.581056 
-0.283779 0.429267 0.441791 -0.326431 -0.031345 0.942904 
-0.013559 1.056690 0.516208 -0.067823 0.198924 0.947111 
1.458664 0.880843 1.778368 -0.369666 -0.625511 0.671337 
1.234165 1.369463 2.094636 0.456771 0.594046 -0.661095 
0.130787 0.246912 -0.142125 0.435252 0.008832 -0.896335 
-2.154192 0.974132 2.163252 -0.200345 0.713191 -0.654611 
-0.519370 0.410967 0.087825 -0.531142 0.287319 -0.753672 
0.924390 0.338556 0.487872 0.598420 0.491536 -0.584594 
0.066365 0.259697 -0.177211 0.443257 0.036670 -0.893189 
0.003631 0.269018 -0.211388 0.451641 0.063214 -0.889756 
-1.273365 0.144481 0.491720 0.439068 -0.449961 0.758858 
-1.912354 0.727059 1.603238 -0.183908 0.895798 -0.386513 
-1.063496 0.950650 1.405820 -0.555704 0.511809 -0.572499 
1.951249 0.730266 1.913827 -0.275148 -0.609615 0.735228 
0.314406 0.114251 0.396599 0.496750 -0.206030 0.834533 
-0.161959 1.055999 0.532753 0.040322 -0.133874 0.916554 
-0.284949 -0.581364 -0.050674 -0.431365 -0.103242 -0.870951 
-0.350211 0.390524 -0.037380 -0.451977 0.028620 -0.882243 
-0.067548 1.165984 0.464894 0.200187 0.565493 0.771359 
0.203533 -0.251006 -0.104138 0.517263 -0.109932 -0.842866 
1.162964 0.004510 0.544807 -0.434711 -0.440815 0.763804 
-0.540703 0.598365 0.458862 -0.177946 0.907089 -0.230236 
-1.039019 0.522209 0.589974 -0.552644 0.590194 -0.552797 
0.408870 -0.893716 0.072590 0.025382 -0.199070 0.955021 
1.630398 0.625038 1.613640 -0.188362 -0.412579 0.881289 
1.490968 -0.042513 0.694361 -0.412035 -0.524690 0.716812 
-1.418036 0.976065 1.845286 0.391323 -0.820830 0.402318 
0.954506 0.394225 0.594771 0.615516 0.614106 -0.482224 
-1.567018 1.347142 2.287349 0.371744 -0.542791 0.748776 
0.148224 0.479692 -0.115428 0.400956 0.040757 -0.909714 
0.617373 0.614757 0.640618 -0.552513 -0.642039 0.509461 
0.487966 -0.075175 0.102329 0.648780 0.075277 -0.737502 
0.527699 -0.766477 0.105826 -0.089708 -0.206834 0.956900 
0.572008 -0.381793 0.159994 -0.000054 -0.235903 0.942723 
-0.033196 0.693864 -0.134466 -0.284973 0.186551 -0.929129 
1.022465 1.324927 1.878019 0.535253 0.598275 -0.569228 
0.016729 -0.358749 -0.166281 0.297840 -0.266631 -0.911551 
0.754610 0.501944 0.532899 0.176360 0.854654 -0.378717 
1.884243 0.762451 1.921803 -0.286512 -0.633367 0.708462 
0.548660 0.583702 0.450812 0.380885 0.843113 -0.205442 
0.526976 -0.485199 0.140078 0.522181 0.079722 -0.799542 
-0.635530 -0.908250 0.095556 0.082232 -0.277184 0.936156 
0.834130 0.940575 1.363734 -0.280406 -0.740147 0.585823 
0.971800 0.872258 1.348174 0.622174 0.564100 -0.482578 
-1.716938 0.148592 0.760860 -0.468618 0.528955 -0.687540 
-1.693400 0.946371 2.031911 -0.310479 0.574463 -0.754196 
-0.748474 1.250931 1.370003 -0.778829 0.418153 -0.371375 
0.789441 0.352995 0.366921 0.602407 0.409025 -0.625138 
0.247253 1.196073 0.610426 0.763416 -0.341759 -0.545566 
1.837937 -0.052052 0.858545 0.437882 0.601490 -0.652813 
-1.428577 1.582409 2.335670 -0.337072 0.674023 -0.639205 
0.328086 -0.550493 0.161404 0.355800 -0.269893 0.883563 
1.248469 1.520582 2.248471 -0.492795 -0.392522 0.761990 
-1.921506 0.409136 1.149967 -0.063424 -0.662768 0.645626 
-0.214731 1.118985 0.186779 -0.814193 0.458456 -0.300497 
0.980165 0.931264 1.471661 -0.414185 -0.793956 0.360467 
0.833100 0.900962 1.305178 -0.280964 -0.735802 0.593184 
-0.466846 1.562005 1.386271 -0.436877 0.585710 -0.546227 
0.736462 0.873223 1.062835 0.718644 0.592143 -0.338970 
1.160381 0.241189 0.664127 -0.441277 -0.518406 0.720200 
-1.393720 -0.174847 0.542745 0.384930 -0.389117 0.793574 
-1.117603 0.833092 1.301018 -0.557495 0.621717 -0.456477 
-1.562193 0.042990 0.627808 -0.517130 0.413843 -0.732628 
0.767416 0.672522 0.899532 -0.261761 -0.703382 0.655316 
0.061370 1.122234 0.068431 0.388252 0.424083 -0.806176 
1.076767 0.950633 1.487227 0.564819 0.686614 -0.423937 
0.022456 -0.867459 -0.041281 0.323072 0.089329 -0.924201 
-0.071618 -0.527828 0.256299 -0.108297 -0.295259 0.939362 
0.177477 -0.909548 0.064309 -0.122035 -0.360255 0.898474 
-1.694379 1.545872 2.455298 0.251583 -0.561886 0.786343 
-0.057944 -0.277377 0.344333 -0.037023 -0.335496 0.936054 
-0.452882 0.531099 0.146589 -0.576376 0.537249 -0.467263 
0.099587 0.878896 0.496917 0.242849 -0.141807 0.952540 
1.888660 0.992967 2.044393 -0.187006 -0.512160 0.833864 
0.776468 -0.497908 0.275785 -0.239599 -0.297362 0.880868 
-1.040925 0.390490 0.517244 0.258787 -0.621952 0.705308 
0.004454 0.965070 0.528056 0.148807 -0.028874 0.983251 
-0.941835 -0.592558 0.305951 -0.369282 0.190247 -0.866353 
-1.746575 0.578600 1.338123 -0.033064 0.634248 -0.748808 
-1.202310 -0.523980 0.400758 -0.332402 0.357592 -0.821007 
-0.122988 0.249552 0.528013 -0.272229 -0.112515 0.941937 
-1.436066 0.450708 1.105438 0.377245 -0.722759 0.560672 
-1.742962 0.880760 1.823803 -0.245186 0.845080 -0.443474 
-0.631026 0.930283 0.831043 0.648800 -0.537225 0.426335 
0.367087 0.165486 0.374124 0.518601 -0.188567 0.821214 
1.663309 0.858593 1.869051 0.343447 0.585141 -0.711103 
-1.521423 0.764430 1.548466 -0.309628 0.883962 -0.341537 
-0.765378 -0.111513 0.240802 -0.588776 0.184703 -0.741753 
-2.169718 1.611099 2.571890 0.173682 -0.483503 0.854663 
-0.553154 -0.209631 0.146824 -0.639427 0.081328 -0.735653 
-0.398504 -0.827094 0.090042 -0.125084 -0.206371 0.938753 
1.751930 1.341835 2.316912 0.277872 0.587395 -0.754427 
1.264543 -0.270385 0.545539 0.420740 0.394858 -0.756640 
0.875663 0.273089 0.483867 -0.287210 -0.549832 0.751042 
-0.144941 -0.191293 0.379045 -0.191262 -0.305842 0.928935 
0.200617 0.471715 0.493664 0.322949 0.019988 0.943709 
1.114514 -0.519175 0.436495 -0.243036 -0.386875 0.827091 
-0.322812 -1.418211 -0.029193 0.431597 -0.756607 -0.308591 
-0.487482 0.367530 0.025051 -0.531854 0.198701 -0.821349 
0.881543 0.819663 1.165075 0.668508 0.602614 -0.395498 
-1.518349 1.323980 2.223841 0.368184 -0.533889 0.759128 
1.663702 0.743905 1.765070 -0.291419 -0.549690 0.759133 
-0.298019 0.312638 -0.049886 -0.376021 -0.038004 -0.924564 
-1.910069 0.055159 0.851613 0.460416 -0.520195 0.703583 
0.936157 0.531501 0.868330 -0.335580 -0.647714 0.663361 
-0.941800 0.618158 0.715255 0.308095 -0.665062 0.663152 
-2.048270 0.830066 1.854411 -0.165304 0.863979 -0.443805 
1.074705 -0.422064 0.433196 -0.279382 -0.383852 0.823088 
0.304631 0.350341 -0.046688 0.396138 -0.040864 -0.915699 
-1.496844 -0.334434 0.553012 0.351434 -0.455883 0.780809 
0.273349 -1.380735 -0.010729 -0.671716 -0.634053 0.178736 
-0.959286 0.933989 1.206758 -0.660648 0.584566 -0.368690 
1.841465 0.398914 1.508202 -0.294898 -0.533607 0.756128 
1.093508 0.625837 1.192478 -0.389182 -0.704682 0.577490 
-0.202516 -0.883270 0.087100 0.113373 -0.337904 0.905327 
-0.716419 0.047742 0.269602 0.033972 -0.397346 0.857134 
-0.731975 1.230269 1.439121 0.299411 -0.532141 0.784797 
1.761816 0.866318 1.939864 0.284110 0.461077 -0.824285 
-0.150715 0.265249 -0.130782 -0.419926 0.007552 -0.903555 
-1.166003 1.215028 1.845054 0.453078 -0.481848 0.739640 
2.051409 0.321904 1.563772 0.392293 0.633642 -0.659971 
0.671884 -0.858463 0.152529 0.261977 0.225015 -0.889170 
-0.506877 -0.553948 0.100079 -0.459206 0.074456 -0.840170 
-0.459556 -1.005379 0.037971 -0.047096 -0.137929 0.938938 
-1.424552 -0.265595 0.558251 -0.457799 0.322859 -0.786533 
-0.137893 -0.972060 -0.049273 -0.136452 0.114529 -0.971461 
0.028665 0.757008 -0.116502 0.401700 0.269441 -0.861215 
-1.472535 -0.197252 0.582299 0.392398 -0.389093 0.790019 
1.021289 0.225536 0.435439 0.564208 0.369233 -0.718147 
1.426352 0.648209 1.499754 -0.536519 -0.797703 0.267816 
-2.036193 1.063445 2.208002 -0.226626 0.667826 -0.685863 
0.303620 -0.613602 -0.026170 0.472811 -0.069238 -0.855776 
-0.847651 0.090875 0.265318 -0.580539 0.248621 -0.741257 
-2.093208 1.024698 2.189762 -0.213698 0.687134 -0.673194 
0.348428 -0.552187 0.037317 0.573116 -0.014614 -0.786611 
-0.401764 0.616658 0.111186 -0.602300 0.513306 -0.461449 
1.269488 1.055478 1.841960 -0.416120 -0.726897 0.536747 
-1.715370 0.806678 1.676944 -0.246024 0.891835 -0.369179 
1.276299 0.820398 1.513727 0.517444 0.715701 -0.463126 
-1.429315 1.394913 2.222743 0.426672 -0.570938 0.692204 
-0.656440 1.394454 1.488750 0.347163 -0.518009 0.778142 
-0.303409 0.234970 -0.047204 -0.392296 -0.054199 -0.914588 
0.560057 1.203447 1.455930 -0.188258 -0.535152 0.813213 
-1.225006 0.662068 1.202722 -0.495267 0.711261 -0.454128 
-0.182986 -1.192908 -0.058891 -0.167409 0.076476 -0.904565 
-0.442751 0.436817 0.047470 -0.545052 0.291266 -0.707272 
0.066349 1.113054 0.495068 -0.171134 0.297847 0.915398 
-1.254421 0.018001 0.464916 -0.489738 0.374594 -0.756985 
-0.281632 -0.893674 -0.012129 0.053344 -0.057634 -0.990962 
0.899893 -0.261863 0.361088 0.468567 0.269921 -0.795317 
-0.917763 0.457042 0.532705 0.155288 -0.706195 0.679530 
-0.199532 -0.091793 -0.105278 -0.489321 -0.075746 -0.860079 
-0.194210 -0.687276 0.173034 -0.180330 -0.356730 0.894130 
1.160518 -0.411034 0.477662 0.388544 0.346925 -0.785210 
-0.927424 0.828469 1.079257 0.310263 -0.748326 0.580369 
-0.223909 -0.974530 -0.006454 -0.023176 0.044099 -0.992222 
1.341589 0.790577 1.608792 -0.312779 -0.505494 0.785031 
0.565907 0.580231 0.351440 0.509013 0.739691 -0.284947 
1.965354 0.287065 1.461518 0.427023 0.647875 -0.628207 
1.339354 0.711482 1.535417 -0.430601 -0.693410 0.516769 
-0.681278 -0.667506 0.168643 -0.337576 0.143737 -0.894753 
-0.771140 0.669372 0.629321 -0.020824 0.743683 -0.632619 
0.404749 0.638588 0.403091 -0.245766 0.115787 0.654275 
-0.382283 0.189636 0.367713 -0.520616 -0.190424 0.816426 
-0.661206 1.343646 1.434949 0.218957 -0.760729 0.599205 
-1.089188 0.667657 1.056292 0.338712 -0.743083 0.568058 
1.253403 -0.105925 0.570205 -0.392635 -0.456309 0.761197 
0.309856 0.265204 -0.044419 0.402865 -0.058824 -0.911430 
-1.200948 -0.072237 0.447574 0.377653 -0.399374 0.795538 
1.203853 -0.202563 0.522393 0.445102 0.382388 -0.758869 
-0.332954 -0.463927 0.037414 -0.605017 -0.021237 -0.777317 
-0.086121 -0.120308 -0.156245 -0.439656 -0.097312 -0.874554 
2.274436 1.013995 2.147750 -0.150637 -0.611461 0.774813 
0.934739 1.215382 1.688431 0.512928 0.611825 -0.590297 
0.382758 0.668968 0.282968 0.117120 0.929860 0.164029 
-0.077841 -0.143677 0.406634 -0.120157 -0.315014 0.940628 
0.102038 0.572406 -0.128230 0.360934 0.086598 -0.918290 
0.064075 -0.384156 0.302826 0.026331 -0.228649 0.966781 
-0.396209 0.605605 0.380036 -0.096846 0.098513 0.690979 
1.692428 0.625220 1.655091 -0.205802 -0.440870 0.860676 
-0.558993 -0.932524 0.073312 0.070728 -0.222444 0.958662 
-0.905302 0.406032 0.475074 0.164969 -0.635175 0.722330 
2.106792 0.964142 2.062490 -0.161378 -0.558094 0.809263 
0.180152 -0.164293 -0.116595 0.504712 -0.085004 -0.851404 
-0.847198 1.100902 1.386485 0.359136 -0.784068 0.450388 
0.207772 0.125965 0.465143 0.371010 -0.222621 0.890457 
0.361785 0.533493 0.004375 0.572456 0.179587 -0.701502 
-0.155790 -1.049749 -0.053697 -0.202706 0.133405 -0.955745 
-0.127854 1.116258 0.346479 -0.857330 -0.056644 0.442699 
1.378643 0.948505 1.773750 0.425959 0.685658 -0.587267 
-1.791909 0.945561 2.062457 -0.294927 0.696402 -0.639000 
1.632130 1.564968 2.471318 -0.327523 -0.453438 0.815157 
1.287609 0.461153 1.124216 0.522545 0.624211 -0.564589 
1.416812 1.382073 2.226308 -0.331980 -0.647294 0.681306 
1.345189 0.300657 0.957733 -0.494905 -0.610301 0.566292 
0.062947 0.145407 -0.179461 0.465333 0.017381 -0.879462 
1.591732 0.764481 1.739588 -0.293228 -0.544636 0.756935 
0.055177 -1.188381 -0.103221 0.336407 -0.654003 0.411459 
-0.284728 -0.044656 0.368370 -0.476948 -0.247616 0.830347 
0.110026 1.283444 0.305518 0.606751 0.727732 0.246919 
-0.994294 0.874269 1.169121 -0.636902 0.610731 -0.377252 
0.281683 0.161938 -0.060130 0.426866 -0.066312 -0.897215 
-1.560341 -0.061393 0.627982 -0.500465 0.387872 -0.747849 
-2.194609 0.867408 2.060589 -0.179309 0.761957 -0.607876 
-1.751917 1.466528 2.421213 0.253868 -0.556181 0.788541 
-0.998295 0.951221 1.372776 0.388811 -0.784689 0.426069 
-1.116508 0.499022 0.703995 0.393896 -0.595822 0.678305 
0.036552 -0.451464 0.286942 0.055251 -0.217151 0.968666 
1.488688 0.095633 0.744770 -0.483513 -0.565500 0.610920 
-0.633116 -0.194568 0.180983 -0.609170 0.120674 -0.744061 
0.810712 -0.592633 0.278963 -0.221033 -0.300026 0.883040 
1.279004 -0.021832 0.580116 0.491139 0.425196 -0.730606 
-1.315940 0.615746 1.275465 -0.434008 0.723644 -0.515098 
0.077309 -0.846116 0.091888 0.098067 -0.423287 0.867804 
0.897836 1.059571 1.503563 0.664897 0.584071 -0.356452 
0.095090 0.801703 0.479397 0.203371 -0.181475 0.950857 
-0.398195 0.317665 0.363624 -0.369525 -0.183159 0.875902 
-1.662602 0.706427 1.528976 -0.027136 -0.549685 0.787422 
1.459807 1.016369 1.909306 0.373696 0.529050 -0.737737 
2.038488 0.271031 1.498585 0.416714 0.651931 -0.625938 
-0.157069 -0.798624 -0.017066 0.000303 -0.047365 -0.989503 
-1.994993 0.422575 1.169927 -0.041558 -0.693046 0.636900 
-1.600304 1.450357 2.371167 -0.371572 0.432855 -0.815328 
0.773605 1.262424 1.596943 0.559598 0.615195 -0.537917 
0.930980 0.606202 0.895396 0.644671 0.611369 -0.414517 
0.001023 1.186114 0.076528 0.453385 0.325192 -0.795795 
1.596469 0.256596 1.124383 0.568927 0.750167 -0.225901 
-0.778308 -0.422547 0.224551 0.176383 -0.286379 0.889402 
-0.586462 0.297436 0.280987 -0.034421 -0.525579 0.834855 
1.290526 -0.478717 0.499854 0.314303 0.479835 -0.761231 
1.256848 0.875049 1.599310 0.509887 0.778274 -0.334920 
-1.032410 1.039285 1.470529 -0.620491 0.690741 -0.273486 
1.826246 0.888571 1.969210 0.251453 0.436761 -0.852864 
-0.844996 0.838372 0.981408 0.293353 -0.736805 0.605267 
-0.098860 -0.942067 0.022423 0.019936 -0.440417 0.878620 
-0.990799 1.335874 1.746891 -0.678987 0.506403 -0.494690 
-0.194515 -1.108019 -0.045601 -0.215893 0.083875 -0.935546 
-0.288046 -0.323062 0.280446 -0.494113 -0.291251 0.806360 
1.117059 1.432841 2.060727 0.471573 0.611363 -0.621369 
0.580619 0.868467 0.960597 -0.735224 -0.509805 0.214388 
1.346943 0.400930 1.120559 -0.490636 -0.656186 0.535295 
0.172859 1.045835 0.385330 0.490937 0.800160 0.182639 
1.197316 1.474230 2.167863 0.409988 0.646703 -0.639674 
-0.835136 0.473947 0.393617 -0.495200 0.528972 -0.645701 
1.272003 0.926832 1.673329 0.477304 0.728947 -0.459158 
0.709935 1.189234 1.490261 0.734801 0.447358 -0.434218 
0.996874 -0.458595 0.389960 -0.267235 -0.360216 0.839302 
-0.594746 0.393884 0.358308 0.056303 -0.602766 0.773111 
-0.829511 0.618441 0.696851 0.310066 -0.705710 0.585280 
-0.410548 0.354644 -0.008041 -0.477041 0.111391 -0.859833 
-1.773636 1.560002 2.474099 -0.320006 0.388417 -0.856829 
-0.801174 0.572752 0.442127 -0.528205 0.703179 -0.451951 
1.962360 0.813136 1.951922 -0.249429 -0.637179 0.715137 
-0.621260 0.591798 0.423852 -0.208855 0.851834 -0.311357 
1.120715 0.747767 1.341766 0.554944 0.591240 -0.536253 
1.651968 0.496511 1.516899 -0.350857 -0.613504 0.703003 
-0.897716 -0.280883 0.279196 -0.415652 0.262197 -0.824085 
0.652981 -0.565762 0.196063 -0.142583 -0.254940 0.918486 
1.058559 -0.334784 0.434637 0.418622 0.322079 -0.792586 
-1.779728 0.878883 1.884019 0.221636 -0.894347 0.375642 
0.450068 -0.202941 0.096943 0.668248 0.037780 -0.724834 
0.389733 -0.310455 0.073100 0.687454 -0.005670 -0.715964 
-0.562063 0.532645 0.498286 0.575836 -0.479023 0.641851 
1.110106 0.259521 0.574051 0.574866 0.500452 -0.622549 
2.293266 0.963615 2.101840 0.147940 0.604833 -0.780541 
1.029568 0.909367 1.529874 -0.417666 -0.688524 0.546867 
0.577882 1.295202 1.480879 0.728168 0.426444 -0.494043 
-1.785060 0.456820 1.194873 0.077904 0.563431 -0.786641 
-0.324016 -0.818140 0.102787 -0.167894 -0.230110 0.926421 
1.008515 -0.062620 0.447426 -0.315592 -0.388906 0.809599 
-1.194456 1.258499 1.893998 0.419077 -0.496900 0.750912 
-1.553736 1.186696 2.156814 -0.403900 0.575273 -0.694355 
-1.276873 0.593897 1.209205 0.372193 -0.766335 0.520064 
-0.153182 -0.166639 -0.128639 -0.499971 -0.084231 -0.851391 
-0.138982 -0.640569 0.206483 -0.224359 -0.388685 0.892815 
-0.695487 0.536870 0.533009 0.622639 -0.446991 0.629255 
-0.939494 0.602642 0.622538 -0.556810 0.640650 -0.496644 
1.098754 0.358587 0.709856 0.594113 0.512257 -0.577254 
-0.038856 0.633905 0.495761 -0.026214 0.259759 0.950138 
0.041705 -0.190945 -0.168081 0.369841 -0.161966 -0.895305 
0.794750 0.242644 0.260004 0.579255 0.257436 -0.755644 
-0.369336 -0.348985 0.062636 -0.656636 -0.007623 -0.744902 
-0.398301 -0.474499 0.063521 -0.565247 0.014042 -0.792572 
1.534189 0.752557 1.664230 0.468524 0.715601 -0.491608 
0.365940 -1.004394 0.011528 0.280503 0.031782 -0.956954 
-1.182169 0.547425 0.933523 0.381964 -0.674756 0.606418 
0.656029 0.995290 1.146664 0.753152 0.554369 -0.332546 
0.825872 0.730744 0.959327 0.679792 0.636482 -0.344281 
1.729037 0.700791 1.761625 -0.268600 -0.527029 0.786229 
-0.370647 -1.096280 0.010378 -0.233588 0.022343 -0.963898 
-1.218836 1.293870 1.954013 -0.609874 0.500455 -0.598455 
-1.199746 0.824041 1.426380 -0.457049 0.549843 -0.664202 
0.597025 0.700488 0.737635 0.348989 0.738243 -0.571491 
-0.548171 0.359076 0.295138 -0.077180 -0.527582 0.829555 
2.230831 1.143938 2.267183 -0.171204 -0.633434 0.752927 
1.017705 0.557843 0.929652 0.615476 0.606821 -0.457733 
-0.754901 -0.942534 0.087995 -0.102882 0.439661 -0.876290 
1.272691 1.125730 1.903602 0.444818 0.632268 -0.626876 
1.502018 0.794472 1.712547 -0.299246 -0.543178 0.749735 
0.701716 0.668037 0.758922 0.118370 0.748465 -0.626419 
-0.986831 -0.380180 0.327456 -0.406328 0.247521 -0.832606 
0.024528 -0.494286 -0.073371 0.111260 -0.541328 -0.826928 
1.706099 1.144246 2.142674 -0.238489 -0.537760 0.800941 
-0.865738 -0.362306 0.263060 -0.399937 0.238919 -0.838183 
-0.047687 -0.538831 -0.050127 -0.160311 -0.343115 -0.906135 
-0.227228 -0.243756 -0.090631 -0.517296 -0.113746 -0.842260 
-0.329482 0.132892 0.393555 -0.516523 -0.204879 0.822069 
1.368127 0.474286 1.237992 0.521045 0.684082 -0.479847 
-0.966853 0.365497 0.459890 0.219232 -0.583054 0.740933 
0.329253 0.509873 -0.055248 0.534337 0.053167 -0.816611 
-1.211351 0.766017 1.348812 -0.477413 0.619649 -0.564978 
1.136743 -0.343993 0.475613 -0.307056 -0.406526 0.804966 
1.004678 -0.375815 0.407151 -0.297531 -0.368781 0.829275 
0.256195 1.016050 0.187165 0.855722 0.402532 -0.257902 
0.948006 0.830469 1.265672 0.648108 0.595179 -0.430927 
0.531810 0.092370 0.246667 -0.042170 -0.415774 0.886264 
-0.297032 0.832502 0.112183 -0.805357 0.375867 -0.356662 
0.160709 -0.994724 0.002812 -0.171590 -0.390162 0.892436 
1.491909 -0.353227 0.614466 -0.298987 -0.572641 0.728197 
2.158532 1.144546 2.252321 -0.178586 -0.615965 0.763012 
0.540300 1.373230 1.511111 0.443670 0.722976 -0.496648 
1.318035 -0.087135 0.604233 -0.398479 -0.475034 0.748958 
0.890595 0.098564 0.348019 0.587450 0.273115 -0.732642 
-0.499636 1.496604 1.375789 0.000988 0.114060 -0.918359 
0.834711 0.669818 0.873609 0.676698 0.622242 -0.361442 
-0.790783 -0.563864 0.225552 -0.362322 0.181097 -0.872384 
-0.021228 1.242265 0.122923 -0.533948 0.307171 -0.769791 
-0.088874 1.004527 0.019750 -0.465895 0.463067 -0.732882 
1.322888 0.991180 1.805128 -0.425101 -0.680501 0.590236 
0.196759 0.401802 0.511381 0.339027 0.000242 0.939214 
1.410427 0.880124 1.715205 0.449911 0.723571 -0.494222 
-0.956854 0.285426 0.400636 0.225811 -0.501988 0.785092 
0.296592 -0.237994 -0.057618 0.547564 -0.095753 -0.822173 
-1.018880 -0.495334 0.340587 0.251238 -0.298160 0.870611 
1.195426 0.818707 1.561709 -0.442445 -0.655191 0.582317 
0.834533 0.075423 0.390050 -0.219680 -0.424654 0.828572 
-1.952083 0.798688 1.742209 0.111452 -0.846730 0.454064 
1.911219 1.388063 2.396386 -0.203892 -0.672757 0.709785 
-0.339649 0.483966 0.401525 -0.407070 -0.029414 0.891522 
-0.446966 0.287552 0.014468 -0.547196 0.166408 -0.815363 
-1.171026 0.879944 1.471099 -0.460055 0.500661 -0.711064 
-0.218995 0.992357 0.093340 -0.684267 0.395783 -0.576984 
-0.004096 0.190588 -0.206621 -0.435252 0.023278 -0.891438 
