0.073959 -0.856891 0.072911 0.103246 -0.129647 -0.970168 
-0.424167 2.032162 0.545011 0.572957 -0.460471 -0.633365 
0.166091 0.343467 -0.041733 0.551994 0.043350 -0.825572 
-0.813936 2.285995 -0.246778 -0.377846 0.734613 0.497002 
-0.624995 0.851449 0.348955 -0.694322 -0.350298 0.598871 
-0.447728 2.799449 -0.236229 -0.765270 0.373462 0.511092 
0.472256 0.105746 0.051807 0.057801 0.124809 -0.898290 
0.909994 0.451708 -0.143286 0.789386 -0.208123 0.576776 
-0.821744 0.189368 -0.422902 0.691054 0.216856 -0.556298 
1.313040 1.345487 -0.180530 0.118456 -0.846008 0.378353 
-1.043938 2.046578 -0.276384 -0.824182 0.227567 0.515335 
0.082911 3.326093 0.199471 0.792980 -0.256932 -0.548579 
1.407574 2.159621 1.232669 -0.237262 0.891221 -0.380572 
-1.018831 1.320987 -0.230278 -0.848697 -0.024869 0.475811 
0.669759 1.701328 1.058422 0.548970 -0.676039 0.427616 
0.515252 0.066473 0.203760 0.763754 -0.282823 0.571794 
-0.861454 2.218068 -0.236600 -0.328131 0.778961 0.487957 
-0.096586 -0.061078 0.490864 -0.165945 -0.260483 0.947378 
1.786599 1.586044 -0.034645 -0.238280 0.828198 -0.495574 
-0.259599 -0.332843 0.043644 -0.480537 -0.054153 -0.850101 
-0.887232 1.335133 -0.011968 0.791258 0.080786 -0.539482 
1.619198 2.128235 1.050308 -0.188609 0.922753 -0.320271 
0.668632 -0.472745 -0.134161 -0.418695 0.026792 -0.890666 
0.480907 1.476565 0.809624 0.743352 -0.473192 0.277116 
-0.926950 0.362687 -0.567876 -0.821411 -0.255324 0.404071 
-1.117377 1.782278 -0.165530 -0.818525 0.139020 0.534120 
-0.549211 0.285667 0.175994 -0.851417 -0.327594 0.397069 
-1.140885 1.944623 -0.287463 -0.809825 0.224023 0.539541 
-0.613377 -0.817645 -0.151795 -0.592738 0.175041 0.769414 
-1.084550 2.277956 -0.561276 0.590082 -0.555847 -0.564029 
-0.269076 -1.232477 0.053250 0.413712 -0.359597 0.477388 
0.073281 -0.349102 0.394229 0.055215 -0.247777 0.962455 
-0.333626 -0.797823 0.148053 -0.618532 -0.190134 0.751766 
-0.252322 2.285066 0.462990 0.770330 -0.455289 -0.436741 
-0.425163 -0.165864 0.146517 -0.849015 -0.196669 0.475656 
-0.544974 1.633530 0.832060 0.766448 -0.030551 -0.582370 
0.936351 1.916957 1.105388 -0.311696 0.865404 -0.385482 
0.282917 0.731735 0.044747 0.644322 0.441351 -0.600635 
-0.404676 -0.555894 0.070950 -0.786864 -0.116174 0.587375 
-0.525461 0.643130 0.361279 0.558299 0.636862 -0.176197 
-0.844046 1.850063 0.186350 -0.869550 0.221498 0.417873 
-0.561494 0.919572 0.489372 0.962475 0.059342 -0.228504 
0.031445 0.740195 0.561560 0.066396 -0.041519 0.987796 
-0.417854 0.380875 0.087864 0.036660 0.228808 -0.868529 
-0.587493 1.739593 0.747760 -0.652402 0.673520 0.254472 
0.109182 0.913598 0.596717 0.227080 -0.153880 0.955595 
-0.334706 0.814758 0.337710 -0.888195 0.367103 0.015193 
0.320199 0.189369 0.061329 0.416752 0.045884 -0.875057 
-0.766396 2.171765 -0.110702 0.771969 -0.334293 -0.533841 
-0.397265 -0.080553 0.055244 -0.043170 0.101039 -0.895076 
-0.834777 1.358201 0.186640 -0.907045 0.074707 0.354483 
-0.399144 -0.350263 0.093635 -0.851427 -0.143105 0.500385 
1.151470 0.620894 -0.408886 -0.625328 0.085683 -0.748383 
1.529875 1.578597 0.110453 0.262206 -0.819585 0.445150 
0.365164 1.382998 0.898894 0.547111 -0.295260 0.703380 
0.386520 -1.294549 0.044985 0.231158 -0.163527 0.778716 
-0.569049 0.084713 -0.094232 0.315074 0.136415 -0.738150 
-0.491898 1.631478 0.930037 0.647556 -0.444304 -0.598744 
-0.223360 -0.177210 -0.003425 -0.597356 -0.068363 -0.794956 
-0.826426 0.266325 -0.378133 -0.827989 -0.204231 0.455956 
-0.775083 1.108573 0.178486 -0.931827 -0.011928 0.303019 
0.187976 1.180529 0.391654 0.762626 0.606294 -0.050219 
-0.539869 1.333275 0.773632 0.941635 -0.191670 0.059580 
0.148190 0.272542 -0.064544 0.559585 0.024147 -0.824948 
-0.735363 0.617651 -0.021020 -0.899571 -0.264278 0.333700 
-0.464534 0.605045 0.357724 0.167495 0.637080 -0.366228 
0.676610 -0.103860 -0.051865 0.735498 -0.162621 0.644042 
-0.771710 0.532943 -0.168421 -0.875384 -0.257709 0.401665 
1.703786 2.213264 1.217182 -0.170184 0.909871 -0.376082 
0.813289 0.313456 -0.083766 0.785243 -0.209226 0.580959 
-1.156610 1.256295 -0.451900 -0.857618 -0.188410 0.447703 
0.167348 0.560530 0.590385 0.253264 -0.026053 0.963718 
-1.005168 1.029418 -0.342921 -0.867879 -0.162770 0.434472 
-0.332529 0.674386 0.076741 -0.754017 0.197928 -0.579170 
-1.314162 1.947406 -0.492095 0.740797 -0.287757 -0.583927 
1.761770 2.116364 0.980495 0.194729 -0.825158 0.504439 
1.116819 2.098211 1.326022 -0.423409 0.883370 -0.165434 
0.230404 0.778602 0.054372 0.592718 0.499681 -0.599366 
1.358550 2.071664 1.110613 0.294943 -0.851263 0.402671 
1.228708 2.042193 1.166674 0.332953 -0.834361 0.402137 
0.489578 0.342292 0.376913 0.638751 -0.275600 0.679444 
-0.182149 -0.245648 -0.028130 -0.567125 -0.072384 -0.815070 
-0.411180 0.658628 0.392307 -0.300834 0.479276 0.027206 
1.333269 1.462155 0.008306 0.050582 -0.927138 0.270183 
-0.630342 0.994288 0.463641 -0.711229 -0.402604 0.542987 
-0.469100 2.206301 0.244262 0.664868 -0.568014 -0.476450 
1.242341 1.278067 -0.358238 -0.571835 0.518467 -0.619012 
1.327430 1.692743 0.382396 0.484957 -0.535647 0.649413 
-0.634251 0.525296 0.165776 -0.895413 -0.297500 0.305195 
-0.461068 1.930558 0.624008 0.587905 -0.407023 -0.651821 
-0.931982 1.130729 -0.223598 0.826757 0.080436 -0.512247 
-0.736428 1.307809 0.290722 0.749153 0.206400 -0.562989 
0.914668 1.936188 1.236069 0.350527 -0.797895 0.484952 
-0.999759 1.437163 -0.149532 -0.841003 0.052162 0.493855 
-0.388520 0.337268 0.464173 -0.536215 -0.199497 0.803820 
0.052661 1.030567 0.128748 0.360431 0.457865 -0.790633 
-1.089387 0.976353 -0.667512 0.864470 0.332106 -0.352056 
0.004860 2.919288 0.267049 0.749261 -0.347945 -0.561651 
0.949486 0.963197 0.020656 0.732891 -0.290243 0.539069 
0.734090 1.632081 0.821632 0.604638 -0.665929 0.345190 
-0.675951 -0.191194 -0.234704 -0.781971 -0.131309 0.554782 
1.261927 2.097443 1.220049 0.313193 -0.854456 0.406821 
1.126318 1.774759 0.672609 -0.373154 0.833441 -0.389907 
-0.717305 1.178504 0.354934 -0.951861 0.032283 0.255834 
-0.161380 1.178568 0.624736 0.458172 0.472235 0.700632 
-0.181766 0.285007 -0.039290 -0.615353 0.017302 -0.781941 
0.020184 3.115722 0.199940 -0.827931 0.284605 0.472072 
0.642101 0.888817 0.410422 0.765935 -0.198688 0.577901 
-1.037358 1.214901 -0.329928 0.830399 0.119487 -0.502977 
0.004171 -1.038155 0.139023 0.620188 -0.140402 0.759993 
0.204333 1.110317 0.417746 0.424108 0.268639 0.740418 
0.357863 -0.369492 0.251372 0.718021 -0.237125 0.651324 
0.500507 1.201870 0.576284 -0.483009 0.513696 -0.696030 
-0.801929 1.151227 0.057336 0.779577 0.206322 -0.530067 
0.047021 2.616859 0.582416 -0.588914 0.484038 0.623406 
0.318037 -0.463951 0.110654 0.208505 0.037260 -0.944247 
0.330919 0.812104 0.420545 0.860658 0.365975 0.344525 
1.919319 2.295167 1.375806 -0.133009 0.929483 -0.339469 
-1.236456 1.674432 -0.389756 0.814969 0.037111 -0.524706 
1.500968 1.671165 0.249611 0.447389 -0.556193 0.648273 
0.493260 -0.300338 0.022617 -0.106827 0.083031 -0.878527 
-0.426273 -0.941034 0.006266 0.443145 0.007947 -0.892346 
-0.191732 -0.932211 0.066372 0.167229 -0.095345 -0.969802 
-0.697076 -0.208098 -0.306596 0.596218 0.157302 -0.665074 
-0.521872 2.539674 -0.145570 -0.715644 0.457259 0.513990 
1.296437 1.800009 0.550616 -0.285540 0.866816 -0.388743 
-0.734010 0.643953 -0.158205 0.670779 0.291868 -0.555964 
0.074807 0.446285 -0.074053 0.488960 0.113047 -0.857108 
0.317681 -1.267306 0.031955 -0.784244 -0.540650 0.205784 
-0.247514 2.712574 0.082985 -0.559053 0.499319 0.651666 
1.860370 1.739111 0.161395 -0.233662 0.837840 -0.489315 
-1.043241 0.775645 -0.669497 0.818181 0.321919 -0.377823 
1.369234 2.055283 1.036190 0.300104 -0.825301 0.460818 
-0.494452 -0.362791 -0.038930 0.354146 0.085287 -0.810202 
0.269183 -0.753389 0.058558 -0.203456 -0.102606 -0.961118 
0.412873 -0.549048 0.099770 0.698830 -0.167096 0.683683 
-0.076310 -0.892135 0.189272 -0.216671 -0.253304 0.931591 
-0.744145 0.717359 0.087183 -0.959360 -0.192383 0.199178 
-0.010942 1.165719 0.560003 0.024561 0.579641 0.799150 
-0.646393 1.807282 0.577792 -0.723555 0.517807 0.402975 
-0.397770 -1.373714 -0.006752 0.467962 -0.772968 -0.065919 
0.368012 0.213272 0.458009 0.562099 -0.215061 0.780118 
0.340110 -1.044185 0.036170 -0.157840 0.072175 -0.940388 
-0.082629 0.375818 -0.083646 -0.539288 0.080787 -0.828528 
-0.722717 0.747604 -0.022074 0.769479 0.385303 -0.503337 
0.745501 -0.424484 -0.176626 0.584151 -0.031019 0.801573 
0.334427 -0.926164 0.101072 0.430398 -0.200021 0.863060 
-0.310986 0.862752 0.402242 -0.886351 0.291648 0.263200 
1.112096 1.570165 0.311057 0.222018 -0.902773 0.217652 
-0.316884 -0.980072 0.077970 -0.331015 -0.208905 0.904007 
-0.699696 0.136443 -0.187204 -0.841058 -0.166907 0.486586 
0.829000 1.193141 0.260509 0.702497 -0.309970 0.509204 
0.687627 0.519214 0.224008 0.824116 -0.247451 0.475552 
-0.917192 0.913125 -0.265765 -0.875997 -0.144323 0.421834 
1.055534 1.258865 -0.029392 -0.562008 0.546107 -0.580386 
1.406638 2.192319 1.309669 -0.227185 0.895528 -0.375025 
-0.580444 0.684325 0.291910 0.764208 0.493436 -0.088749 
0.208246 -0.973911 0.068880 -0.193083 -0.083096 -0.965480 
-1.272469 1.374469 -0.569271 0.835610 0.250113 -0.477989 
-0.200443 -0.329303 -0.011455 -0.561812 -0.103968 -0.813826 
0.478468 -0.809084 -0.005930 0.626967 -0.085076 0.770369 
0.966383 1.969526 1.190559 -0.322748 0.871694 -0.363089 
-0.459682 2.697771 -0.188188 -0.770380 0.380678 0.494767 
-1.225770 1.180271 -0.771971 -0.878547 -0.346771 0.302564 
0.487737 0.844359 0.520547 0.689156 -0.293739 0.660469 
-0.192511 1.162449 0.311114 -0.827281 0.511517 -0.210282 
0.643860 0.202478 -0.037736 -0.185406 0.143906 -0.810932 
1.616909 1.838715 0.435556 -0.234645 0.868511 -0.427185 
-0.392099 2.584827 -0.014682 -0.794990 0.371403 0.458688 
-0.106463 2.776328 0.211977 -0.698439 0.424429 0.563031 
-0.713128 2.088049 0.042124 0.824311 -0.304331 -0.464313 
-0.166823 2.979015 0.023716 0.802446 -0.292563 -0.513972 
-0.687056 1.241600 0.465232 -0.957749 0.057590 0.233195 
-0.725111 0.782525 0.132521 -0.955161 -0.163747 0.227464 
-1.185811 1.129154 -0.726597 0.862333 0.340243 -0.350976 
0.874777 1.499317 0.320864 -0.466634 0.648211 -0.595716 
-0.346451 -0.438757 0.185064 -0.778032 -0.204700 0.579769 
-0.324288 -0.506747 0.202863 -0.746301 -0.224604 0.614849 
-0.602500 1.694919 0.804048 -0.668655 0.598014 0.393647 
1.873075 2.092147 0.874785 -0.156081 0.939091 -0.290262 
-0.733462 2.358699 -0.240728 0.744510 -0.367820 -0.549573 
0.001723 -1.264682 0.119217 0.238963 -0.239668 -0.939749 
-0.335197 1.907050 0.836592 0.760202 -0.377487 -0.518920 
0.071086 0.643944 -0.048603 0.390701 0.193689 -0.878134 
0.905047 0.301614 -0.196850 -0.633376 0.166375 -0.718020 
0.574153 0.433936 0.038878 -0.141560 0.225872 -0.847561 
0.002649 3.011924 0.221966 -0.824292 0.304207 0.464340 
-0.487331 2.731680 -0.246610 -0.753884 0.392923 0.512147 
-0.765793 1.816482 0.282829 0.601193 -0.383251 -0.572006 
-0.803913 1.245053 0.107891 0.771107 0.183906 -0.539862 
-0.948168 1.193210 -0.173144 -0.862534 -0.034810 0.449245 
-0.738536 1.213535 0.224754 0.751472 0.256294 -0.544348 
1.065023 1.841839 0.859183 -0.339626 0.729195 -0.574417 
0.977552 0.886577 -0.084375 -0.661084 0.352415 -0.625843 
0.017151 0.726120 -0.042721 0.288154 0.312090 -0.895139 
0.670696 -0.030299 -0.065967 -0.350148 0.128130 -0.800512 
0.200526 0.399792 -0.015018 0.564187 0.047394 -0.813885 
-0.776149 -0.348505 -0.332834 0.605294 -0.028798 -0.719797 
-0.590003 1.308449 0.619635 0.727455 0.232174 -0.612538 
-0.177488 0.359859 -0.027519 -0.596777 0.045095 -0.789212 
1.416537 1.259614 -0.583150 -0.631587 0.272067 -0.680708 
-0.009478 0.440451 0.608352 -0.062445 -0.070970 0.991210 
-0.715429 1.543551 0.582833 -0.933655 0.153679 0.263513 
-0.116436 0.313930 -0.076412 -0.574642 0.046452 -0.809104 
-0.285274 -0.539609 0.273728 -0.649470 -0.261613 0.696219 
0.312959 0.739534 0.489592 0.645389 0.326747 0.631858 
-0.712878 0.490594 -0.061211 -0.867762 -0.288078 0.395548 
0.803829 0.579208 -0.074955 -0.475105 0.261424 -0.728393 
0.101110 0.536203 0.604173 0.177118 -0.023296 0.978082 
-0.777710 1.664012 0.508994 -0.908657 0.184649 0.316424 
0.251059 0.045986 0.006237 0.589194 -0.045907 -0.803668 
0.825141 0.456706 -0.129622 -0.446976 0.188645 -0.731861 
0.087775 0.214221 -0.101521 0.536771 0.031143 -0.839385 
0.095613 3.498229 0.149704 -0.809797 0.237376 0.535726 
-0.370752 2.439906 0.123763 0.556883 -0.562015 -0.596051 
-0.354679 -0.622943 0.080637 0.092042 0.038212 -0.933978 
-0.005007 -0.705700 0.304103 -0.492911 -0.261678 0.826030 
-0.618897 1.037631 0.371170 0.728709 0.407771 -0.541690 
2.120115 2.092196 0.787948 -0.139344 0.920164 -0.361046 
-0.095174 2.867480 0.173366 0.756492 -0.354576 -0.543957 
-0.986685 2.121204 -0.299263 0.521610 -0.600646 -0.564101 
1.107107 1.921165 1.025409 0.398038 -0.767872 0.456994 
0.253875 0.182404 0.508260 0.411652 -0.217879 0.856215 
-0.322256 0.420584 0.104426 -0.475071 0.156629 -0.793768 
-1.330778 1.387131 -0.733585 0.849405 0.320163 -0.402112 
-0.023565 -0.396018 0.385469 0.013875 -0.143776 0.989168 
-0.297552 -1.058220 0.055662 0.367432 -0.039852 -0.916505 
-0.097582 1.129089 0.584383 0.301117 0.312421 0.894115 
-1.072055 1.566586 -0.193647 -0.833921 0.051905 0.505023 
1.537969 2.214794 1.295719 0.235538 -0.938265 0.223676 
1.306698 2.158095 1.303971 -0.267493 0.886029 -0.368331 
0.344644 -0.149580 0.375753 0.648726 -0.258235 0.707362 
1.224060 1.389218 -0.190145 0.422247 -0.667457 0.520827 
0.319608 -0.094946 0.096219 0.314718 0.055248 -0.929168 
1.529745 1.305535 -0.319952 0.056004 0.918873 -0.341148 
-0.629490 0.629049 0.261410 -0.535413 -0.263867 0.776832 
-0.409024 0.320344 0.048904 -0.033259 0.173706 -0.907612 
-0.681927 2.442981 -0.245944 -0.536365 0.603334 0.521338 
0.679241 0.352348 -0.053885 -0.239522 0.168836 -0.804212 
0.508848 1.336760 0.679654 0.825571 -0.311659 0.388091 
0.905057 0.750774 -0.058881 -0.688307 0.285552 -0.654611 
-0.000497 1.303461 0.418486 -0.182431 0.733583 0.646749 
-0.768838 1.310478 0.219825 0.753987 0.198819 -0.552655 
0.226487 1.028855 0.557724 0.601224 0.758617 -0.155524 
-0.523745 2.056479 0.357300 0.702266 -0.498581 -0.467977 
0.007554 2.845705 0.311139 0.742909 -0.364654 -0.559841 
1.104482 0.391107 -0.407277 -0.563605 0.031522 -0.802314 
-0.354610 -0.324696 0.248173 -0.772523 -0.215898 0.586238 
1.030506 1.191641 0.008597 0.621109 -0.494683 0.541506 
-0.891894 0.456291 -0.444673 -0.846426 -0.236125 0.413517 
-0.079680 -0.960231 0.153506 -0.209001 -0.227345 0.940391 
-1.198876 2.278792 -0.688369 -0.673128 0.471081 0.552335 
-0.407159 0.184820 0.402927 -0.707090 -0.252848 0.647809 
-1.349300 1.616138 -0.574681 -0.833376 -0.134781 0.483840 
-0.845117 0.422354 -0.391898 0.763511 0.229010 -0.516360 
-0.602861 0.778534 0.323044 0.936566 0.198325 -0.204415 
-0.535826 -0.314555 -0.075116 0.448411 0.096798 -0.774123 
-0.749612 1.713010 0.449084 0.707825 -0.140525 -0.620956 
-0.730993 1.764864 0.400457 0.636512 -0.278945 -0.597004 
1.614263 1.441039 -0.162391 -0.131887 0.831291 -0.465799 
0.529898 1.006850 0.558724 0.428004 -0.476232 0.687601 
0.584053 1.018771 0.414929 -0.548916 0.453399 -0.696359 
-0.608700 -0.048138 -0.106901 -0.836913 -0.151279 0.502034 
0.040643 1.358055 0.355186 0.509509 0.686321 0.470192 
0.685360 1.285134 0.457800 0.749969 -0.335309 0.450969 
0.916485 1.294877 0.155496 -0.527074 0.581756 -0.598591 
-0.591286 -0.162563 -0.121213 0.524136 0.119586 -0.724063 
1.692881 1.442235 -0.199605 -0.133821 0.841128 -0.462476 
0.150763 -0.070275 0.482175 0.218642 -0.255731 0.939792 
-0.020908 -0.270748 0.419624 -0.003792 -0.258519 0.963218 
1.001575 1.375503 0.092661 -0.518773 0.617185 -0.572584 
-0.740330 1.515740 0.422970 0.752057 0.066911 -0.608583 
-0.860312 1.708855 0.284768 0.772002 -0.083461 -0.611669 
-0.144680 3.211591 -0.080151 -0.763002 0.309042 0.562907 
0.629262 -0.524525 -0.098316 0.637319 -0.080619 0.760910 
-0.564927 -0.770075 -0.119247 -0.634121 0.047817 0.754616 
0.440431 1.306675 0.749507 0.868192 -0.253932 0.371943 
-0.684477 0.933684 0.173543 0.760010 0.371403 -0.520918 
-1.202365 1.917593 -0.331242 -0.801641 0.227505 0.550660 
-0.679982 0.491825 -0.186245 0.488493 0.205157 -0.647949 
-0.723951 2.195539 -0.053377 -0.378179 0.751576 0.485099 
-0.147482 2.244445 0.677183 0.744781 -0.456649 -0.477031 
1.625424 1.802292 0.370793 -0.200122 0.886129 -0.407682 
-0.708568 -0.338642 -0.290978 0.586088 0.059869 -0.710316 
0.291658 -0.395729 0.093773 0.349566 -0.000386 -0.911941 
-0.016186 -0.481826 0.366851 -0.107114 -0.227693 0.953698 
0.157539 -0.345903 -0.027541 0.494052 -0.158735 -0.839598 
-0.651267 1.373583 0.526370 0.737265 0.177736 -0.606562 
0.322911 0.265544 0.060056 0.435898 0.051813 -0.866578 
-0.758423 0.426833 -0.211869 -0.879051 -0.214728 0.420828 
-0.827905 1.454872 0.262039 -0.904259 0.108001 0.351364 
-0.275867 -0.125437 0.412425 -0.568039 -0.255795 0.741696 
0.970206 1.855953 0.971176 -0.314701 0.901182 -0.286251 
-0.780432 2.236713 -0.183809 0.769144 -0.330098 -0.542559 
0.449140 -0.690321 0.036590 0.665532 -0.116003 0.726616 
0.364566 -0.301729 0.270571 0.709049 -0.237231 0.660266 
1.283283 1.303234 -0.421320 -0.567732 0.523899 -0.625264 
0.754791 -0.646640 -0.168186 0.463991 0.041152 0.883613 
1.172750 2.098647 1.264647 -0.325818 0.871490 -0.361614 
-0.195232 0.693793 -0.007722 -0.529871 0.229121 -0.776477 
0.062143 -1.221600 0.121266 0.458259 -0.419879 0.697919 
0.793062 0.040264 -0.139478 -0.576066 0.146195 -0.758750 
0.137308 2.920145 0.461773 -0.458845 0.404366 0.771797 
0.625344 0.067109 0.044898 0.776104 -0.220126 0.586336 
-0.791553 0.727324 -0.171904 0.807165 0.314440 -0.489188 
1.467114 1.754611 0.377331 -0.200182 0.896477 -0.380278 
0.537722 1.264164 0.559395 -0.471593 0.540555 -0.681990 
0.678152 0.774543 0.172649 -0.571335 0.435884 -0.672206 
-0.499300 -0.048867 0.057682 -0.861615 -0.199210 0.455421 
1.913698 2.180730 1.068580 -0.148348 0.926164 -0.337608 
-0.378673 2.041873 0.637974 -0.584980 0.674115 0.427206 
-0.418389 0.585170 0.450894 -0.501575 0.087665 0.843820 
-0.202997 -0.477440 0.353098 -0.292735 -0.297179 0.904301 
-0.887239 0.724193 -0.307242 -0.888687 -0.215098 0.395713 
-0.257593 -0.057739 0.438418 -0.514719 -0.255340 0.776196 
-0.575992 1.904482 0.521632 -0.647720 0.656553 0.294973 
0.657009 0.149676 0.047085 0.775644 -0.234385 0.580374 
0.354867 -0.598700 0.171917 0.667384 -0.214852 0.704859 
-0.294953 2.200780 0.585878 -0.631228 0.605019 0.441895 
0.341710 1.435578 0.940706 0.666022 -0.327278 0.608274 
-0.200319 2.771594 0.097566 0.820728 -0.300929 -0.478190 
0.327748 -0.170072 0.123753 0.268549 0.077324 -0.954964 
-0.315749 0.878921 0.301329 -0.923494 0.346342 -0.143518 
-0.499168 -0.751951 -0.076788 -0.723853 -0.046068 0.672314 
-0.011717 1.102432 0.600325 -0.057321 0.352101 0.915591 
-0.543557 1.324757 0.670946 0.878769 0.272099 -0.361515 
0.262172 -0.365773 0.352752 0.508275 -0.257543 0.769836 
-0.937592 1.572859 0.022353 0.785548 -0.021444 -0.558851 
0.619390 1.125267 0.416991 -0.524657 0.496582 -0.678359 
-0.799380 1.216722 0.185647 -0.921714 0.026141 0.323997 
-0.588046 0.616861 0.328697 -0.437014 -0.324067 0.793018 
-0.411013 1.796645 0.861894 0.757561 -0.357231 -0.538956 
-0.021788 -0.735455 0.079772 -0.314257 -0.150313 -0.928867 
-0.415029 2.149020 0.403194 0.596036 -0.542774 -0.556357 
1.796355 1.535005 -0.111699 0.236692 -0.829124 0.476930 
0.245907 -0.675479 0.240084 0.419113 -0.320101 0.821003 
-0.367403 1.980112 0.775557 -0.613265 0.662568 0.381650 
0.485012 0.035514 0.043773 0.042089 0.113719 -0.885068 
-0.821109 1.525335 0.248263 0.764138 0.046051 -0.583492 
-0.615974 0.524515 -0.091717 0.405434 0.241627 -0.689163 
-0.340085 -0.182575 0.363923 -0.703584 -0.252789 0.657731 
0.234252 -0.478654 0.042824 0.153273 -0.178731 -0.884868 
-0.288132 3.151641 -0.240127 -0.755456 0.332233 0.561310 
-0.988778 0.912751 -0.372740 -0.875192 -0.207636 0.419400 
0.614822 0.646710 0.157508 -0.306344 0.453510 -0.513253 
-0.240982 -0.266492 0.009813 -0.598878 -0.087650 -0.793827 
1.155577 0.522093 -0.441130 0.679426 -0.047028 0.729338 
-0.026036 0.855318 -0.002243 -0.424113 0.383066 -0.814829 
-0.273677 -0.220735 0.053394 -0.428017 -0.016128 -0.869870 
1.140867 1.925932 0.962412 0.395889 -0.756982 0.503412 
-0.782536 1.082729 0.057546 0.779526 0.240672 -0.525073 
-0.743905 -0.069204 -0.353751 0.628251 0.179607 -0.625498 
-1.201428 1.722027 -0.325264 0.808747 -0.032307 -0.539434 
-0.838456 0.355026 -0.365864 -0.840758 -0.209097 0.444855 
0.170831 -0.709722 0.255101 0.231550 -0.358180 0.900558 
-0.795992 1.903457 0.177960 -0.876035 0.237675 0.404937 
-0.235686 0.972129 0.525973 -0.756861 -0.067322 0.625427 
-0.159645 2.288911 0.587294 0.723037 -0.481566 -0.487741 
-0.667712 0.552512 -0.151662 0.488529 0.234764 -0.648920 
1.852020 2.206005 1.153495 0.178947 -0.921646 0.329163 
0.002481 0.986317 0.079154 0.303953 0.500694 -0.806482 
-0.215492 2.255736 0.637395 -0.658977 0.581578 0.436237 
0.971367 1.413578 0.166653 0.571088 -0.579224 0.518033 
-0.799519 1.034144 -0.005882 0.790168 0.234229 -0.517837 
0.000365 -1.052610 0.064337 0.603250 -0.074445 -0.782075 
-0.482218 0.275123 0.314579 -0.801896 -0.334499 0.467335 
-0.392813 -0.228041 0.179061 -0.816895 -0.172841 0.538389 
0.247423 1.058527 0.393037 0.899321 0.394533 0.046890 
-0.298813 2.474313 0.197966 0.486577 -0.594846 -0.635603 
-0.373236 0.563518 0.508647 -0.545147 -0.047751 0.826244 
0.890086 1.875085 1.153940 0.456026 -0.750477 0.424550 
-0.005882 2.434009 0.669003 -0.554265 0.530039 0.633673 
0.294982 0.888262 0.430071 0.893561 0.198129 0.364553 
0.794823 0.360784 -0.029551 0.780862 -0.238335 0.572678 
-0.982583 2.078357 -0.237387 -0.832467 0.224824 0.503698 
-0.321953 0.806910 0.242462 -0.855534 0.375117 -0.296207 
-0.715356 0.562000 -0.216475 0.555062 0.217923 -0.616941 
1.175771 0.998655 -0.357962 -0.649706 0.378887 -0.634036 
-1.294107 2.016114 -0.533324 -0.774306 0.279245 0.557384 
-0.031846 1.399925 0.318464 -0.527478 0.751691 0.139961 
-0.493771 2.148157 0.283913 0.686548 -0.574025 -0.443906 
-0.640906 -0.558329 -0.205411 0.544488 -0.001986 -0.779878 
1.477207 1.827399 0.514596 0.344668 -0.772137 0.494090 
1.471186 1.992570 0.839961 0.245363 -0.928033 0.252675 
-0.433078 1.549654 1.161494 0.665069 -0.527066 -0.253098 
0.594998 1.375975 0.592126 0.771550 -0.385640 0.408205 
0.290876 -0.165691 0.055950 0.417728 -0.012446 -0.878766 
-0.263838 1.019435 0.405377 -0.912519 0.355189 0.107243 
1.448725 1.928100 0.696283 -0.291388 0.776048 -0.537588 
-0.926940 2.376841 -0.477508 0.690341 -0.445621 -0.556805 
-0.605515 0.896420 0.416541 -0.713788 -0.404205 0.554299 
0.173803 1.160784 0.267679 0.722045 0.501888 -0.390222 
0.584545 1.024369 0.491002 0.870304 -0.040445 0.462705 
1.855828 1.681286 0.077261 0.270717 -0.812404 0.504977 
-0.430960 0.255455 0.391660 -0.694408 -0.264913 0.635244 
0.648595 0.599098 0.303701 0.352876 -0.197032 0.890934 
0.986327 1.136490 0.042214 0.658102 -0.422656 0.536980 
-1.048609 0.970070 -0.473533 0.845316 0.261942 -0.461450 
0.625472 1.582958 0.842084 0.667722 -0.619763 0.316713 
-0.253390 2.022343 0.843167 -0.343039 0.513271 0.734282 
-0.006267 -0.103744 -0.113419 -0.405747 -0.138315 -0.878315 
-0.510014 2.383543 -0.016922 0.680849 -0.507251 -0.526087 
-0.118692 2.552204 0.367413 0.737788 -0.449463 -0.495791 
0.757115 0.717986 0.193422 0.646507 -0.168383 0.654989 
0.384852 1.457282 0.878335 0.838577 -0.387990 0.306334 
-0.704859 1.934208 0.268004 -0.871767 0.287110 0.372532 
0.328509 0.470232 0.114722 0.564255 0.206343 -0.738293 
-0.081767 3.220288 -0.001738 0.772661 -0.290146 -0.563985 
1.112874 1.140195 -0.156087 0.636541 -0.462469 0.567674 
-0.871223 1.337693 0.090094 -0.892608 0.053452 0.385094 
0.553194 0.163372 0.205200 0.763302 -0.299111 0.564900 
1.624303 2.003007 0.756758 -0.238845 0.722626 -0.633478 
-0.686717 0.298892 -0.195022 0.538528 0.175639 -0.634043 
-0.413530 -0.831488 0.021524 0.386816 0.031236 -0.888039 
-0.661617 1.624577 0.759936 -0.945734 0.188341 0.222455 
1.541115 1.885071 0.557551 -0.282233 0.833444 -0.464347 
-0.631929 -0.350666 -0.204413 -0.764040 -0.110449 0.585267 
-0.454434 0.207253 0.326473 -0.780673 -0.299439 0.519293 
-0.577559 0.445362 0.283336 -0.803032 -0.331565 0.430177 
-0.608579 2.094360 0.165436 0.810933 -0.362157 -0.429942 
0.281445 -0.982465 0.065718 -0.306585 -0.040313 -0.948006 
-0.126637 0.728577 -0.011307 -0.425186 0.319329 -0.802546 
1.115996 1.616117 0.372129 -0.439165 0.644927 -0.622599 
-0.014859 0.212924 -0.145905 -0.517433 0.045470 -0.850171 
-0.986308 0.841275 -0.417171 -0.881038 -0.246701 0.398880 
-0.985560 1.356302 -0.164085 -0.846984 0.022342 0.481513 
0.692214 -0.294663 -0.121201 -0.472242 0.079335 -0.842128 
1.393427 1.797731 0.488282 -0.258041 0.870845 -0.402664 
0.797939 1.609238 0.671969 -0.177592 0.889787 -0.327155 
0.824474 0.847448 0.131486 0.823656 -0.109337 0.524403 
0.098583 2.890041 0.397875 0.750298 -0.342708 -0.565000 
0.563023 1.121195 0.477078 -0.516359 0.489613 -0.690721 
-0.543288 0.195801 0.126796 -0.855427 -0.286461 0.414669 
1.476707 2.217277 1.341806 0.251023 -0.940673 0.195691 
0.089489 0.149083 0.552982 0.178481 -0.233739 0.949414 
-0.224746 -1.111320 0.081859 0.244610 -0.083133 -0.954332 
-1.156496 0.940018 -0.824022 0.844358 0.354079 -0.310311 
-0.997347 1.560177 -0.071716 -0.841471 0.105736 0.492400 
0.356451 1.317444 0.748646 -0.842866 0.122100 -0.520537 
-1.129631 1.407268 -0.363570 0.825824 0.102698 -0.508413 
-0.177766 0.028570 0.502331 -0.341847 -0.258687 0.883721 
1.475179 2.167168 1.209151 0.248338 -0.905131 0.326208 
0.311362 0.028820 0.438082 0.536496 -0.256121 0.776637 
0.357313 0.553671 0.196605 0.565689 0.414707 -0.672491 
-0.417507 0.060684 0.306310 -0.769417 -0.240540 0.569964 
0.953810 0.823156 -0.039292 0.779470 -0.214636 0.546211 
0.438260 1.521424 0.913706 0.765822 -0.562254 0.245048 
0.288293 0.509948 0.535314 0.345640 -0.072574 0.925809 
-0.860524 1.067313 -0.043846 -0.897954 -0.058832 0.374813 
0.989588 0.303016 -0.305856 -0.573907 0.085814 -0.779155 
-0.492038 2.287581 0.100908 0.687034 -0.524701 -0.499880 
0.390294 0.467924 0.223171 0.381556 0.436102 -0.747137 
-0.284809 0.960936 0.301897 -0.905569 0.378140 -0.169032 
-0.395107 -0.709524 0.075922 -0.728924 -0.113729 0.660732 
-0.945939 0.637441 -0.488525 -0.865888 -0.262005 0.376989 
0.808684 0.761959 0.121528 0.838757 -0.129571 0.517708 
0.198939 0.132951 0.520660 0.327320 -0.242036 0.896112 
0.228269 -0.296338 0.385821 0.415778 -0.255936 0.822634 
1.284051 1.981344 0.941759 0.341471 -0.768584 0.532409 
0.171153 1.205398 0.465711 0.902358 -0.258024 0.276943 
0.616440 -0.289842 -0.051144 -0.395023 0.105517 -0.832000 
-0.717330 1.611907 0.539781 0.749723 0.006836 -0.638040 
1.351000 1.657567 0.310459 0.512880 -0.469500 0.696193 
0.118397 3.387047 0.228361 0.837670 -0.222656 -0.481275 
-0.539911 0.148740 -0.067185 0.227009 0.142789 -0.766786 
0.827829 1.024509 0.196277 0.761178 -0.213055 0.516784 
0.159519 0.460453 0.600032 0.253522 -0.066293 0.962943 
-0.357817 -0.219223 0.301946 -0.747725 -0.229246 0.615025 
0.002043 -1.153217 0.090635 0.426929 -0.153056 -0.857949 
-0.670803 2.497489 -0.295380 0.714053 -0.416471 -0.556377 
0.024191 2.504498 0.640237 -0.542461 0.518494 0.653572 
0.121823 3.093871 0.372267 -0.678221 0.338371 0.621062 
-0.519971 0.224987 0.201503 -0.849841 -0.322228 0.402463 
0.284226 -0.513753 0.289946 0.585916 -0.269941 0.744546 
-0.838286 0.741675 -0.256439 0.832185 0.259048 -0.481904 
-0.431005 -1.017735 0.001923 0.513491 -0.000571 -0.848156 
-0.273825 0.234112 0.022232 -0.658973 -0.017125 -0.750128 
0.257034 -0.669651 0.063767 -0.224873 -0.161375 -0.954012 
1.250367 1.461929 0.015883 -0.282082 0.743928 -0.514678 
-0.609136 0.882722 0.242579 0.823572 0.305856 -0.406907 
-0.699094 -0.053461 -0.226088 -0.800796 -0.141279 0.535448 
0.784869 1.682731 0.837893 -0.273923 0.776712 -0.526007 
0.305684 -0.332618 0.126534 0.311176 0.044399 -0.946422 
0.691831 0.873461 0.233670 -0.605251 0.386151 -0.687338 
0.847108 -0.044087 -0.237751 -0.493344 0.053008 -0.837815 
-1.327957 2.053822 -0.610659 0.728949 -0.328705 -0.581981 
-0.530705 1.565017 0.936597 -0.255668 -0.564950 0.750109 
-0.054232 -0.004653 0.512505 -0.129236 -0.268722 0.951443 
0.772076 0.515388 -0.096918 -0.379009 0.201517 -0.764400 
-0.870129 0.622946 -0.321746 -0.880978 -0.223670 0.410446 
0.154367 -0.854064 0.068342 -0.110496 -0.121009 -0.976929 
-0.117027 2.350411 0.573919 0.724714 -0.492699 -0.476410 
0.042015 -0.780073 0.078085 0.221718 -0.141693 -0.954072 
-1.285498 1.886667 -0.413368 -0.793399 0.217313 0.559410 
-0.016029 3.360986 0.039212 0.790635 -0.257299 -0.553804 
-0.054677 1.038449 0.135707 -0.356075 0.453571 -0.794034 
-0.294922 -0.570729 0.027285 -0.237731 -0.054939 -0.847989 
0.981716 0.436999 -0.250732 -0.649776 0.158897 -0.710559 
0.101997 3.135779 0.303792 0.775044 -0.293383 -0.555088 
1.801553 1.747003 0.201161 -0.221338 0.851688 -0.466908 
-0.789265 2.350897 -0.296989 0.735586 -0.379083 -0.551281 
0.867922 1.539324 0.492542 0.403642 -0.776549 0.215493 
-0.583276 1.040417 0.539498 -0.624664 -0.441519 0.596093 
1.353222 0.880053 -0.562939 0.676053 -0.025440 0.728313 
0.050581 -0.513544 0.352813 0.112727 -0.267686 0.944355 
0.290416 -0.218719 0.384053 0.581906 -0.262927 0.739419 
-0.287716 -0.279462 0.093694 -0.325867 0.018116 -0.920854 
-0.759276 1.374313 0.375344 -0.929121 0.091189 0.294373 
1.547909 2.175741 1.192569 0.232660 -0.909820 0.326848 
0.490093 0.590554 0.215313 0.185115 0.539196 -0.664725 
-0.836333 0.825876 -0.203349 0.823287 0.242673 -0.491142 
0.034457 0.499819 0.606966 0.086357 -0.031517 0.989535 
-0.960807 2.318701 -0.451844 -0.480611 0.660243 0.516671 
-0.257279 3.012486 -0.117348 0.790655 -0.304196 -0.525640 
0.309683 -0.248498 0.113942 0.316361 0.045804 -0.938217 
-0.249230 2.300314 0.533192 -0.651797 0.569034 0.458311 
0.869259 1.649539 0.683529 -0.246314 0.868447 -0.346807 
-1.238141 1.939552 -0.401666 0.726056 -0.304391 -0.579919 
1.554251 2.051741 0.908184 0.231464 -0.763590 0.596233 
1.229861 1.853056 0.713057 -0.355261 0.796785 -0.475777 
-0.659882 1.470233 0.669572 -0.954195 0.137379 0.217182 
-0.529428 -0.433907 -0.072605 0.498706 0.085592 -0.781875 
1.034723 0.187866 -0.359797 -0.542650 0.017703 -0.818964 
0.176914 1.063314 0.640876 -0.053570 -0.175603 0.920165 
0.987160 1.549379 0.369842 0.326298 -0.845198 0.231371 
0.838494 0.234535 -0.123723 0.761729 -0.185309 0.610498 
-0.363899 -1.306160 0.003767 0.509579 -0.016723 -0.840075 
1.094694 1.493298 0.103159 -0.459436 0.675082 -0.562543 
1.709504 2.085160 0.915991 -0.168123 0.951352 -0.243481 
-0.184779 0.840721 0.551451 -0.473004 -0.065497 0.849156 
1.383001 1.835805 0.556804 -0.294537 0.852314 -0.423035 
0.487102 0.389925 0.091546 -0.027769 0.226290 -0.887793 
0.343289 -0.784386 0.147126 0.573041 -0.205818 0.781903 
2.059199 2.247651 1.192665 0.142210 -0.932899 0.320535 
0.990690 1.818015 0.909419 0.486308 -0.766936 0.348763 
0.724270 0.740817 0.117022 -0.557790 0.463159 -0.686848 
-0.333183 -0.405094 0.264606 -0.751539 -0.234231 0.608752 
0.589895 0.461810 0.372996 0.618027 -0.254719 0.693736 
-0.763414 0.482737 -0.259498 0.658525 0.204932 -0.565327 
-0.172780 1.207043 0.390819 -0.687840 0.691725 -0.076742 
-0.044115 -0.759799 0.260876 -0.313314 -0.290894 0.895180 
0.330609 0.824321 0.337297 0.897129 0.348655 0.015404 
0.515746 1.328277 0.607934 -0.449736 0.562372 -0.680331 
0.060691 -0.350249 -0.064649 0.383174 -0.236263 -0.877610 
-0.807792 0.115541 -0.419663 0.670316 0.210008 -0.572091 
0.915734 1.461056 0.246631 0.586621 -0.602021 0.493092 
-1.031798 1.755462 -0.036939 -0.826963 0.177698 0.522341 
-0.650604 -0.094079 -0.175872 0.651326 0.136737 -0.673286 
1.766758 1.837858 0.354743 -0.203429 0.874165 -0.435480 
0.968034 1.641765 0.523594 -0.266792 0.921833 -0.254981 
-0.161720 -0.169043 -0.044142 -0.565925 -0.049448 -0.817873 
1.290540 0.896514 -0.496547 -0.670832 0.086811 -0.720758 
-1.054555 1.108686 -0.402218 0.836796 0.190878 -0.487298 
-0.492422 0.584998 0.161174 0.084025 0.480953 -0.640584 
-0.318385 -0.605359 0.205672 -0.709280 -0.222725 0.661789 
-0.486527 0.153184 -0.020481 0.122977 0.143520 -0.820258 
-0.777189 2.060976 0.058604 -0.712112 0.481108 0.450997 
-0.392018 0.668034 0.304646 -0.393622 0.344629 -0.054992 
0.718238 0.490740 0.146428 0.782913 -0.292484 0.541287 
1.432555 2.048593 0.977821 0.275115 -0.795608 0.522353 
1.275907 1.220048 -0.443690 -0.591952 0.479801 -0.632445 
1.361244 1.228589 -0.532656 -0.621558 0.340531 -0.663881 
0.167737 0.192217 0.553606 0.275518 -0.205549 0.931601 
0.249648 0.888049 0.159393 0.705704 0.423951 -0.535964 
0.785898 -0.105064 -0.178936 -0.504956 0.082015 -0.821676 
-0.046719 2.735359 0.306114 -0.744082 0.410889 0.524160 
-0.771554 0.034771 -0.374273 0.654743 0.192914 -0.599422 
0.214470 0.940047 0.544040 0.637870 -0.070027 0.734616 
-0.750151 -0.142768 -0.355139 0.617584 0.137818 -0.646606 
-0.669870 2.374035 -0.166393 -0.513467 0.630377 0.512316 
1.588978 2.093786 0.989739 0.225172 -0.813313 0.515848 
0.593834 1.652716 1.038368 0.579131 -0.653100 0.433031 
-0.679476 0.494803 0.019606 -0.863344 -0.316964 0.384344 
-0.199342 0.737741 0.540679 -0.324494 0.189294 0.898857 
-0.446699 -1.319053 -0.016602 -0.131205 0.309352 -0.920298 
1.038541 0.258669 -0.366111 0.655637 -0.044441 0.747660 
-0.468115 -0.129304 0.073872 -0.860810 -0.185373 0.464518 
0.811532 0.740987 0.039134 -0.630563 0.370635 -0.672313 
0.012918 0.293707 0.598755 0.079098 -0.159695 0.981306 
0.967018 1.784591 0.848944 -0.318544 0.747376 -0.554114 
0.099110 -0.846960 0.205766 0.173521 -0.286845 0.933468 
1.473508 1.391214 -0.165954 -0.062411 0.848552 -0.426194 
-0.078546 -0.614848 0.316654 -0.210246 -0.343317 0.906147 
1.200350 1.214072 -0.309915 -0.587443 0.491962 -0.616633 
-0.293832 0.681326 0.015981 -0.663756 0.215472 -0.695552 
0.065073 -0.049063 -0.096943 0.481276 -0.063886 -0.855483 
-0.562289 1.061834 0.450819 0.942295 0.116668 -0.288762 
-0.881963 1.148233 -0.046045 -0.889089 -0.031462 0.393255 
0.430899 -0.987487 0.013466 0.643569 -0.004238 0.738403 
-0.342256 0.115253 0.105248 -0.156556 0.136447 -0.961744 
0.331255 0.404855 0.086670 0.474331 0.134955 -0.813656 
1.500754 2.078548 0.992447 0.244729 -0.806936 0.519462 
-0.381052 0.112577 0.411576 -0.694985 -0.242421 0.672545 
0.430640 0.230723 0.412245 0.628892 -0.252363 0.719039 
-0.170184 2.324314 0.522451 0.723799 -0.489918 -0.478924 
-0.457721 0.086967 0.243175 -0.821772 -0.275580 0.471293 
-0.485909 -0.506297 -0.035141 0.412110 0.071660 -0.820245 
0.184037 -0.737023 0.067809 -0.066915 -0.091816 -0.977819 
-0.419116 -1.258399 0.019112 -0.807587 0.506677 0.009311 
-0.449014 -0.756781 -0.008592 0.448334 0.043917 -0.856448 
-1.126819 0.979979 -0.768172 0.860323 0.361457 -0.312562 
0.244775 1.063497 0.300308 0.873536 0.427307 -0.209121 
1.608152 2.201925 1.236192 0.222586 -0.926700 0.275326 
1.054293 0.327256 -0.372346 0.673584 -0.056420 0.732352 
-0.490794 2.019593 0.482297 -0.692480 0.606691 0.331922 
0.281011 -0.596675 0.252282 0.593728 -0.287902 0.734056 
1.679465 2.177079 1.145764 0.209094 -0.906474 0.358111 
0.270734 0.082397 0.471612 0.452447 -0.257254 0.824322 
-0.717713 0.015835 -0.238058 -0.808702 -0.150067 0.522441 
-0.171916 1.115197 0.571876 -0.838754 0.256728 -0.328492 
0.951592 0.253435 -0.249655 0.710219 -0.121058 0.677789 
1.609121 1.649489 0.159813 0.397424 -0.628978 0.610571 
1.276521 1.590908 0.215329 -0.376657 0.668605 -0.630751 
0.117726 0.243398 0.576330 0.208702 -0.179241 0.954766 
-0.411877 0.112210 0.044365 -0.020971 0.135992 -0.892176 
-0.529660 -0.833583 -0.081073 0.484468 -0.047293 -0.864651 
1.427890 1.663939 0.277365 0.484577 -0.502330 0.679022 
-0.675328 1.454903 0.527537 0.741741 0.119150 -0.616790 
0.630924 -0.424521 -0.085381 -0.447788 0.074735 -0.858237 
0.825918 1.862503 1.118506 -0.295018 0.878071 -0.368052 
0.221657 0.844595 0.528736 0.631410 0.038309 0.772010 
1.550098 1.406394 -0.177183 0.021307 -0.916223 0.331611 
-0.550615 2.731346 -0.331219 -0.724329 0.422237 0.535957 
0.060261 2.956130 0.329364 -0.855830 0.292598 0.417237 
-0.288420 2.000543 0.782641 0.753131 -0.401479 -0.509616 
-0.383309 0.532172 0.280543 -0.417798 0.539189 -0.684395 
0.195458 0.894789 0.110417 0.618615 0.433285 -0.641104 
-1.248403 2.001891 -0.471722 0.677154 -0.379349 -0.579810 
1.326635 1.340356 -0.483624 -0.560260 0.535393 -0.630778 
0.177581 -0.630749 0.293693 0.285161 -0.385210 0.875385 
0.667308 -0.238457 -0.064360 0.703752 -0.141623 0.679708 
-0.496748 0.104749 0.171275 -0.852609 -0.280776 0.422077 
-1.224717 1.375988 -0.504894 0.832820 0.205786 -0.487050 
0.220029 0.511623 0.567849 0.294150 -0.057944 0.946910 
-0.601292 1.962052 0.354630 0.774542 -0.331669 -0.482667 
-0.308221 2.724294 0.005750 -0.731814 0.401697 0.535501 
-1.192765 1.116745 -0.798728 0.870234 0.367626 -0.307147 
0.223309 0.294427 -0.017352 0.586516 0.006414 -0.807511 
-0.724520 1.876089 0.319289 -0.898636 0.238305 0.348768 
1.633969 2.054336 0.884870 0.220018 -0.775818 0.579823 
-0.792063 0.741997 -0.070580 -0.922858 -0.199747 0.311502 
1.702534 1.792658 0.316953 -0.196601 0.880367 -0.422361 
-1.020491 1.408130 -0.217643 0.819581 0.002755 -0.528817 
0.295660 -0.101842 0.411809 0.552830 -0.259982 0.761068 
1.794609 1.802336 0.291827 0.281951 -0.794499 0.500086 
-1.030443 1.276899 -0.291898 0.826843 0.080663 -0.511547 
-0.939238 1.346163 -0.062636 -0.865478 0.033831 0.442439 
-0.455133 0.596630 0.281963 -0.039930 0.540619 -0.439869 
0.829206 0.670465 0.064794 0.828778 -0.198866 0.520959 
-1.107376 1.548643 -0.268198 0.817346 0.008255 -0.529163 
0.572794 1.160932 0.548661 0.839950 -0.167917 0.436665 
0.585753 0.946899 0.498554 0.594547 -0.366370 0.664733 
0.461785 -0.085465 0.053973 0.078308 0.093703 -0.887517 
-0.069167 -0.824387 0.224138 -0.243726 -0.278275 0.917564 
-0.751726 0.806698 0.060198 -0.939157 -0.154906 0.278367 
-0.815354 1.176664 0.125089 -0.915511 0.003502 0.337268 
-0.922471 1.821361 0.115868 -0.851875 0.207920 0.459196 
-0.496514 0.525572 0.098254 0.222081 0.373289 -0.711446 
-0.571854 0.458632 0.369736 -0.690847 -0.327369 0.591681 
0.650736 1.222490 0.419872 -0.502357 0.535917 -0.662121 
0.359194 1.311184 0.842469 0.008899 -0.644875 0.686066 
-0.845418 1.105857 0.013809 -0.903818 -0.037139 0.362266 
1.742423 2.044574 0.806675 -0.208237 0.790854 -0.545704 
-1.096266 1.344951 -0.348041 0.827109 0.104971 -0.507298 
1.488619 1.433808 -0.110746 -0.121433 0.819461 -0.466028 
0.106913 1.169522 0.203345 0.504328 0.378935 -0.763789 
-0.870761 0.047998 -0.470518 -0.713467 -0.112064 0.552324 
-0.298711 0.708909 0.524694 -0.520923 0.301695 0.792603 
-0.088467 2.311362 0.713727 -0.529672 0.524302 0.625224 
0.571737 1.325070 0.545476 -0.460035 0.566586 -0.668767 
1.042584 0.865881 -0.174584 -0.678250 0.333309 -0.619074 
0.783315 0.420919 0.022044 0.776639 -0.268486 0.563744 
-0.334616 2.551358 0.090725 -0.813286 0.360209 0.437007 
-0.808282 1.363435 0.252564 -0.914885 0.080497 0.333348 
-0.145383 1.087061 0.179689 -0.523863 0.428307 -0.723030 
-0.719475 1.925955 0.189267 0.445950 -0.679882 -0.521590 
-0.489639 0.165542 0.229897 -0.845970 -0.315988 0.411801 
1.898885 2.267336 1.297396 -0.137953 0.924453 -0.352181 
-0.468664 -0.426982 -0.017317 0.315178 0.075238 -0.833353 
-0.439221 0.484993 0.148710 -0.016479 0.381809 -0.749613 
0.858928 1.408818 0.263408 -0.484458 0.625619 -0.599572 
1.267924 1.077641 -0.436683 0.682759 -0.313797 0.623471 
1.655484 1.508935 -0.077112 0.148197 -0.876043 0.393034 
-0.254561 0.292857 0.533522 -0.430762 -0.160028 0.853980 
0.357137 -0.847737 0.115594 0.546901 -0.186108 0.806164 
0.233027 -0.189422 0.417142 0.453581 -0.262173 0.809081 
-0.037385 0.916595 0.042912 -0.419152 0.477779 -0.755898 
-0.169402 -0.412231 0.378596 -0.193046 -0.265876 0.938026 
0.086849 -0.594165 0.046826 0.023449 -0.241461 -0.962908 
1.160578 0.800916 -0.329344 0.772301 -0.166466 0.603835 
0.099249 0.072058 0.531273 0.193058 -0.268964 0.939936 
0.743888 -0.200372 -0.131812 0.679579 -0.116154 0.709234 
-0.743845 -0.268222 -0.327199 0.603477 0.063170 -0.689242 
-1.379203 1.745528 -0.594730 -0.811215 0.015574 0.518771 
1.930856 2.041205 0.737041 -0.184116 0.823387 -0.501065 
-0.121980 -0.665082 0.065017 0.047478 -0.143231 -0.984903 
1.303647 1.348536 -0.274013 0.300286 -0.721139 0.474337 
-0.146515 0.984808 0.597207 -0.231930 -0.177145 0.943739 
-0.651551 1.990907 0.232342 0.847990 -0.284122 -0.424541 
-0.583785 -0.430338 -0.128145 -0.760949 -0.085884 0.612792 
1.592700 1.604977 0.085760 -0.198522 0.872676 -0.423202 
0.231649 1.191902 0.686650 0.784420 -0.296397 -0.529413 
-0.815064 0.000415 -0.424376 0.650907 0.152819 -0.603143 
0.462249 -0.508492 0.049561 0.712177 -0.140010 0.675727 
1.202963 0.662007 -0.461781 -0.610218 0.056300 -0.766737 
-1.020390 0.721487 -0.624299 -0.863839 -0.300717 0.336828 
-0.168899 3.060542 -0.021308 -0.700374 0.366620 0.590420 
0.811773 0.678421 0.134160 0.905077 -0.148434 0.396968 
-0.923184 0.733759 -0.443897 0.844466 0.266692 -0.440534 
1.631926 1.909882 0.571095 0.260982 -0.872014 0.393781 
1.534525 1.359375 -0.243069 -0.018550 0.880150 -0.392312 
1.456539 2.023669 0.909024 0.267743 -0.758267 0.587334 
-0.190081 0.376726 0.589341 -0.299003 -0.116213 0.943506 
-0.652796 1.191615 0.399542 0.735456 0.298923 -0.564992 
0.687441 1.674259 0.946937 0.633000 -0.667172 0.279550 
-0.615422 1.172356 0.470325 0.729701 0.318466 -0.573258 
1.367708 1.304686 -0.537480 -0.588846 0.434127 -0.651462 
0.399613 0.052193 0.089489 0.161141 0.114688 -0.934175 
-0.820854 2.394156 -0.372131 0.714602 -0.410013 -0.555240 
0.837533 -0.123513 -0.240838 -0.474352 0.031534 -0.855869 
0.727884 0.608780 0.029582 -0.453508 0.347248 -0.733139 
0.328486 0.009773 0.088360 0.304673 0.067217 -0.927759 
0.135929 1.232867 0.287889 0.746379 0.555683 -0.333439 
0.851349 1.100152 0.196409 0.725509 -0.277704 0.517062 
-0.697060 1.319467 0.386943 0.743448 0.205663 -0.578902 
-0.334231 2.498615 0.140861 -0.789999 0.404156 0.437882 
0.775329 0.554187 0.094587 0.796356 -0.260565 0.537953 
0.432809 -0.451348 0.083431 0.734419 -0.160621 0.650119 
-0.693367 1.108107 0.368565 -0.962709 0.012384 0.234892 
-0.807664 0.596423 -0.296819 0.733584 0.224289 -0.527029 
0.851137 0.904571 0.066544 -0.632048 0.375077 -0.650910 
-0.634322 1.229853 0.591432 -0.950686 -0.002949 0.245520 
-0.337255 0.349982 0.119841 -0.296176 0.191111 -0.887392 
0.250211 -0.911797 0.134097 0.206024 -0.272815 0.936967 
-0.684210 0.305889 -0.123949 -0.873203 -0.218181 0.427480 
1.693315 1.678249 0.148675 -0.208916 0.863369 -0.443234 
-0.983128 1.655245 -0.023839 0.793324 -0.085020 -0.562189 
0.958998 1.577903 0.556885 0.376126 -0.838110 0.308943 
-0.866654 1.408535 0.142282 -0.894145 0.085392 0.381576 
1.192229 1.404583 -0.122982 0.412949 -0.686607 0.508944 
1.117606 0.562580 -0.384590 -0.618862 0.089711 -0.750982 
1.509178 2.116140 1.066913 0.239080 -0.849221 0.452862 
-0.869629 1.101527 -0.111643 0.807947 0.149288 -0.516617 
-0.461855 -0.823321 -0.039147 0.465234 0.041909 -0.855012 
-0.668604 2.552962 -0.342269 0.707902 -0.421710 -0.562013 
-0.100969 0.319399 0.598645 -0.196173 -0.138532 0.963869 
-1.149403 1.067022 -0.675964 -0.880747 -0.321727 0.322758 
-1.084592 1.182392 -0.384721 -0.860209 -0.158639 0.446444 
-1.222129 1.142973 -0.875541 0.876565 0.393327 -0.268902 
-0.947958 1.269227 -0.175963 0.818788 0.034271 -0.525137 
-0.067455 -0.444126 -0.027286 -0.267516 -0.341181 -0.899296 
-0.661687 0.174870 -0.140643 -0.865713 -0.182939 0.454302 
-0.778701 1.557859 0.365454 0.758216 0.031931 -0.605139 
1.330917 1.423190 -0.055780 0.066017 -0.904090 0.302119 
-0.069230 0.990734 0.616617 -0.172798 -0.092563 0.974136 
-0.090704 0.396608 0.605893 -0.175666 -0.093104 0.971529 
0.346064 -0.782294 0.032513 -0.040057 -0.011479 -0.906623 
-0.627039 1.111410 0.402936 0.730741 0.357068 -0.555588 
-1.263935 1.260203 -0.742133 -0.871068 -0.328102 0.340238 
-0.500270 1.957860 0.553488 -0.702534 0.613405 0.285378 
0.893833 -0.092465 -0.271448 -0.495844 0.015956 -0.847565 
1.112943 1.355952 -0.091339 -0.537806 0.587603 -0.582626 
0.398482 0.393977 0.166706 0.256891 0.316201 -0.839514 
0.200482 -0.562358 0.318157 0.312555 -0.343422 0.883334 
-0.144575 2.899641 0.098576 -0.685791 0.405146 0.584133 
-0.295013 0.606669 0.013316 -0.679747 0.114836 -0.712417 
0.631250 -0.171311 -0.027779 0.735335 -0.160944 0.645422 
-0.919633 0.857430 -0.339074 0.841954 0.199677 -0.482877 
-0.265880 -0.429453 0.342073 -0.518859 -0.270972 0.773811 
-0.690155 1.022705 0.324988 -0.966005 -0.019714 0.231063 
-0.415226 3.081895 -0.370721 0.745121 -0.347387 -0.567439 
1.694465 2.122446 1.009425 -0.173953 0.935724 -0.289295 
-0.645677 1.698540 0.687441 -0.941446 0.206668 0.235849 
-0.808392 1.499865 0.335816 -0.907836 0.125750 0.336867 
2.091599 2.231415 1.130824 0.136430 -0.928088 0.341676 
-0.044704 2.804906 0.269855 0.737320 -0.380809 -0.556477 
-0.628407 0.450143 -0.141575 0.389473 0.197532 -0.696827 
0.414260 0.583738 0.436022 0.543596 0.166380 0.799146 
0.865443 1.158693 0.156495 -0.558421 0.512509 -0.622842 
-0.904149 1.935243 -0.001396 -0.846676 0.219104 0.477903 
-0.655612 1.212359 0.521839 -0.968746 0.052432 0.207277 
1.013076 0.046059 -0.340564 0.572476 0.002354 0.804984 
0.344438 1.490643 0.998359 0.599674 -0.688491 0.389456 
-0.193941 2.399017 0.507494 -0.682639 0.524693 0.465592 
1.143949 1.309602 -0.167168 -0.554225 0.555858 -0.594269 
0.080391 3.215040 0.248477 -0.834767 0.265692 0.472546 
0.599616 0.192053 0.154724 0.767126 -0.283810 0.567533 
-0.604038 2.431316 -0.146834 -0.609935 0.556974 0.524321 
-0.144310 0.152179 -0.061501 -0.584425 0.006801 -0.804459 
-0.745726 0.267500 -0.223579 -0.851763 -0.182171 0.466135 
-0.728609 1.807968 0.343042 0.585989 -0.385787 -0.576810 
-0.090053 2.501952 0.503593 -0.699793 0.506587 0.485175 
0.880931 0.983322 0.065652 -0.613973 0.415093 -0.636828 
0.560771 1.473741 0.701686 0.719687 -0.493614 0.323659 
0.171717 0.384062 0.598632 0.266829 -0.100940 0.957067 
0.341704 -0.693299 0.060095 0.014450 0.010352 -0.924029 
-0.616355 0.161491 -0.067261 -0.869744 -0.203880 0.440758 
-0.831585 0.970668 -0.033489 -0.909870 -0.090380 0.349978 
-1.027009 1.002827 -0.414681 0.840633 0.221294 -0.479985 
0.971659 1.506052 0.230412 -0.482633 0.655995 -0.577207 
1.784003 2.263366 1.340907 0.191832 -0.950094 0.219005 
0.362417 1.517233 0.933946 -0.064220 0.779193 -0.607687 
0.673240 1.378644 0.454948 -0.461872 0.596403 -0.641947 
0.535061 0.622185 0.269843 -0.252514 0.514334 -0.381809 
-0.107518 2.493291 0.428304 0.718847 -0.483991 -0.493853 
-0.051714 0.738271 -0.030254 -0.321370 0.319902 -0.870119 
-0.783744 0.866652 0.016367 -0.929346 -0.118627 0.309182 
-0.608678 2.587453 -0.307225 0.688642 -0.461383 -0.558042 
0.404121 -0.698104 0.095808 0.650578 -0.156856 0.733026 
1.183713 0.723706 -0.397132 0.731775 -0.110110 0.659823 
0.588900 1.568147 0.739088 -0.281351 0.893642 -0.336008 
-0.784082 0.119699 -0.345914 -0.811922 -0.184041 0.484863 
0.540228 -0.839324 -0.048766 0.579823 -0.027291 0.803108 
-0.368689 -1.052593 0.060953 -0.399170 -0.141642 0.866135 
-0.185851 -0.805025 0.063387 0.158057 -0.104951 -0.969855 
-0.373599 2.748069 -0.112103 0.562957 -0.497473 -0.634330 
-0.588592 1.454747 0.722010 0.728882 0.134775 -0.646021 
1.163958 1.761872 0.600617 -0.303558 0.880540 -0.322908 
0.077604 1.295704 0.267645 0.633494 0.460875 -0.535740 
0.610291 1.678069 0.961257 -0.303782 0.860548 -0.397102 
