-1.844247 0.103235 2.018335 0.716249 0.166071 0.668290 
1.172849 0.064418 1.241291 0.865843 -0.284625 -0.409743 
-0.322967 -0.446514 -0.130461 -0.658402 -0.233828 -0.685304 
-0.544034 -0.056144 0.222737 -0.869920 -0.101237 -0.479343 
-2.035554 -0.025725 2.409680 0.938059 0.180539 0.247813 
-0.512102 -0.436027 0.290306 0.480096 0.022543 0.760901 
-0.604361 -0.158734 0.455202 0.718323 -0.024391 0.603882 
0.248793 0.673449 0.322073 0.419000 0.235301 0.841604 
-1.082503 -0.219588 1.271319 -0.803555 -0.285124 -0.511828 
0.005122 -0.045555 0.203391 0.085729 -0.090819 0.987362 
0.021666 1.216919 0.268247 -0.045161 0.744626 0.650735 
-1.796511 -0.242170 2.096721 -0.732148 -0.379111 -0.553621 
1.097702 -0.174410 1.143655 0.869296 -0.245112 -0.416786 
-0.583064 0.502277 0.292989 -0.844847 0.372519 -0.335790 
0.034350 -0.959877 0.083025 0.325549 -0.112308 0.922853 
1.376034 0.889323 1.525919 0.596946 0.160617 -0.718661 
0.881682 0.599171 0.825111 0.728637 0.265868 -0.613724 
-1.214689 -0.550883 1.714032 -0.533633 -0.505611 -0.637050 
1.259720 0.294025 1.418917 -0.826019 -0.082436 0.467939 
-0.698317 -0.282489 0.625369 0.870033 0.026261 0.480803 
0.139416 -0.765544 0.119590 -0.044467 -0.080112 0.927652 
0.112710 -0.104265 0.195400 0.184619 -0.086798 0.972536 
0.424260 -1.088680 0.181352 0.507066 0.241457 -0.811550 
-0.221329 -0.217476 -0.254586 -0.518128 -0.213947 -0.809777 
1.409348 0.552324 1.701288 -0.817609 -0.262231 0.435362 
-0.269749 -0.970782 0.068393 -0.443424 -0.265899 -0.827651 
-1.770820 0.611749 1.924155 -0.827898 -0.040415 -0.554976 
0.952281 -0.264514 0.938285 0.864108 -0.164046 -0.457469 
-0.693608 -0.229239 0.558827 -0.881233 -0.098470 -0.460307 
0.066323 -0.415474 0.193546 0.124167 -0.156914 0.978089 
1.361322 0.042365 1.595960 -0.945787 0.019569 0.125597 
1.530910 0.089411 2.000042 0.938145 -0.099091 -0.300108 
-0.307067 0.048740 0.142660 -0.261191 -0.205912 0.915963 
-0.928687 0.404435 0.995758 0.751395 -0.185936 0.611984 
-0.602425 0.155020 0.322906 -0.881713 -0.125504 -0.452234 
-1.721785 0.525738 1.862715 -0.734198 -0.146849 -0.653106 
0.286675 0.520259 0.262528 0.161525 -0.192915 0.949683 
0.437213 -0.898665 0.294995 -0.416825 0.041484 0.829429 
-1.312914 -0.501764 1.772069 -0.481926 -0.492289 -0.707455 
1.345316 -0.318632 1.735794 0.792188 -0.445006 -0.356811 
-0.489652 -0.457790 0.224802 -0.777930 -0.151416 -0.574878 
-1.101735 -0.762671 1.801171 -0.599289 -0.537823 -0.556729 
1.449351 0.677954 1.741049 0.895733 -0.335810 -0.243336 
-0.092891 1.293198 0.018449 -0.687406 0.585946 -0.264897 
1.375025 -0.085489 1.723967 -0.921740 0.161426 0.218341 
-0.171058 0.174695 -0.345341 -0.577727 -0.030977 -0.797060 
-0.933383 -0.693811 1.497627 0.779325 0.436056 0.413983 
-0.564923 0.232159 0.422217 0.722328 -0.191362 0.645593 
1.459852 0.183647 1.836989 -0.882124 0.005129 0.410103 
-0.298242 -0.646696 -0.061219 -0.585157 -0.250539 -0.750250 
1.642438 0.220356 2.679236 0.945925 -0.150260 0.246119 
-0.003569 0.445096 -0.401572 -0.443706 0.229992 -0.857632 
-0.829238 -0.834616 1.355869 -0.822513 -0.423758 -0.332046 
1.597900 0.360428 2.953161 0.921762 -0.190135 0.321118 
0.279577 -0.569523 -0.116284 0.512149 -0.299599 -0.797587 
-1.027148 -0.466578 1.275311 -0.827555 -0.289942 -0.457158 
1.258538 -0.425055 2.770944 0.824411 -0.508320 0.182822 
0.016626 0.503124 0.342854 0.049369 -0.277553 0.955941 
-1.682460 -0.192387 1.926256 0.619089 0.313184 0.679899 
0.346096 0.097992 -0.179282 0.713030 -0.112955 -0.650273 
0.242566 1.018337 0.016335 0.811860 0.348463 -0.388548 
-2.232552 0.513679 2.559875 -0.925000 0.253020 -0.141023 
1.196389 -0.592481 1.963606 0.828964 -0.543855 -0.010278 
1.654540 0.283597 2.724892 -0.958302 0.202757 -0.143473 
-1.173255 0.031319 1.387413 -0.788138 -0.320705 -0.521417 
0.041251 0.951782 -0.155176 0.395204 0.390893 -0.817265 
1.457831 -0.260761 2.021203 0.906782 -0.392295 -0.076232 
1.497859 0.265966 1.928609 -0.900289 -0.026211 0.362837 
1.439572 -0.250994 2.552789 -0.886144 0.351372 -0.163531 
-1.727055 -0.253424 1.993815 -0.743874 -0.344444 -0.563508 
1.308650 0.772411 1.413887 0.564940 0.425656 -0.585594 
1.239129 0.777641 1.368770 0.347489 0.695305 -0.565354 
1.554558 0.510001 2.051113 0.989303 0.075635 -0.000227 
1.547306 0.746372 2.101237 -0.814690 0.408118 0.299993 
1.318132 -0.346549 2.738030 0.826009 -0.516486 0.144679 
0.584460 0.493086 0.222770 0.860961 0.305429 -0.375297 
0.866686 0.008647 0.857373 -0.804582 -0.043152 0.552019 
-0.236462 -1.207229 0.163406 -0.419207 0.219275 0.736285 
1.360677 -0.403275 2.522739 -0.860758 0.442438 -0.100833 
-1.211915 0.325278 1.469294 0.750347 -0.072274 0.589102 
-2.148682 0.191663 2.465070 -0.945304 -0.183949 -0.251157 
1.333127 0.578799 1.578571 -0.774038 -0.122293 0.543425 
0.124388 -0.809725 -0.031544 0.118135 -0.359478 -0.910101 
-0.469526 0.533898 -0.036571 -0.816543 0.209684 -0.477773 
0.707071 0.345704 0.541245 0.769104 0.413053 -0.481176 
1.371952 0.199608 3.243726 -0.859541 0.202823 -0.436170 
-1.674270 -0.123195 1.866532 -0.791861 -0.236958 -0.542584 
0.622279 -0.208824 0.464750 -0.689837 -0.021236 0.642801 
1.042330 0.581596 0.994634 0.729709 0.205966 -0.604032 
-0.706954 0.070400 0.642894 0.831413 -0.091420 0.535002 
-0.282912 0.825905 0.251218 -0.705342 0.272222 0.582679 
-0.669008 -0.002551 0.481477 -0.884634 -0.116904 -0.449431 
1.326387 0.178676 3.312058 -0.851730 0.233405 -0.446318 
1.118890 -0.599138 1.611729 0.754531 -0.567583 -0.272409 
-1.936376 0.470910 2.201352 0.765794 0.110308 0.528704 
-2.043071 -0.176039 2.732054 -0.918374 -0.315248 -0.190431 
-1.197087 0.432755 1.356313 -0.794002 -0.323609 -0.508450 
-0.170554 1.223153 0.127146 -0.663831 0.706864 -0.144197 
-0.510178 -0.788842 0.369801 -0.710043 -0.128026 -0.628871 
-2.081172 -0.005933 2.510209 -0.920799 -0.263581 -0.246575 
-1.362358 -0.069050 1.594136 0.862121 0.091973 0.470221 
1.000036 -0.837317 2.058460 0.767579 -0.625845 -0.105305 
1.281080 -0.419063 1.696285 0.748007 -0.513955 -0.403386 
0.434430 -0.161023 0.115802 -0.371736 -0.088396 0.866700 
-0.182156 -0.814085 -0.010463 -0.188636 -0.355633 -0.912459 
0.431256 0.617860 0.207813 -0.287197 0.433258 0.654926 
-0.268050 -1.047384 0.114681 0.093909 0.117603 0.942325 
-0.713537 -0.608156 0.606821 -0.877784 -0.022693 -0.464372 
-0.173134 0.737749 -0.201556 -0.490763 0.467864 -0.710543 
-2.169009 0.080315 3.194558 0.963619 0.258793 0.030157 
-0.472477 0.647147 0.034687 -0.782623 0.525978 -0.278468 
0.766561 -0.205163 0.710944 -0.843742 0.021078 0.525349 
-1.514275 0.212839 1.724267 0.549370 -0.016448 0.792487 
-0.917667 0.447433 0.876149 -0.877779 -0.271755 -0.392715 
-1.523541 -0.578326 2.061628 0.511367 0.450133 0.658406 
-1.093575 0.597440 1.140647 -0.844315 -0.226687 -0.453852 
-1.517948 -0.737448 2.198490 0.674938 0.494081 0.528084 
1.365514 0.279640 3.299005 -0.862509 0.153768 -0.455064 
1.279031 -0.287811 1.489780 -0.905710 0.247278 0.226174 
1.615433 0.070539 2.609873 0.835408 -0.547666 -0.029120 
-1.836569 -0.156202 2.120363 0.791219 0.278193 0.495793 
1.653632 0.553836 2.753387 -0.886451 0.383098 0.026249 
0.906416 0.166284 0.916969 -0.774692 -0.103624 0.579460 
0.182219 -0.899994 0.036655 0.202067 -0.342415 -0.915436 
0.594831 0.086793 0.458853 -0.741867 -0.134066 0.630197 
-0.995652 0.198077 1.127029 0.760980 -0.050144 0.593486 
-0.576001 -0.185557 0.393970 0.647254 -0.026441 0.653234 
-0.337032 0.569826 -0.208459 -0.610091 0.259585 -0.726435 
0.902879 0.471289 0.789692 0.787412 0.165802 -0.578249 
1.632163 0.273211 2.265388 0.853245 -0.348853 -0.362958 
1.461993 0.068369 2.963797 -0.865696 0.384327 -0.257335 
0.977789 -0.744877 1.501996 0.770934 -0.595730 -0.156817 
1.232260 0.076305 1.376291 -0.840470 0.033994 0.449138 
0.454720 0.061035 0.017487 0.856587 -0.097939 -0.502625 
1.438938 -0.098631 2.817584 0.828260 -0.514360 0.130089 
-0.568289 0.509826 0.170344 -0.880237 0.277436 -0.360902 
1.373534 -0.071496 1.566409 0.808936 -0.227676 -0.528102 
1.111935 -0.743230 2.158620 0.792086 -0.598347 -0.063355 
1.231812 -0.596081 2.132075 -0.757765 0.536462 0.221593 
1.481760 -0.224938 2.424719 0.851324 -0.509875 -0.043716 
0.056759 1.345313 0.041599 0.616880 0.691469 0.072418 
1.497406 0.344973 1.931858 -0.887284 -0.062419 0.364447 
-0.523474 0.396795 0.081380 -0.898116 0.069716 -0.403655 
1.468131 -0.090843 2.750924 0.829383 -0.524813 0.089732 
0.696680 -0.269852 0.612865 -0.822448 0.005351 0.551059 
1.152858 0.231758 1.266927 -0.804195 -0.068625 0.506246 
0.056156 -0.532342 0.169528 0.221714 -0.168237 0.951822 
0.501666 0.599180 0.038375 0.839450 0.384514 -0.318044 
-0.847134 -0.833793 1.507488 -0.769951 -0.504623 -0.360736 
0.949735 0.563766 1.027115 -0.830759 0.072833 0.535116 
0.201342 0.351807 -0.318873 0.604546 0.088052 -0.765269 
1.688661 0.429861 2.450059 0.988867 -0.008570 -0.077437 
-0.340503 -0.054174 -0.154809 -0.680319 -0.180855 -0.659394 
-0.890630 0.505334 0.947653 0.797362 -0.076912 0.563898 
0.208419 -0.535341 -0.134635 0.053935 -0.468056 -0.839582 
1.347952 0.489810 1.606529 -0.757059 -0.067234 0.612121 
-2.117579 0.044682 2.677637 0.858165 0.384506 0.270948 
-1.751860 0.571570 2.016032 0.669372 0.049616 0.632701 
1.323353 -0.460672 2.065233 -0.733751 0.486123 0.337527 
-0.109003 0.562034 -0.307894 -0.448287 0.298008 -0.818544 
0.319430 0.867107 0.075618 0.908027 0.361844 -0.154779 
1.168490 -0.526361 1.583280 0.770793 -0.519053 -0.311009 
0.475611 -0.013545 0.068301 0.850349 -0.101529 -0.511698 
1.428181 -0.325051 2.092350 0.892139 -0.423290 -0.063669 
1.257659 -0.621876 2.293041 0.823731 -0.563033 -0.009039 
0.266250 -1.112731 0.140214 0.388360 -0.205134 -0.848070 
-0.240710 0.166636 -0.301705 -0.621186 -0.047172 -0.763403 
-1.252874 0.088973 1.517088 0.787227 0.047622 0.548013 
-0.040997 1.375270 0.053166 -0.520072 0.767606 0.332988 
-0.310626 0.753069 -0.094179 -0.649545 0.532309 -0.497162 
1.442395 0.673956 1.857106 -0.850302 -0.033185 0.434129 
-1.435538 -0.043072 1.611462 -0.441913 -0.202307 -0.857424 
-0.805288 -0.228563 0.816628 0.856924 0.085109 0.492623 
-1.523676 0.458222 1.726583 0.576940 -0.187518 0.745312 
-1.375514 0.006486 1.603099 0.860733 0.048260 0.472223 
-0.366443 -0.515615 -0.030096 -0.752165 -0.173934 -0.614243 
-1.707881 0.603207 1.869525 -0.847925 -0.003275 -0.518635 
-0.436956 -0.334491 0.089980 0.289150 -0.030593 0.899918 
0.342857 -0.318230 0.099852 0.508775 -0.110349 0.783690 
-0.341797 0.783097 0.198825 -0.828671 0.356596 0.369837 
-1.043852 -0.519508 1.443042 -0.783938 -0.376791 -0.466781 
0.950824 0.347692 0.905540 0.862659 -0.247764 -0.436582 
-0.790850 -0.599518 0.957140 0.901220 0.179381 0.365408 
-0.051996 0.544728 0.356015 -0.117518 -0.258742 0.952640 
0.228173 0.899096 0.292264 0.666990 0.104105 0.719678 
-1.616481 -0.399651 1.993633 -0.760063 -0.412884 -0.488279 
-0.113659 -0.597063 -0.130511 -0.088495 -0.436973 -0.891108 
-0.284236 0.474803 -0.263332 -0.600825 0.145962 -0.772783 
0.212416 -1.310403 0.203975 0.776798 0.115866 0.560089 
-0.037226 1.009103 0.375453 -0.169974 0.073946 0.976932 
0.494433 0.364172 0.034636 0.890385 0.035110 -0.425623 
-1.402006 -0.301742 1.769902 0.560522 0.341197 0.724296 
1.665306 0.569066 2.398162 0.995769 -0.002798 -0.083657 
1.453098 -0.099256 1.824896 0.967628 -0.184351 0.004903 
1.429093 0.185707 1.632097 0.914457 -0.153680 -0.279124 
0.219461 1.056073 0.277148 0.520599 0.783084 -0.089451 
-0.383781 -0.056476 -0.098803 -0.799828 -0.143578 -0.552418 
-0.126678 -0.883138 0.093368 0.066708 -0.090982 0.955869 
1.068790 -0.636013 1.546063 -0.842041 0.508768 -0.022524 
-0.275126 0.227957 0.193714 -0.187697 -0.245408 0.949252 
-1.751396 -0.483718 2.251719 0.762878 0.406963 0.468377 
-0.477105 -0.107250 0.088628 -0.852817 -0.115526 -0.504064 
-0.093384 -0.813063 0.105973 -0.106852 -0.139122 0.959980 
-1.330053 0.630795 1.595307 0.450807 -0.084958 0.879134 
-1.715895 0.454793 1.879299 -0.638685 -0.357246 -0.657213 
-1.277644 -0.227592 1.518238 -0.639244 -0.278875 -0.668967 
0.967705 -0.769013 1.596625 -0.808778 0.568062 0.034200 
-0.402865 0.259560 0.185858 0.452829 -0.243919 0.793732 
-0.195389 -0.563937 -0.121585 -0.043505 -0.471274 -0.853324 
-1.182772 0.573017 1.306886 -0.802982 -0.320965 -0.494073 
-1.936730 0.695378 2.104694 -0.777640 0.289705 -0.518463 
0.457426 0.309639 -0.019491 0.882726 -0.023639 -0.450941 
-0.306195 -0.804145 0.022774 -0.617178 -0.215809 -0.732701 
-0.353919 -0.117619 0.075145 -0.046526 -0.135281 0.962997 
-0.434724 0.088533 -0.025180 -0.863355 -0.101414 -0.490963 
-1.366145 0.333179 1.595531 0.819909 -0.118018 0.516481 
0.176062 -1.021357 0.089545 0.184719 -0.299550 -0.933807 
0.335962 0.172139 -0.215952 0.708761 -0.071421 -0.674665 
1.606040 0.552460 2.191517 0.993153 -0.020392 -0.088834 
-1.467266 0.646878 1.660574 -0.708686 -0.372326 -0.572867 
-0.649377 0.209705 0.554490 0.784342 -0.163840 0.587772 
-0.256585 0.898767 -0.034020 -0.759306 0.350254 -0.494012 
1.210799 -0.176724 1.341510 -0.860003 0.171363 0.422677 
0.183668 0.554815 -0.278879 0.497542 0.269163 -0.795466 
-0.625420 0.052743 0.515541 0.788941 -0.100300 0.573819 
-0.966040 0.236087 1.073891 0.760493 -0.080204 0.596817 
-0.113291 -0.672687 -0.089524 -0.013199 -0.427071 -0.902918 
1.378114 -0.436157 2.334087 -0.868024 0.459898 0.027117 
0.171889 0.072091 -0.329530 0.550608 -0.077258 -0.807888 
0.266085 -0.401773 0.144192 0.487767 -0.111490 0.844056 
1.005791 0.528448 1.064517 -0.736137 -0.263599 0.613264 
0.470691 0.155395 0.040806 0.869328 -0.083571 -0.486105 
0.074003 0.919452 0.364195 0.217463 -0.008260 0.966349 
1.455689 -0.042434 1.870213 -0.879390 0.195878 0.397443 
-1.213148 0.286615 1.409762 -0.784296 -0.326550 -0.523927 
0.198405 -0.103025 0.175141 0.336839 -0.128121 0.900544 
0.454094 -0.653600 0.280875 0.661002 -0.180982 -0.683099 
-2.122163 -0.033588 2.877578 -0.947249 -0.282721 -0.107249 
-1.715615 0.575297 1.954463 0.638635 0.021509 0.688036 
-0.191433 -0.925503 0.042093 -0.168600 -0.326058 -0.928557 
0.144057 -1.138779 0.066348 0.639872 -0.251856 -0.669479 
-0.529562 0.563956 0.109717 -0.896064 0.285991 -0.307120 
0.566922 -0.971398 0.403165 0.670637 0.057973 -0.687669 
-1.062826 -0.042318 1.209897 -0.817829 -0.294210 -0.483950 
-0.668133 0.383863 0.431536 -0.821080 0.323502 -0.438467 
1.383600 -0.141358 2.897862 0.826441 -0.500429 0.186829 
-0.079724 1.072742 0.354649 -0.030727 0.134322 0.945933 
-0.781842 -0.834605 0.997247 0.919918 0.193300 0.313586 
1.093335 -0.661442 1.802748 0.740640 -0.588414 -0.282625 
0.225021 -0.086598 -0.273236 0.544706 -0.158416 -0.798335 
-0.347866 -0.597370 -0.018714 -0.713934 -0.185991 -0.648020 
1.588871 0.081564 2.222822 -0.943223 0.226132 0.218852 
1.420729 0.332848 1.614057 0.985348 -0.123231 -0.080761 
-1.115700 0.467444 1.296566 0.744663 -0.177798 0.604916 
-1.249892 0.247891 1.514508 0.768196 -0.033805 0.568696 
-0.013507 1.151624 0.332490 -0.042893 0.506178 0.848482 
-1.647163 0.666629 1.814667 -0.841636 -0.038352 -0.532292 
-1.053095 -0.373653 1.270522 -0.812830 -0.279536 -0.493183 
-0.436941 -0.610216 0.216145 0.378548 0.036296 0.839118 
1.117263 0.712179 1.182376 0.487312 0.541634 -0.584791 
0.444919 0.385509 -0.057526 0.848014 0.051874 -0.480890 
0.414170 -0.209911 -0.038499 0.820610 -0.137964 -0.549430 
1.071604 -0.655836 1.621102 0.756339 -0.580459 -0.240488 
-0.287598 0.921020 0.214155 -0.882976 0.223839 0.392011 
-1.185075 0.701559 1.269996 -0.655874 0.315194 -0.568999 
0.493383 0.497310 0.348609 -0.730819 0.326700 0.586535 
0.228117 -0.894727 0.117111 0.038391 0.097257 0.940836 
-1.516014 -0.371675 1.859351 -0.781496 -0.416522 -0.453996 
1.393837 -0.267166 1.831310 0.914391 -0.359578 0.019931 
-0.024139 -0.751979 0.134690 -0.400800 -0.141500 0.904110 
-0.909760 -0.000249 0.988153 0.803599 0.015195 0.548723 
-1.637318 0.422703 1.826441 0.616064 -0.115701 0.725854 
-0.961956 0.569364 1.071328 0.823005 0.019950 0.535929 
1.311613 -0.356500 1.675464 0.761652 -0.458515 -0.435254 
-0.157199 0.876583 -0.134877 -0.578688 0.376638 -0.704286 
-1.596536 0.091402 1.767674 -0.765768 -0.076073 -0.607895 
-0.653631 0.057016 0.442459 -0.883769 -0.123299 -0.449105 
-0.280757 -0.141258 0.144019 -0.447102 -0.154054 0.836129 
-2.194375 0.244435 2.650613 0.943514 0.165572 0.223324 
1.402169 -0.010936 3.019352 0.862962 -0.302565 0.378586 
-0.502046 0.063704 0.303333 0.638852 -0.139859 0.695544 
-0.052318 0.705366 -0.265158 -0.325813 0.490977 -0.798490 
1.559664 -0.049656 2.228560 -0.934068 0.274379 0.106422 
-0.343160 -0.418774 0.075786 -0.402961 -0.082798 0.821620 
1.242473 0.647314 1.317052 0.844726 -0.284395 -0.452658 
1.404900 -0.315818 2.014852 -0.781766 0.416278 0.348106 
-1.044207 0.328862 1.193354 0.753236 -0.114450 0.599632 
1.068589 -0.741153 2.005938 -0.744010 0.579165 0.223846 
-0.453927 -0.924354 0.303828 -0.663257 -0.140137 -0.675611 
-0.336684 0.805996 0.036903 -0.845456 0.458535 -0.240678 
0.416614 0.086743 -0.063881 0.855204 -0.103861 -0.503172 
-1.569365 -0.517984 2.040270 -0.764619 -0.462440 -0.444355 
0.497517 -0.663068 0.358768 0.671929 -0.160084 -0.673920 
-0.418612 -0.187492 0.085921 0.334275 -0.087562 0.887363 
1.526236 -0.131115 2.094507 -0.926320 0.309800 0.193394 
-0.584977 0.105147 0.452563 0.753586 -0.131674 0.609248 
1.518128 -0.150081 2.441255 0.854268 -0.503619 -0.049925 
-1.921336 0.171744 2.090314 0.739093 0.158241 0.643048 
-1.035152 -0.931457 1.896077 -0.639743 -0.561590 -0.509564 
-1.416031 -0.604656 1.969943 -0.732889 -0.481957 -0.465500 
-0.428977 -0.170677 -0.004430 -0.838019 -0.128509 -0.525204 
-0.116362 -0.077350 0.196153 -0.186453 -0.099831 0.971360 
0.261655 0.563443 -0.249989 0.548945 0.264228 -0.771698 
-0.596495 0.332296 0.535394 0.788055 0.050258 0.587096 
1.427670 0.264092 1.701852 0.952066 -0.193698 -0.072115 
-1.465674 -0.346468 1.790215 -0.798725 -0.401558 -0.434019 
1.633505 0.202426 2.283335 0.857206 -0.370903 -0.337259 
-0.445833 -0.102184 0.022303 -0.847536 -0.119264 -0.511967 
1.361150 -0.325125 2.649369 -0.863016 0.414259 -0.167966 
-0.608065 0.453463 0.232652 -0.908117 0.144014 -0.370523 
-1.856187 0.411293 2.019485 0.594333 0.180946 0.751914 
1.283716 0.155394 1.398964 0.858608 -0.293006 -0.418355 
-0.159099 0.265363 -0.366528 -0.591286 0.011385 -0.794287 
-2.177175 0.252320 2.490476 0.902866 0.232840 0.342360 
-1.876474 0.548484 2.118883 0.714249 0.088431 0.605821 
-0.546795 0.232172 0.196058 -0.879719 -0.122322 -0.456864 
-0.315851 0.715738 0.281539 -0.633914 0.267417 0.699425 
-0.088467 0.859128 -0.178798 -0.494222 0.380326 -0.764344 
-0.879901 -0.770848 1.452310 0.796424 0.435744 0.377089 
1.369191 0.787175 1.462674 0.759209 0.218359 -0.593323 
0.455972 0.219769 0.003848 0.873778 -0.087080 -0.477871 
0.340050 -0.229405 0.105620 0.427373 -0.132620 0.821972 
0.248550 0.287226 0.227915 0.198219 -0.250838 0.944599 
-0.295279 0.399545 0.228019 -0.119964 -0.213111 0.965171 
0.536398 -0.010092 0.346062 -0.642308 -0.113890 0.696404 
1.541503 0.031466 2.049105 0.930419 -0.180713 -0.264172 
0.885182 -0.318046 0.884973 -0.862303 0.101321 0.475598 
-2.172721 0.089997 3.122504 -0.959679 -0.264650 -0.036996 
-0.545696 0.640556 0.345845 0.723768 0.331213 0.577461 
-0.372771 0.322484 -0.168506 -0.767366 -0.010141 -0.611484 
0.068529 0.044056 0.201338 0.134615 -0.147139 0.975794 
0.233915 0.831321 -0.124709 0.569995 0.476027 -0.666864 
-0.181614 -0.568948 0.130100 -0.274801 -0.170256 0.943188 
0.134559 0.502843 -0.322561 0.502504 0.235381 -0.814275 
1.641249 0.194767 2.569192 0.951759 -0.041750 0.225199 
-0.996731 0.564578 0.962415 -0.718296 0.236459 -0.588574 
-1.009424 0.619263 1.159367 0.852857 0.126080 0.502785 
1.230929 -0.106007 1.333537 0.868928 -0.291294 -0.398697 
1.259656 0.577678 1.345193 0.846244 -0.286569 -0.448019 
0.065035 0.882682 -0.175008 0.462513 0.386259 -0.779408 
-0.074102 -1.221402 0.056218 -0.080155 -0.355422 0.591879 
-1.072629 0.470053 1.137698 -0.833322 -0.303408 -0.452162 
1.243699 0.385903 1.397922 -0.812683 -0.137003 0.488054 
-0.003728 0.937030 0.373616 -0.130260 -0.009340 0.979605 
0.389463 -0.467750 -0.017094 0.760833 -0.173344 -0.609066 
-0.415118 0.340502 0.217026 0.645262 -0.155030 0.720280 
-0.443595 -0.716351 0.307030 0.464491 0.060278 0.784414 
0.517740 -0.819102 0.386792 -0.531251 0.018081 0.754223 
0.515798 0.090833 0.329890 -0.660385 -0.154766 0.694580 
-0.253951 0.771727 0.305682 -0.504686 0.229528 0.826469 
0.289097 -0.269521 0.135018 0.568314 -0.121651 0.778586 
0.453758 0.669231 0.154540 0.668866 0.694734 -0.092556 
-1.926853 0.558827 2.066799 -0.817328 -0.031689 -0.573142 
-0.865892 0.247118 0.895945 0.782442 -0.130292 0.579292 
-2.185886 0.431526 2.473228 0.898947 0.094225 0.341765 
1.358718 -0.411813 2.022097 0.873075 -0.472863 0.002212 
-1.299608 0.161673 1.512803 -0.679441 -0.295435 -0.630146 
0.812529 0.458084 0.820274 -0.827519 0.169593 0.516272 
-0.577383 0.025299 0.439953 0.759132 -0.098388 0.599233 
-1.031244 -0.718037 1.686570 0.775291 0.501625 0.363098 
1.402383 -0.199869 2.750308 0.827870 -0.520520 0.115976 
1.510747 0.027600 2.812485 0.898533 -0.215838 0.350663 
0.338252 0.255295 -0.230922 0.728326 -0.033135 -0.670017 
1.404768 0.538124 1.564216 0.987388 -0.120821 -0.081882 
-0.567244 -0.443237 0.438733 0.640401 0.040618 0.650245 
0.368256 -0.838590 0.216089 -0.324659 0.072249 0.885969 
-1.153547 0.380347 1.291522 -0.805612 -0.316697 -0.492562 
0.758753 -0.637072 0.693449 -0.844187 0.011532 0.519967 
-0.912107 -0.487642 1.088389 -0.860017 -0.242874 -0.418977 
0.476943 -0.336690 0.104200 0.813121 -0.137753 -0.561613 
-0.530492 0.159118 0.168780 -0.879920 -0.103191 -0.462238 
-1.591994 -0.665040 2.203973 0.662145 0.477741 0.538546 
-0.073436 -0.019835 0.199563 -0.142471 -0.119412 0.976853 
0.419372 -0.643495 0.197552 -0.337157 0.042447 0.873402 
-0.709894 0.557961 0.596123 -0.810637 0.165898 -0.538213 
1.355007 -0.239827 2.806088 -0.863689 0.386592 -0.247057 
-0.410865 -0.791706 0.264923 0.411369 0.061641 0.823908 
-1.109154 -0.413127 1.484799 0.778243 0.336813 0.515779 
-0.449905 0.307179 -0.035122 -0.883572 -0.028807 -0.449049 
-0.350115 0.794981 0.121553 -0.879645 0.407702 0.069351 
-0.378943 -1.008515 0.201598 0.359695 0.000872 0.867177 
0.008367 -0.483862 0.189199 0.201159 -0.140672 0.953601 
0.074095 1.173550 -0.065426 0.482584 0.225158 -0.832551 
0.836649 0.646028 0.782433 -0.836700 0.133377 0.517750 
-2.106187 0.106880 2.459333 0.805018 0.424999 0.388740 
-0.388015 0.656342 0.190869 -0.411933 0.292970 0.750923 
1.164331 -0.392084 1.259832 0.876911 -0.267699 -0.392190 
0.348213 -0.166967 -0.130364 0.690690 -0.204842 -0.642697 
-0.735642 0.597725 0.652006 0.843137 0.139216 0.496589 
-0.623921 0.444968 0.355405 -0.828606 0.361967 -0.393237 
-2.212490 0.394908 2.532915 0.937521 0.074410 0.261124 
1.167435 0.380827 1.219399 0.856082 -0.280863 -0.432212 
-0.211145 1.004859 -0.047058 -0.675851 0.297632 -0.638018 
0.766923 -0.433094 0.731385 -0.863655 0.063306 0.486330 
1.489462 -0.185261 2.498178 -0.902311 0.308482 -0.153749 
-0.936741 -0.751716 1.615895 0.761832 0.510284 0.382200 
-0.240652 1.241506 0.426597 0.663662 0.500927 0.546610 
-0.800213 -0.404928 0.851632 -0.882926 -0.172489 -0.413925 
1.656395 0.275760 2.399238 -0.963890 0.100530 0.167577 
-1.128098 0.101600 1.297959 -0.804265 -0.313242 -0.497696 
-0.400249 0.092646 0.138125 0.373907 -0.188661 0.842024 
-1.824188 0.461940 1.975200 -0.867040 0.083486 -0.479029 
-1.861815 0.569981 2.004765 -0.818283 -0.040564 -0.570729 
1.626143 0.470302 2.520622 -0.942970 0.152550 0.051949 
-1.243157 0.546276 1.497886 0.738194 -0.193083 0.602602 
-0.734847 -0.603922 0.680982 -0.892563 -0.055312 -0.430425 
-0.574732 0.016883 0.278024 -0.882169 -0.090336 -0.461952 
1.476734 0.298774 1.839660 0.932091 -0.144735 -0.266502 
-0.945906 0.325123 0.944541 -0.865258 -0.272340 -0.413251 
-0.871983 -0.535636 1.044835 -0.874752 -0.236148 -0.393022 
-0.349466 -0.323796 0.081754 -0.365609 -0.097573 0.833111 
0.156456 0.186063 -0.356125 0.569754 -0.023106 -0.803407 
0.604778 -0.140316 0.447033 -0.695656 -0.049927 0.646001 
0.505513 0.128180 0.115554 0.869898 -0.080058 -0.486181 
-1.706863 0.321219 1.868927 -0.653877 -0.231818 -0.687460 
-1.723854 0.246531 1.896611 0.657894 0.013263 0.726224 
-1.016467 -0.251224 1.156185 -0.817305 -0.246321 -0.505007 
-0.229003 0.769892 -0.162660 -0.539217 0.499318 -0.665297 
1.544954 0.122036 2.827321 -0.886093 0.381146 -0.180982 
0.075553 0.620664 0.366637 0.071945 0.201479 0.974119 
0.756151 -0.094027 0.698456 -0.821523 -0.036337 0.553462 
0.247419 -0.326859 0.149957 0.468907 -0.064533 0.838395 
0.375014 -0.537675 0.001416 0.726803 -0.185051 -0.636613 
0.538232 -0.489093 0.358400 0.736493 -0.142015 -0.618689 
0.797038 -0.156064 0.755188 -0.834973 0.009208 0.529766 
-0.263713 -0.071959 0.152824 -0.378160 -0.166610 0.869643 
1.356882 0.308417 1.638286 -0.864019 -0.020243 0.367315 
0.383337 -0.001519 0.107808 -0.208769 -0.160783 0.898350 
1.170145 0.766925 1.269461 0.448899 0.567539 -0.563136 
0.027593 -0.087513 -0.368507 0.405079 -0.193919 -0.857709 
-1.456177 -0.768815 2.166532 -0.683997 -0.517148 -0.504774 
1.199330 0.609362 1.255807 0.847621 -0.281160 -0.449125 
-0.950724 0.503213 0.906704 -0.846197 -0.118994 -0.467334 
1.555702 0.321639 2.056157 0.885009 -0.276733 -0.316427 
-0.480833 0.598323 0.279674 0.700354 0.385883 0.592708 
-0.069498 -0.396555 0.197996 -0.118131 -0.129503 0.982243 
0.043707 1.016722 0.374454 0.168200 0.064659 0.977796 
1.198385 0.363965 1.333550 -0.802985 -0.133647 0.504932 
-0.148368 1.141022 -0.050230 -0.572951 0.378629 -0.697002 
-1.443097 0.755231 1.675286 0.487910 -0.064492 0.856515 
-1.379683 -0.247571 1.651739 -0.484699 -0.337558 -0.774236 
-1.587029 0.805586 1.788768 0.462179 0.504622 0.681469 
0.870630 -0.832374 0.912004 0.893147 -0.198435 -0.393317 
0.835717 -0.597126 0.846952 -0.881856 0.124075 0.438495 
1.449492 0.014030 1.682860 0.977489 -0.141519 -0.127909 
0.566890 0.415281 0.451299 -0.751838 0.340861 0.552446 
0.234834 0.952531 -0.037964 0.721733 0.321579 -0.559193 
-0.270376 1.001071 0.081547 -0.900408 0.366060 -0.156143 
0.916757 -0.370746 0.934688 -0.868250 0.124169 0.458762 
1.088850 -0.549995 1.193742 -0.892043 0.231214 0.385955 
1.220426 0.109485 1.308688 0.862549 -0.288159 -0.413869 
0.877946 0.102365 0.875269 -0.786443 -0.083859 0.571153 
0.827242 0.272875 0.723064 0.867579 -0.199311 -0.449896 
1.510936 -0.090478 2.036246 -0.917998 0.262326 0.249640 
-1.172222 -0.395617 1.518366 -0.714809 -0.374878 -0.559978 
0.650586 -0.040072 0.432695 0.863583 -0.084776 -0.494985 
-0.414712 -0.505115 0.085139 0.248973 0.007689 0.924052 
1.550050 0.159255 2.040233 0.921763 -0.119426 -0.331991 
0.282259 0.980802 0.164968 0.923653 0.339491 0.099227 
0.541561 0.138411 0.189166 0.870957 -0.094392 -0.480283 
-1.067915 0.390161 1.226002 0.749589 -0.144363 0.602454 
1.479012 -0.222163 2.088926 -0.875043 0.367045 0.227865 
0.222894 -0.962243 0.055836 0.073134 -0.371392 -0.922183 
-1.403892 0.672202 1.628276 0.521450 -0.351149 0.747842 
0.945434 -0.608341 0.987201 0.885831 -0.209847 -0.402999 
1.276697 -0.525766 2.038236 0.846366 -0.524462 0.019612 
-1.687564 0.146552 1.860342 0.654386 0.045777 0.743774 
1.542934 0.691072 2.043658 0.996502 -0.026407 -0.065765 
-0.567766 0.408998 0.165358 -0.903537 0.086325 -0.391879 
-0.535050 -0.517903 0.407005 0.596938 0.046520 0.683727 
-0.796383 -0.793136 1.055101 0.921230 0.233480 0.300844 
0.583348 -0.199183 0.392372 -0.623765 -0.035062 0.689276 
-1.672521 0.743558 1.893423 0.672225 0.068469 0.722815 
-0.853442 -0.753627 1.133027 0.903797 0.251398 0.327542 
0.977423 -0.706109 1.281723 -0.847127 0.406870 0.231592 
-1.988467 -0.200165 2.574820 0.901514 0.289038 0.251878 
0.560433 0.491905 0.121541 0.906587 0.170935 -0.368981 
-0.512969 -0.117113 0.165208 -0.858493 -0.111651 -0.495512 
1.287235 -0.422782 2.696550 0.825576 -0.519728 0.139348 
-1.505188 0.828099 1.716617 0.432932 0.516504 0.689761 
0.361239 -0.774104 0.148703 0.608547 -0.216639 -0.730032 
0.747286 -0.354014 0.697153 -0.857548 0.044560 0.502465 
1.197333 -0.624981 2.077441 0.821496 -0.557710 -0.018866 
0.147105 1.231364 0.059972 0.735669 0.599878 -0.160165 
1.392459 0.802110 1.722094 -0.887623 0.000187 0.434573 
-0.642131 -0.730204 0.523313 -0.818618 -0.048015 -0.522983 
0.743955 0.236168 0.586900 0.881357 -0.157712 -0.441590 
0.545993 -0.120795 0.224716 0.845990 -0.097347 -0.519951 
1.162866 -0.322545 1.245794 0.872395 -0.257015 -0.403995 
0.158886 0.279087 0.270627 0.241179 -0.247018 0.936638 
-0.778519 -0.669582 0.955177 -0.910935 -0.225762 -0.325679 
-0.202206 0.091423 0.181024 -0.214709 -0.191121 0.952173 
-1.509936 0.145110 1.692019 -0.823291 -0.142533 -0.510519 
0.535315 0.358175 0.115353 0.893316 0.032523 -0.422623 
0.293882 -0.786937 0.009451 0.576364 -0.247196 -0.757480 
0.103153 -1.199212 0.057127 0.601408 -0.207142 -0.712185 
-0.458417 0.318082 0.280384 0.662864 -0.167976 0.706956 
0.187277 -0.010131 -0.307754 0.539587 -0.117099 -0.808998 
-2.090353 0.032142 2.446301 -0.875472 -0.341709 -0.327891 
-1.366153 0.705217 1.569267 -0.765493 -0.380206 -0.499406 
1.116375 -0.333064 1.181797 0.872007 -0.239592 -0.412144 
-2.102529 0.365880 2.295895 -0.862882 -0.078442 -0.458151 
0.083059 -0.404628 -0.270312 0.353404 -0.394365 -0.837676 
1.569338 0.252390 2.093303 0.891910 -0.234091 -0.331665 
-1.062477 0.541112 1.107719 -0.838759 -0.301599 -0.443618 
0.193313 -0.669172 0.115466 0.153144 -0.118886 0.917432 
0.876006 -0.911814 1.785854 0.753742 -0.643116 -0.127056 
-1.834083 -0.423843 2.404273 0.815540 0.379604 0.374197 
-1.150306 -0.356519 1.448362 -0.777766 -0.331223 -0.529028 
1.602326 0.032724 2.474368 0.858258 -0.486611 -0.081182 
-0.133129 -1.249319 0.142254 0.936680 -0.083292 0.148703 
-0.285374 -1.128636 0.140763 -0.398149 -0.154458 -0.844365 
-0.982144 -0.127270 1.075951 -0.832105 -0.241680 -0.482025 
-1.656067 -0.306544 1.980918 0.591850 0.358409 0.665827 
-0.891419 0.373298 0.933716 0.760482 -0.183233 0.604100 
1.632315 0.152879 2.651823 0.938960 -0.126480 0.298434 
0.183005 0.541216 0.325311 0.235325 -0.229873 0.939551 
-0.360757 -0.819091 0.163313 -0.609516 -0.210646 -0.730728 
-0.821504 0.423214 0.716422 -0.770854 0.304115 -0.539120 
-0.476568 0.652730 0.232974 0.497282 0.455815 0.617480 
0.143440 1.248529 0.215801 0.128535 0.892035 0.190050 
0.550524 0.540883 0.181938 0.872110 0.323497 -0.323984 
0.558417 0.541129 0.268187 0.846359 0.396926 -0.300217 
1.050169 0.730087 1.092459 0.609886 0.373511 -0.568415 
1.394770 0.725645 1.716273 -0.853120 -0.052938 0.467643 
-0.468855 -0.001288 0.224402 0.537053 -0.130883 0.762396 
-0.789317 0.014602 0.706271 -0.884306 -0.155209 -0.430796 
1.346206 -0.498506 2.364584 -0.855973 0.489994 0.010282 
1.030873 -0.658575 1.470041 -0.833880 0.499957 0.070618 
0.501216 0.031198 0.288176 -0.600631 -0.137794 0.729422 
-0.422618 -0.688872 0.233671 0.388088 0.048401 0.836086 
0.875656 0.318166 0.876445 -0.743834 -0.188450 0.621652 
-0.631858 0.289170 0.582368 0.791876 -0.060952 0.601778 
-0.732603 -0.497238 0.670336 -0.891679 -0.070038 -0.433596 
1.180207 -0.252359 1.266633 0.872534 -0.273310 -0.398187 
0.319344 0.751128 0.256190 0.700555 0.297612 0.594218 
-0.031837 0.904359 -0.179054 -0.396078 0.431154 -0.798955 
1.512017 -0.173363 2.373045 0.867839 -0.472695 -0.068566 
1.475835 0.433701 1.837770 0.905444 -0.257695 -0.260782 
0.953957 0.469757 0.904113 0.861687 -0.261964 -0.434471 
-0.861629 0.400653 0.774377 -0.887456 -0.200817 -0.399022 
1.170459 0.552895 1.216198 0.850539 -0.279320 -0.444545 
-0.654162 -0.164918 0.551206 0.813590 -0.002750 0.531637 
0.138365 0.473714 0.331708 0.243822 -0.259990 0.931250 
-0.733600 -0.326523 0.684876 -0.892579 -0.115169 -0.426026 
0.893884 0.160763 0.832716 0.860973 -0.195114 -0.457779 
-0.376917 0.186589 0.160826 0.241459 -0.227961 0.856851 
0.445896 -0.574112 0.213006 -0.364001 0.033158 0.854439 
-0.147850 0.011077 0.196915 -0.212635 -0.143050 0.963571 
-2.050462 0.241440 2.249167 -0.910947 0.028711 -0.360342 
0.166360 0.092384 0.193620 0.211520 -0.183983 0.958405 
-1.918085 0.261886 2.056537 -0.585062 -0.312089 -0.734503 
0.111123 -0.881150 -0.023103 0.193502 -0.294167 -0.913037 
0.761203 0.248221 0.708895 -0.777196 -0.170479 0.597596 
0.083899 -1.009587 0.016175 0.299884 -0.200284 -0.924150 
0.018279 0.848150 -0.217179 0.419500 0.366751 -0.824167 
-1.943933 -0.334315 2.660829 -0.815962 -0.454478 -0.308476 
-0.504033 -0.514287 0.323822 0.507048 0.036445 0.745797 
0.708901 0.630754 0.591147 -0.837057 0.061661 0.540992 
1.016317 0.646131 1.057176 -0.790921 0.441678 0.331726 
-2.072600 0.395283 2.229829 -0.841403 -0.026164 -0.510790 
0.293356 -0.625682 -0.073662 0.561113 -0.269473 -0.763349 
0.787782 -0.543622 0.736054 0.866444 -0.107425 -0.471758 
-1.817379 0.034978 1.984934 -0.672459 -0.270225 -0.670047 
-0.277666 -0.783711 0.103456 -0.133144 -0.028786 0.921054 
-1.540393 0.048675 1.749123 0.548235 0.105059 0.814283 
0.258157 -0.321042 -0.217682 0.506235 -0.270062 -0.806859 
-2.198923 0.180412 2.950754 -0.959537 -0.238897 -0.095225 
-0.004403 0.433357 0.319640 -0.014242 -0.299488 0.952061 
-0.900864 0.668623 0.900886 0.837461 0.163984 0.494092 
1.035286 -0.013645 1.045526 0.866615 -0.237815 -0.427320 
0.369284 0.719032 -0.029666 0.756975 0.543316 -0.320520 
0.157667 0.006619 0.194075 0.231051 -0.146676 0.954345 
-0.043745 1.350190 -0.019385 -0.607521 0.566162 -0.507266 
0.541397 0.475951 0.396246 -0.731777 0.358440 0.567830 
0.125382 -0.517292 -0.165928 0.193828 -0.563397 -0.798970 
-0.102578 -0.315458 0.192450 -0.190442 0.014734 0.979179 
-1.351360 0.796276 1.620320 0.589663 -0.144310 0.786874 
-0.191477 0.805907 0.324241 -0.371745 0.083799 0.897966 
0.572231 -0.819201 0.445711 -0.603333 -0.003443 0.708554 
-0.733632 -0.679480 0.716228 0.891280 0.020048 0.429515 
-0.575995 0.219510 0.259761 -0.880537 -0.129287 -0.453265 
0.627515 -0.092693 0.390267 0.858561 -0.075282 -0.505905 
-1.363296 -0.844338 2.147425 0.654736 0.515882 0.543611 
0.884865 0.427917 0.891677 -0.722979 -0.237027 0.644221 
-1.569707 -0.373030 1.919778 -0.770610 -0.409629 -0.475198 
-1.539955 -0.261950 1.815168 -0.798065 -0.337796 -0.472388 
0.542576 0.213877 0.183737 0.874783 -0.113811 -0.468437 
1.357493 0.373046 1.591655 -0.876439 -0.122056 0.277806 
-1.480901 0.080189 1.704178 0.507448 0.084175 0.831955 
-2.076063 -0.104935 2.788015 0.873995 0.392924 0.231228 
-0.602777 0.471890 0.451262 0.734700 0.408982 0.534230 
0.120770 -1.269832 0.176598 -0.885794 -0.063503 0.178887 
0.739791 -0.056145 0.615184 0.862867 -0.107869 -0.488944 
-1.753853 -0.551038 2.338042 0.769797 0.435011 0.434335 
-1.609217 0.348887 1.782201 -0.685668 -0.194923 -0.665656 
-2.237870 0.333913 2.915376 -0.980561 -0.017447 -0.039019 
0.403196 0.516511 0.271747 -0.737310 0.252482 0.619358 
-1.643827 -0.679006 2.265512 -0.723571 -0.499980 -0.473021 
-0.869282 -0.768490 1.330562 -0.829527 -0.390578 -0.352158 
-0.596472 0.183868 0.471281 0.750916 -0.163650 0.616577 
-2.115514 -0.091022 2.987316 -0.936508 -0.330558 -0.095054 
0.145948 0.628739 0.362164 0.138331 0.211714 0.962063 
1.325911 0.650002 1.537507 -0.789135 -0.225924 0.497864 
-0.932972 -0.295422 1.021981 -0.838310 -0.206494 -0.484476 
-1.358078 -0.537876 1.868680 0.325920 0.430422 0.805528 
-0.021295 -0.866639 0.108615 -0.406649 -0.121708 0.903439 
1.116673 -0.604565 1.684298 -0.845285 0.501616 -0.051043 
-1.197068 -0.825605 1.967093 -0.553514 -0.536925 -0.625519 
0.499535 -0.092806 0.125861 0.843916 -0.104947 -0.521136 
1.402856 -0.391858 2.277541 -0.878315 0.442200 0.069311 
-0.150519 1.189795 0.256827 -0.958342 -0.186210 -0.109076 
1.487638 0.262367 3.075524 -0.879843 0.118997 -0.412426 
1.297984 -0.361729 1.767681 -0.832391 0.436696 0.248556 
-0.036782 0.967383 -0.146715 -0.368487 0.386528 -0.829916 
-1.900862 -0.167825 2.254656 0.847465 0.259982 0.387661 
-1.176744 0.248270 1.354613 -0.794182 -0.320757 -0.510325 
-2.003042 0.024405 2.279528 0.907341 0.166867 0.322374 
0.259603 0.986549 0.244251 0.834314 0.116132 0.469610 
0.443538 0.165161 0.208576 -0.568982 -0.200194 0.765287 
-1.927712 -0.211521 2.333741 -0.712960 -0.509692 -0.480116 
0.541705 -0.365122 0.272115 0.798842 -0.126306 -0.569675 
0.368637 0.158135 0.151657 -0.165860 -0.222504 0.880264 
1.256087 0.627476 1.419689 -0.791910 -0.269748 0.516892 
0.271955 0.134109 -0.277972 0.632167 -0.067531 -0.751318 
0.797186 0.181368 0.683922 0.867078 -0.173384 -0.459914 
-1.208052 -0.308631 1.482729 -0.726177 -0.322663 -0.582354 
1.594079 0.402945 2.502703 -0.929628 0.132404 -0.006039 
-0.962042 -0.243440 1.095013 0.822265 0.162290 0.520431 
-0.674091 0.492516 0.562402 0.796528 0.254955 0.515564 
-0.537288 0.158821 0.378230 0.712999 -0.165123 0.649518 
0.077853 -0.334511 -0.289333 0.370101 -0.346725 -0.841128 
-0.538000 0.301543 0.141818 -0.891964 -0.026361 -0.436767 
-1.276878 -0.287373 1.576949 0.830581 0.272563 0.456864 
1.516830 0.539930 2.189782 -0.889015 0.053503 0.202519 
-1.166435 -0.252480 1.454019 0.781457 0.252214 0.551592 
-0.059304 -1.027403 0.065354 -0.176717 -0.104491 0.946394 
0.978297 0.201406 0.952512 0.864011 -0.240563 -0.434568 
1.454633 0.335033 1.778407 0.933169 -0.182905 -0.207747 
-1.152824 0.294353 1.305647 -0.803015 -0.316783 -0.497245 
0.630943 -0.094158 0.507832 -0.769196 -0.059071 0.600256 
0.226528 1.111464 0.075474 0.872082 0.422683 -0.191493 
1.514241 0.549909 2.096611 -0.888772 0.022564 0.290853 
0.902141 -0.782452 0.959742 -0.900311 0.184194 0.390008 
-0.952137 0.146832 0.981734 -0.854079 -0.255953 -0.438990 
-0.447608 0.401005 0.325763 0.732757 0.037008 0.644495 
-0.573119 -0.995666 0.385285 0.674510 -0.191413 0.647152 
0.292480 -0.689814 -0.041699 0.563694 -0.262398 -0.763584 
0.589915 -0.050659 0.308270 0.859124 -0.079242 -0.503861 
0.657505 0.213353 0.554822 -0.775288 -0.166339 0.600974 
-2.197569 0.199462 3.143923 0.975412 0.178115 0.027054 
-0.820991 -0.014450 0.767378 -0.876020 -0.168002 -0.439073 
0.514713 -0.023272 0.150086 0.853694 -0.093570 -0.508557 
0.257480 -0.487100 -0.156511 0.240285 -0.376487 -0.831494 
1.440972 -0.147790 2.717859 -0.889335 0.313800 -0.251508 
1.313132 -0.426777 2.616395 -0.847321 0.472894 -0.122054 
1.480630 -0.083537 1.953889 -0.895135 0.246526 0.319843 
-0.939153 0.278831 1.023778 0.761338 -0.113916 0.598385 
-1.957388 -0.187179 2.421880 0.889845 0.263097 0.294659 
1.559017 -0.060715 2.339353 -0.931236 0.258708 -0.035255 
1.326605 -0.484793 2.483971 -0.849365 0.487402 -0.060140 
-0.431774 0.223958 -0.048526 -0.875495 -0.088067 -0.474699 
0.071063 0.025735 -0.379455 0.470790 -0.092575 -0.856097 
0.506882 0.048738 0.126520 0.861129 -0.087243 -0.498330 
0.225033 -0.035417 0.167542 0.342090 -0.166481 0.890405 
0.865905 0.245765 0.861127 -0.757816 -0.157407 0.607109 
-1.113433 0.754800 1.222333 0.717557 0.487433 0.267311 
-2.207490 0.529345 2.493788 -0.918000 0.170807 -0.242094 
0.033846 1.292518 0.158502 0.172324 0.857064 0.476566 
0.846771 0.416924 0.715130 0.799003 0.185567 -0.540856 
1.310645 -0.193267 3.005795 0.843443 -0.395623 0.333862 
1.222605 -0.548310 1.911974 0.839806 -0.528050 0.005494 
-1.457864 0.397388 1.648979 -0.781224 -0.249706 -0.526390 
-1.416664 -0.485913 1.856978 -0.770071 -0.456797 -0.435638 
0.253319 0.866781 -0.065730 0.690024 0.408755 -0.556907 
-1.678089 -0.618206 2.246396 0.705383 0.467447 0.509618 
0.561551 0.304630 0.182854 0.891050 -0.019771 -0.439431 
0.206595 0.194097 0.214349 0.211661 -0.227030 0.948861 
-0.882091 -0.052758 0.883722 -0.859614 -0.196430 -0.454740 
-0.468123 0.215089 0.269773 0.655534 -0.204428 0.704924 
-0.571058 -0.886777 0.440026 -0.759569 -0.066233 -0.581827 
-2.207207 0.246949 2.771299 0.969211 0.108544 0.119699 
0.388389 0.491567 -0.159269 0.713058 0.156201 -0.641127 
-0.929881 -0.412145 1.105303 0.848730 0.198879 0.461446 
-0.606047 0.005219 0.346142 -0.883031 -0.098170 -0.458011 
0.619915 -0.875545 0.491753 0.740266 -0.042375 -0.632862 
0.507151 0.609862 0.183063 0.870273 0.400511 -0.233604 
1.314303 -0.044453 3.183833 0.834339 -0.373059 0.400120 
-1.995132 -0.160068 2.499364 -0.754622 -0.490098 -0.404069 
0.336069 0.808063 0.196997 0.848748 0.362401 0.354139 
-0.292217 -0.743112 -0.021543 -0.569160 -0.248291 -0.766768 
1.066345 0.335278 1.146601 -0.771221 -0.143584 0.559117 
-1.464152 -0.608358 2.032176 0.491951 0.455442 0.673655 
-0.262209 -0.575247 0.105638 -0.457564 -0.129704 0.867605 
0.484762 0.268830 0.046107 0.881615 -0.062861 -0.462807 
0.243338 0.806049 0.304322 0.524868 0.204793 0.821975 
-2.130585 0.133015 2.529516 0.849089 0.356263 0.342029 
0.586508 -0.321571 0.385680 -0.579994 0.006269 0.708873 
0.481768 -0.508445 0.256080 -0.418310 0.026058 0.817788 
0.182145 0.282572 -0.349935 0.605937 0.022236 -0.780560 
0.216537 -0.808715 -0.009756 0.057227 -0.395406 -0.902471 
-0.827027 -0.001028 0.841733 0.822987 -0.021144 0.532685 
0.222614 0.180458 -0.315004 0.611707 -0.037671 -0.770988 
0.898249 -0.580914 0.915693 0.882982 -0.186637 -0.417568 
0.699548 0.148391 0.617692 -0.805399 -0.133424 0.573228 
0.474561 0.300345 0.293363 -0.651240 -0.200605 0.718137 
0.423500 0.064559 0.146945 -0.476545 -0.170337 0.818309 
0.306143 -0.202966 -0.185764 0.585741 -0.232285 -0.741316 
-1.789700 0.269321 1.942010 -0.629466 -0.237639 -0.712694 
-0.194098 -0.061784 -0.295044 -0.537052 -0.139990 -0.808324 
0.451347 0.589197 -0.045782 0.769325 0.289519 -0.499522 
1.376386 -0.178581 1.657064 0.773931 -0.300837 -0.526808 
-0.758110 -0.643950 0.890374 0.907987 0.148009 0.361165 
1.675243 0.483775 2.630664 0.975927 -0.077190 0.059665 
0.351567 0.702681 -0.115630 0.582280 0.587768 -0.521258 
-0.352567 0.170103 -0.184737 -0.738446 -0.082641 -0.636112 
-1.853926 -0.258757 2.246280 0.819790 0.303615 0.417120 
0.996799 -0.470808 1.036242 0.878144 -0.210834 -0.414807 
1.039526 -0.178345 1.098743 -0.846600 0.113211 0.469278 
1.039436 0.129293 1.044361 0.866443 -0.259481 -0.421284 
0.712910 0.297921 0.665944 -0.779073 -0.125956 0.608592 
-0.628213 0.106654 0.383011 -0.882740 -0.124581 -0.450616 
1.649455 0.448400 2.315006 0.990277 0.040122 -0.057124 
-0.567967 -0.111285 0.394330 0.672498 -0.054740 0.645059 
-0.292651 -0.471237 0.114175 -0.565195 -0.121639 0.804773 
-0.271531 0.556763 -0.248189 -0.558780 0.252849 -0.769654 
0.053614 0.324374 0.284786 0.072726 -0.301871 0.941508 
-1.125555 -0.187526 1.344719 -0.795214 -0.311686 -0.514692 
0.099326 1.298662 0.092491 0.631667 0.718796 0.156361 
-0.221120 0.702871 0.326591 -0.374868 0.225510 0.869997 
-2.176466 0.569665 2.437398 -0.874512 0.257264 -0.293326 
-0.034992 -0.495004 -0.206256 -0.143810 -0.610757 -0.764759 
-1.366759 -0.140775 1.573658 -0.524615 -0.237815 -0.777225 
0.063023 0.253313 0.257907 0.081469 -0.272094 0.949404 
-0.210314 0.478747 -0.297184 -0.559082 0.180387 -0.794378 
1.128977 0.495852 1.158220 0.853971 -0.276424 -0.439682 
0.109780 1.269331 0.012735 0.735814 0.531704 -0.357886 
1.566697 0.493496 2.371752 -0.913753 0.106530 0.099566 
0.096665 1.020837 -0.098971 0.444534 0.323013 -0.808505 
-1.773432 0.415188 1.947423 0.660097 -0.047130 0.698981 
-1.380104 0.463322 1.553943 -0.671873 -0.236172 -0.625231 
-1.162575 -0.729851 1.842295 0.737079 0.486307 0.428578 
1.499379 0.091434 1.929907 -0.922868 0.070352 0.366612 
-1.217531 -0.932550 2.088024 -0.618178 -0.549476 -0.557597 
1.611668 0.380854 2.434325 -0.940763 0.102588 0.083841 
-1.451988 -0.172653 1.737709 0.380510 0.256543 0.870871 
-1.426814 0.176435 1.669258 0.517911 0.082169 0.829193 
-0.763871 0.120837 0.653665 -0.884121 -0.168746 -0.430309 
-0.775127 0.507253 0.724267 0.827433 0.293609 0.452018 
1.178945 0.549300 1.309380 -0.779459 -0.241185 0.539827 
-0.222512 1.126309 0.126676 -0.885304 0.444775 -0.065168 
0.104611 0.226075 -0.393726 0.546024 0.004355 -0.825004 
-1.614468 -0.595130 2.156349 -0.748011 -0.481912 -0.453387 
-0.879915 0.073444 0.861446 -0.867003 -0.209224 -0.436900 
0.928630 0.513006 0.969253 -0.752420 -0.146112 0.614388 
-1.191930 0.766630 1.339380 -0.426216 0.631795 -0.572988 
1.316187 -0.225402 1.477857 0.839693 -0.257855 -0.460904 
-0.597551 -0.669890 0.486209 0.698474 0.006612 0.606209 
-0.579922 -0.560353 0.451890 -0.768328 -0.125045 -0.570042 
-0.635958 0.192921 0.390635 -0.882222 -0.143478 -0.445899 
-0.791357 0.433770 0.819094 0.830806 0.027487 0.537250 
-0.011803 -0.356851 -0.309022 -0.319461 -0.392480 -0.848142 
-0.960829 -0.645829 1.434402 -0.790286 -0.409692 -0.417692 
-0.118818 0.086856 -0.363669 -0.523027 -0.060452 -0.831296 
-0.337367 0.092815 -0.195353 -0.698686 -0.109673 -0.670202 
0.486750 0.472885 -0.007062 0.869122 0.144683 -0.427903 
0.809463 -0.084633 0.774279 -0.821262 -0.020340 0.543473 
-0.116329 0.789746 0.340508 -0.170184 -0.029545 0.980491 
-1.991162 0.402055 2.122614 -0.843408 0.066631 -0.519327 
-0.768924 -0.753826 0.932742 0.912988 0.160599 0.341394 
-1.546398 0.770867 1.730929 -0.848489 -0.048661 -0.524273 
0.272792 0.203511 0.186928 0.190588 -0.244287 0.949482 
-0.183939 1.078947 0.277538 -0.653557 0.650143 -0.227568 
-0.332234 -0.193892 0.117721 -0.448216 -0.147890 0.822179 
0.612107 -0.321460 0.453217 -0.648630 0.010266 0.664456 
0.785713 -0.747285 0.729050 0.852604 -0.069346 -0.495460 
-0.134535 0.127877 0.212103 -0.187938 -0.198743 0.957829 
-0.703339 0.332018 0.687136 0.808909 -0.042225 0.577508 
1.022390 0.496119 1.002755 0.858160 -0.267449 -0.437661 
1.642265 0.645140 2.345371 0.991729 0.047741 -0.094782 
1.144680 0.497468 1.260081 -0.775630 -0.218925 0.547585 
-0.534164 0.016580 0.192798 -0.874915 -0.095197 -0.472872 
-1.079157 0.571780 1.225783 0.739865 -0.247097 0.614433 
0.289786 0.603643 0.288687 0.405822 -0.176712 0.848802 
0.156929 -0.179338 0.189504 0.238917 -0.062637 0.960604 
-0.201536 -0.243534 0.170503 -0.353619 -0.069967 0.899505 
-1.787043 -0.183930 2.049997 0.752830 0.303415 0.560833 
-0.659299 -0.924329 0.527511 0.785954 -0.097956 0.542706 
-1.106251 -0.566681 1.625104 0.796984 0.433016 0.391738 
0.983368 0.207166 1.026978 -0.768930 -0.093664 0.571369 
-0.407313 -0.646932 0.157109 -0.689937 -0.184312 -0.658555 
0.193246 -0.810625 0.104276 -0.099366 -0.039589 0.895494 
1.064425 0.483404 1.064623 0.856906 -0.271120 -0.437558 
-1.743089 0.486632 1.936612 0.600306 0.143906 0.747742 
-0.030303 0.614240 0.368859 -0.039905 0.205185 0.975320 
-2.005310 0.493447 2.132203 -0.806933 -0.030243 -0.588318 
-1.289674 0.710418 1.464407 -0.774764 -0.337917 -0.532574 
-0.683213 -0.742240 0.579885 0.823598 -0.038315 0.509467 
-1.604660 0.520570 1.801194 0.597744 -0.180002 0.722518 
-0.744448 -0.600429 0.810619 0.899863 0.098760 0.394053 
-2.189399 0.164614 3.061822 0.970203 0.187528 0.049717 
0.270046 0.236215 -0.294542 0.657137 -0.021186 -0.741356 
-1.117499 0.039071 1.343606 0.767077 0.071282 0.574927 
-1.461999 0.150787 1.610406 -0.801251 -0.161226 -0.562862 
-2.103813 0.598330 2.258928 -0.836887 0.052232 -0.533540 
1.281266 -0.536527 2.525277 -0.835752 0.526935 -0.055033 
-0.780368 -0.315597 0.809505 0.872421 0.098872 0.459534 
-0.845732 0.516493 0.783100 -0.717340 0.347734 -0.591000 
0.030512 -0.453330 -0.254920 0.240492 -0.501785 -0.821467 
-0.908979 0.314521 0.879128 -0.873333 -0.251425 -0.408456 
1.122775 -0.516780 1.265401 0.873589 -0.305354 -0.351820 
1.295099 -0.306443 1.589354 -0.907973 0.290534 0.077532 
-2.093941 -0.096528 2.859299 -0.936491 -0.302554 -0.128691 
1.095811 0.238588 1.121229 0.863387 -0.276320 -0.420694 
0.548277 0.567112 0.335035 0.825840 0.482277 -0.248117 
1.240922 -0.048068 1.386320 -0.855108 0.105297 0.427656 
1.290547 0.504663 1.466173 -0.813156 -0.194239 0.484248 
