-0.181601 -0.319172 0.297039 -0.233011 -0.323048 0.901393 
0.586969 -0.028075 0.332993 -0.376625 -0.329923 0.791664 
0.322838 1.496462 1.457110 0.685163 0.532256 -0.341756 
-0.648710 0.043579 0.339879 0.337807 -0.370104 0.772140 
1.242209 0.394687 2.087733 0.731571 0.365037 -0.557683 
-0.299679 -0.220229 0.287240 -0.505474 -0.265124 0.813695 
-0.811640 0.509044 1.164016 0.758796 -0.559999 0.306697 
-0.885513 0.657265 2.176890 0.904059 -0.233805 0.349443 
-1.116379 0.093103 1.436465 0.502101 -0.525332 0.334471 
0.204391 -0.521830 -0.058921 -0.008069 -0.298130 -0.920285 
-0.282056 0.130335 0.401409 -0.466949 -0.203588 0.849555 
-0.273331 0.338257 0.427592 -0.385147 -0.048471 0.911114 
1.071972 0.160095 1.628925 0.748430 0.263196 -0.509197 
-0.704103 1.070796 1.844788 0.814120 -0.358016 0.443938 
-0.154763 0.629193 -0.130074 -0.397348 0.126138 -0.888044 
-0.661187 -0.278507 0.303739 -0.776080 0.068643 -0.579128 
0.353915 -0.298218 0.020304 0.784265 -0.060500 -0.614675 
1.572370 0.503891 2.500937 -0.602139 -0.400682 0.682012 
-0.989827 0.182599 1.027944 0.810036 -0.435115 0.341394 
0.804950 0.748530 1.593020 0.821651 0.324978 -0.344805 
-0.977702 0.452460 2.162623 0.735076 -0.668791 -0.023760 
0.164040 -0.902481 0.056056 -0.167601 -0.361769 0.873627 
1.094011 0.883602 2.247643 0.749703 0.413302 -0.511086 
-0.516999 -0.517978 0.163583 0.197795 -0.181362 0.907406 
0.178167 0.867533 -0.038018 0.555290 0.440873 -0.690060 
-0.465778 0.217848 0.020361 -0.687358 0.105277 -0.710379 
-0.694951 0.910953 1.149461 -0.963054 0.186948 0.063204 
0.412065 -0.888207 0.071372 -0.275512 -0.161183 0.941442 
0.858635 0.347318 1.312116 0.886130 0.377781 -0.227612 
-1.027581 -0.561576 0.725727 -0.740371 0.135738 -0.587664 
-0.780754 0.654910 1.531775 0.787468 -0.546406 -0.036785 
0.322081 0.442704 -0.077334 0.483872 -0.030129 -0.871997 
-1.045424 0.092136 1.046944 0.819337 -0.418431 0.339056 
-0.679054 0.284173 0.257513 -0.732342 0.211655 -0.612977 
-0.477173 -1.080630 0.092577 0.073953 -0.218096 0.806152 
-0.170664 0.038451 0.449761 -0.340319 -0.267076 0.897811 
-0.314926 0.667717 0.388165 -0.673666 0.215353 0.692739 
0.253725 0.231959 -0.090392 0.429567 -0.046303 -0.898019 
-0.854909 -0.082423 0.497478 0.549530 -0.285195 0.645239 
0.060118 -1.186216 -0.147244 0.332268 0.287907 -0.885618 
1.022043 0.171359 1.575549 -0.865295 -0.425442 0.176715 
-0.273282 0.925036 0.355426 -0.848629 0.087417 0.484535 
1.211020 0.978864 2.479442 -0.689244 -0.455001 0.559895 
-0.863001 -0.376343 0.498555 0.651781 -0.238417 0.633286 
-0.318985 -0.489353 0.178393 -0.407034 -0.263598 0.855564 
0.983607 0.062950 1.248305 -0.830377 -0.404182 0.302057 
0.842144 -0.837191 0.501349 0.552427 0.369155 -0.631856 
-0.354755 -0.800318 0.112179 -0.016337 -0.200975 0.914277 
0.370727 0.718972 0.045536 0.626619 0.621486 -0.376648 
0.177984 0.796227 -0.068438 0.520307 0.422487 -0.713441 
0.931637 1.172066 2.240204 -0.740740 -0.443677 0.501333 
0.662215 -0.010626 0.319952 0.791985 0.121102 -0.569364 
-1.333197 0.658440 2.954741 -0.741479 0.363603 -0.553590 
0.611669 -0.423717 0.317709 0.734500 0.084331 -0.610446 
-0.414405 0.014842 0.014084 -0.710555 0.041054 -0.689749 
0.519825 0.442165 0.528538 -0.879502 -0.107473 0.415553 
0.671909 -0.906816 0.327978 0.515010 0.260962 -0.717084 
0.959595 -0.015400 0.930547 -0.824597 -0.349442 0.435764 
0.723001 0.473825 0.899346 0.921223 0.328686 -0.108308 
0.623580 0.717609 0.948647 0.613296 0.563249 -0.467884 
1.464029 0.360299 2.285129 0.586587 0.252837 -0.757953 
0.694194 -0.487077 0.411368 -0.542291 -0.238537 0.708780 
0.642587 0.387834 0.401580 0.842406 0.338410 -0.313483 
0.113497 0.074945 0.476434 0.263907 -0.274699 0.918558 
0.643312 0.655989 0.975464 0.940966 0.330310 -0.029206 
1.126056 -0.644942 0.864311 -0.629476 -0.434574 0.523332 
0.572014 0.256085 0.149368 0.743399 0.113304 -0.645657 
0.418742 -0.808531 0.075330 -0.248544 -0.163298 0.947879 
-0.144727 0.348455 0.530838 -0.345805 0.003973 0.932081 
0.682880 -0.233525 0.397244 0.822677 0.103225 -0.523921 
-0.870093 0.729035 2.183190 -0.924208 0.292826 -0.237684 
0.542061 -0.097892 0.268536 -0.303837 -0.301784 0.841743 
0.635393 -0.028555 0.387408 -0.434759 -0.332067 0.750017 
-0.446815 -0.429151 0.096575 0.033091 -0.173718 0.979262 
0.309490 0.196735 -0.060472 0.428601 -0.076553 -0.897216 
-1.018720 -0.156593 0.624011 -0.809071 0.210133 -0.499074 
0.787453 0.644183 1.573048 -0.770756 -0.546832 0.234195 
-1.319654 0.786166 3.021262 -0.746171 0.333308 -0.565716 
-0.444488 -0.638129 0.094379 0.149795 -0.165034 0.956231 
-1.414136 -0.037506 1.708671 0.579892 -0.619048 0.473843 
0.583165 0.407972 0.588624 -0.916236 -0.080435 0.345599 
-0.536448 1.406997 1.422792 -0.508140 0.245811 -0.735133 
0.333958 -0.859962 0.096746 -0.038454 -0.195563 0.922784 
1.771765 0.325052 2.546554 0.594446 0.446960 -0.663028 
-0.422872 -0.906395 0.073777 0.269485 -0.150920 0.942910 
-0.378812 -0.056992 -0.019095 -0.653994 -0.004807 -0.735474 
-0.927016 0.474190 1.742086 -0.793491 0.592329 0.076896 
0.176680 0.368261 0.517206 0.383399 0.010663 0.922240 
-1.345459 -0.533592 1.094701 0.811463 -0.208167 0.506705 
-1.227194 0.100903 1.634706 -0.571922 0.548060 -0.539782 
-0.086821 1.161939 0.075388 -0.475792 0.404043 -0.768849 
-0.216858 1.218857 0.518057 -0.810370 -0.403063 -0.388028 
-0.983969 0.074978 0.644369 0.726702 -0.357586 0.522101 
-0.737579 -0.655605 0.393863 0.533607 -0.195568 0.743097 
-1.431132 0.055056 2.566974 0.719504 -0.594336 0.325472 
-1.467242 0.026707 2.047145 0.619810 -0.761485 0.126389 
0.647195 0.651809 0.900697 0.752718 0.517441 -0.355518 
0.377289 0.696979 0.273201 0.396341 0.645982 0.595116 
-0.643614 1.265721 1.715897 -0.968594 0.181960 -0.001294 
0.128298 -0.096615 -0.161423 0.483412 -0.067631 -0.860985 
-0.889933 -0.535613 0.556171 0.624891 -0.211362 0.662818 
1.172053 0.604767 2.149202 -0.733912 -0.513708 0.438786 
-1.143484 0.521900 2.590572 -0.790091 0.444689 -0.389799 
0.961402 -0.627978 0.691188 -0.603399 -0.360977 0.593450 
1.419657 0.048756 2.141208 -0.675341 -0.302303 0.665886 
-0.782638 0.645237 1.332532 0.759041 -0.581634 0.268251 
0.135730 1.117395 0.349386 0.860369 0.032685 0.245845 
-1.132854 0.475983 2.532750 -0.790282 0.474906 -0.348782 
-0.676379 0.798056 1.064386 0.718097 -0.573931 0.387036 
-1.436580 0.071098 2.098097 -0.634194 0.760703 -0.078068 
0.438731 0.426078 0.019825 0.672801 0.116400 -0.664022 
-1.360011 -0.164501 1.393456 0.165017 -0.441169 0.656386 
0.563700 -0.477717 0.246263 -0.322381 -0.205374 0.846415 
0.768297 0.842804 1.671459 0.867354 0.314396 -0.264470 
-0.648918 0.626754 0.702313 -0.575666 0.548954 -0.596123 
0.172781 1.095394 0.439719 0.807029 0.375422 -0.286722 
0.251683 0.720522 0.415113 0.504618 0.227602 0.813585 
0.608685 0.863340 1.305511 0.951441 0.237487 -0.111672 
-1.015463 0.885535 2.715298 -0.825638 0.275217 -0.484419 
0.545057 0.315983 0.427907 -0.486571 -0.484107 0.677257 
-0.600620 1.240671 1.396424 -0.986655 0.026960 0.116720 
-1.211360 -0.107284 1.151089 -0.797122 0.429912 -0.389829 
-0.808891 0.541298 1.229471 0.761157 -0.566909 0.288545 
-0.680916 0.359376 0.338673 -0.749867 0.291037 -0.535749 
-0.879444 1.088903 2.539220 0.893264 -0.044738 0.419760 
-0.843887 0.622788 1.622936 -0.877944 0.442555 -0.082971 
0.272727 0.995834 0.238798 0.908049 0.366838 -0.024236 
1.197548 -0.152720 1.638421 -0.866709 -0.352997 0.089202 
-1.330799 -0.416894 1.057091 -0.854567 0.189123 -0.467444 
-0.293588 -0.613572 -0.051502 -0.526233 -0.105502 -0.835228 
-0.242540 0.929429 0.064203 -0.726436 0.408127 -0.510862 
1.204631 -0.043518 1.727709 -0.854354 -0.405138 0.213405 
-1.087229 0.051770 1.197566 0.796226 -0.471447 0.326242 
0.577656 0.520611 0.647417 0.679853 0.645139 -0.262003 
0.715046 0.808574 1.621611 -0.621724 -0.364057 0.677362 
-1.133207 0.276178 1.841844 -0.708678 0.703115 -0.009863 
0.600528 1.282874 1.766232 -0.765779 0.144536 0.571770 
1.178288 0.902325 2.372113 0.720390 0.405803 -0.557839 
1.024544 -0.238686 0.769006 0.811379 0.293989 -0.459254 
-1.102699 0.207349 1.690235 0.652186 -0.654680 0.305905 
0.199686 1.197323 0.513810 0.843176 -0.334652 -0.393909 
0.295133 0.334413 -0.063325 0.403607 -0.046659 -0.912443 
-1.227668 -0.126613 1.217174 -0.786720 0.456381 -0.384415 
1.728236 0.660090 2.781214 0.635564 0.457975 -0.618686 
0.385522 0.424446 0.348036 -0.195446 -0.203277 0.823474 
-1.413820 0.115751 2.174036 0.617320 -0.782933 0.050472 
0.617375 0.875782 1.379750 0.949490 0.225954 -0.137735 
0.287359 0.590189 -0.098252 0.511067 0.111575 -0.836457 
-0.812875 0.816270 2.031125 -0.937661 0.271320 -0.169068 
0.470263 0.250799 0.027821 0.728390 0.064163 -0.678452 
0.896289 -0.457837 0.637783 -0.662359 -0.315466 0.583819 
-1.016637 0.565975 2.446627 -0.822713 0.450626 -0.318250 
-1.382380 -0.044909 1.630782 -0.547475 0.581495 -0.490933 
0.612675 0.461908 0.623224 0.574655 0.747654 -0.218325 
-0.746866 0.559624 0.737840 -0.442200 0.706652 -0.512410 
-0.927700 0.335868 1.181739 -0.868641 0.430141 -0.145391 
0.809498 0.214891 0.849961 -0.748585 -0.439914 0.470601 
0.197451 -0.022428 0.414372 0.383669 -0.263457 0.877873 
0.089515 -0.632219 -0.037425 0.027082 -0.158903 -0.979219 
0.795652 0.911040 1.812189 -0.655053 -0.564463 0.459058 
-0.859133 0.405305 0.861274 0.765510 -0.456337 0.428301 
1.045781 0.756093 2.087363 0.751136 0.360754 -0.547163 
0.849950 0.136497 0.828164 -0.766859 -0.410539 0.469917 
-0.465585 0.147746 0.035604 -0.700203 0.088653 -0.696140 
0.422042 0.157208 -0.011199 0.665893 0.015993 -0.729897 
-0.677791 -0.019805 0.355110 0.359294 -0.336207 0.760905 
0.842490 -0.321944 0.592571 -0.704397 -0.278922 0.578861 
-0.833999 0.601468 1.460009 -0.878851 0.337210 -0.155402 
0.297715 0.722171 -0.068549 0.551360 0.433881 -0.695752 
0.073555 0.813154 0.464560 0.199175 -0.234955 0.945622 
1.085014 0.963801 2.284916 0.755435 0.380703 -0.529611 
0.064388 1.232901 0.112108 0.517976 0.281856 -0.796220 
-1.040585 -0.002732 0.669013 0.775635 -0.301567 0.502754 
-0.787713 0.804910 1.959136 0.884548 -0.252976 0.372273 
0.921328 0.477186 1.705228 -0.804480 -0.448943 0.353421 
-1.213364 0.265243 2.177552 0.666045 -0.739092 0.020121 
-1.005174 0.795202 2.628054 0.819995 -0.393616 0.410193 
-1.361810 0.172700 2.579143 0.729415 -0.512268 0.402744 
-0.389341 -0.384896 0.067328 -0.753187 -0.045809 -0.640568 
0.474850 -0.048938 0.202625 -0.236120 -0.316780 0.891673 
-0.166992 1.078614 0.407127 -0.774026 0.447944 -0.137500 
-0.782684 -0.748067 0.462427 0.530121 -0.179078 0.750335 
-0.804969 0.586078 0.869622 -0.939555 0.282959 -0.044856 
-1.236046 -0.022643 1.448876 0.290495 -0.501007 0.455929 
-0.762805 0.604665 1.105721 0.743047 -0.562837 0.342248 
0.274826 -0.008712 0.363032 0.481370 -0.226467 0.835813 
1.525409 0.466196 2.419736 -0.592752 -0.375183 0.705668 
-0.223362 -0.303755 -0.114645 -0.525880 -0.134532 -0.835112 
0.492687 0.900980 1.062287 -0.859704 -0.149305 -0.098784 
-0.843886 -0.662886 0.521701 0.575606 -0.191538 0.709128 
-0.577323 -0.956030 0.212315 0.383143 -0.234638 0.845054 
0.634478 0.453165 0.485394 0.619678 0.691155 -0.266792 
-0.030380 -0.764802 0.137016 -0.345084 -0.410575 0.833854 
0.374239 -0.692596 0.055501 0.624715 -0.020005 -0.742384 
0.995975 0.252634 1.593174 -0.857946 -0.451421 0.214173 
-0.357830 -0.128287 -0.028100 -0.644307 -0.033295 -0.742469 
0.091645 0.955910 -0.025782 0.485158 0.476911 -0.710566 
0.985162 -0.370055 0.723762 0.761984 0.284845 -0.499392 
0.568525 1.228272 1.634338 0.901836 0.321660 -0.250091 
-0.056856 1.064821 0.487533 0.089020 0.152896 0.945320 
-0.411187 0.419112 0.357493 0.332904 -0.378215 0.733419 
-0.095475 -0.408318 0.276405 -0.055472 -0.269133 0.956989 
-1.322131 -0.025444 1.580720 0.490840 -0.614474 0.297861 
-0.909131 0.430714 1.686223 0.709643 -0.459959 0.441200 
0.309154 0.436803 0.379023 0.265576 -0.057759 0.959717 
-0.330599 -1.014061 0.006067 -0.331829 -0.020356 -0.921044 
0.474252 0.999946 1.169154 -0.841577 -0.023294 -0.233267 
-0.568570 0.313391 0.099920 -0.691958 0.158580 -0.692916 
1.389274 0.119017 2.135664 0.717143 0.315598 -0.596155 
0.881465 -0.022907 0.667616 -0.733444 -0.348156 0.533700 
-1.126232 0.731322 2.754222 0.776769 -0.426209 0.456375 
0.319205 0.024644 -0.059605 0.495423 -0.089162 -0.851486 
-1.528616 0.692220 3.197594 0.690752 -0.401538 0.600099 
1.037272 -0.754747 0.703063 0.597903 0.486969 -0.534264 
-0.862390 0.526378 1.383094 -0.876648 0.389433 -0.081740 
-0.033498 1.388903 0.183680 -0.585573 0.717665 -0.146227 
-0.611783 0.594275 0.638109 -0.557304 0.604599 -0.498280 
-0.562804 -0.496660 0.212896 -0.683919 0.043033 -0.670280 
-0.211796 -0.526044 0.215498 -0.284635 -0.313795 0.904380 
-1.038196 0.279400 1.649244 0.720554 -0.677912 -0.074194 
0.208532 -0.063178 -0.119412 0.482914 -0.083276 -0.863791 
-1.123226 0.054798 1.369784 0.455004 -0.472971 0.442255 
0.712855 1.004634 1.723525 0.869862 0.159552 -0.388310 
-1.403979 0.076245 2.027335 0.603155 -0.726939 0.191300 
0.524050 0.216645 0.100308 0.740991 0.085100 -0.655063 
0.881717 0.170564 1.065886 -0.794163 -0.416705 0.418404 
-1.473486 0.580356 3.063451 -0.707488 0.410300 -0.572570 
-1.416303 0.038412 1.932251 -0.652378 0.732412 -0.120755 
0.297562 -0.242844 -0.076046 0.555882 -0.122119 -0.811520 
1.570128 0.786241 2.713342 -0.631449 -0.506519 0.585295 
1.516322 0.714895 2.609233 0.656693 0.447757 -0.604980 
-1.163156 0.110060 1.569185 0.512333 -0.616029 0.184963 
0.173787 -0.346130 -0.131295 0.461119 -0.181149 -0.856653 
0.855493 -0.229521 0.586313 0.805923 0.200751 -0.510068 
0.922477 1.134552 2.182390 -0.692352 -0.448788 0.553774 
0.468916 1.119028 1.321012 -0.043785 0.614083 -0.723678 
0.057067 -0.298553 -0.176857 0.355926 -0.213944 -0.894600 
-1.280545 -0.240327 0.996175 -0.844680 0.269949 -0.447611 
0.261421 0.868548 0.363804 0.774589 0.118873 0.575581 
-0.979402 -0.808940 0.589464 0.557492 -0.419225 0.624313 
0.992918 -0.051511 0.986619 -0.824315 -0.363630 0.361767 
-0.254475 0.011320 -0.093643 -0.457622 -0.084980 -0.877174 
0.683862 -0.011099 0.445446 -0.497767 -0.340889 0.705407 
1.102284 -0.201721 0.890722 0.828715 0.345448 -0.328062 
1.329836 -0.451742 1.092924 0.775196 0.477609 -0.371808 
0.121800 1.189654 0.459745 -0.332458 0.649907 0.651724 
0.666208 0.688437 1.170258 0.935821 0.300102 -0.097636 
0.814548 0.532758 1.474631 0.869608 0.300264 -0.306116 
0.335966 -0.622150 0.013601 0.659288 -0.050676 -0.719024 
-0.886241 0.899475 2.331534 0.831183 -0.376667 0.399312 
-1.010209 0.204512 1.407928 -0.736524 0.510317 -0.262349 
-1.265553 -0.180764 1.194733 -0.779852 0.447192 -0.415419 
0.500571 0.847018 0.984504 0.467199 0.593301 -0.515480 
1.215609 -0.319427 1.150787 0.785166 0.466436 0.046173 
-0.724102 0.484190 0.684505 0.865005 -0.240620 0.379332 
-1.129571 0.340479 2.143244 -0.727191 0.647127 -0.126634 
0.607372 -0.737997 0.309169 0.591813 0.115439 -0.722339 
0.744799 0.415581 1.085505 -0.729559 -0.509915 0.431554 
0.124416 0.762295 -0.102981 0.475560 0.363663 -0.763777 
-0.810127 0.576059 1.569383 0.803048 -0.528032 -0.134811 
-0.551696 0.616922 0.600478 -0.558421 0.643861 -0.396273 
1.304426 -0.123851 1.836178 -0.683348 -0.279900 0.634805 
1.330448 0.883349 2.543782 0.680867 0.401308 -0.609493 
0.405957 1.194329 1.456308 -0.805425 -0.293294 0.336313 
-0.653273 1.059677 1.267653 -0.972944 0.115211 0.087382 
-1.293475 0.176906 2.476442 -0.757509 0.568112 -0.294878 
-0.985438 0.945991 2.679037 -0.842510 0.262146 -0.454002 
0.637279 0.408437 0.665991 -0.932620 -0.145613 0.265075 
-0.137075 -0.154582 0.377805 -0.201356 -0.309577 0.924407 
-0.875695 -0.302743 0.487104 -0.743634 0.168477 -0.572148 
-1.204671 0.034695 1.501049 0.386636 -0.550869 0.338619 
-0.283729 0.528570 -0.096396 -0.484785 0.032365 -0.864372 
-0.729686 0.336311 0.412018 -0.763948 0.312035 -0.512769 
1.792476 0.712957 2.886564 -0.628649 -0.472444 0.617363 
1.311867 0.101057 2.002612 -0.621059 -0.261000 0.721928 
-0.231349 1.097699 0.273097 -0.888732 0.432925 0.011330 
-0.881438 0.085417 0.545981 0.610555 -0.362728 0.602028 
0.372101 -0.367661 0.182975 0.321571 -0.234375 0.856470 
0.276979 -0.818387 -0.016231 0.045692 -0.121653 -0.947128 
-0.794736 -0.668476 0.464032 0.554053 -0.191920 0.727003 
-0.167004 -1.163776 -0.082779 -0.365102 0.120700 -0.854760 
-1.419473 0.113457 2.605778 0.720151 -0.562275 0.364074 
-0.753814 0.925749 1.878391 -0.948489 0.244391 -0.104193 
0.972900 0.522779 1.737766 0.841990 0.500190 -0.166341 
1.712888 0.528427 2.665602 0.630446 0.489467 -0.596173 
-0.369336 0.629927 0.314585 -0.431798 0.396464 0.749166 
-0.894971 0.261070 0.617423 -0.820460 0.360624 -0.416420 
-0.638946 0.834014 0.918613 0.918003 -0.167470 0.008262 
1.140154 0.597006 2.078992 0.721247 0.334682 -0.577679 
0.941127 -0.122629 0.712838 -0.777342 -0.311719 0.501921 
-0.675486 0.672974 0.768798 -0.553200 0.569618 -0.597497 
1.242354 1.108574 2.605537 -0.665997 -0.488447 0.554119 
0.853023 0.090974 0.638655 0.855901 0.285222 -0.391578 
-1.210492 -0.354873 0.909171 0.799856 -0.232731 0.511282 
1.084047 -0.165128 1.025393 0.820122 0.377685 -0.130070 
0.814515 0.321688 1.157767 -0.766635 -0.471889 0.408406 
0.317151 -0.990080 0.060112 -0.194622 -0.158081 0.953020 
0.354771 0.576197 -0.042227 0.585631 0.156770 -0.732908 
-0.159265 0.437522 -0.118369 -0.367097 0.019087 -0.927092 
1.077384 -0.592258 0.818172 0.697336 0.354761 -0.501650 
1.170231 0.781321 2.284120 -0.693465 -0.333373 0.629679 
0.151689 -0.479190 -0.088299 0.220678 -0.374812 -0.886956 
-0.659996 0.105067 0.235255 -0.749966 0.136676 -0.617517 
-0.769866 0.654813 0.923890 -0.948195 0.293962 0.012055 
1.300559 -0.244874 1.745095 -0.832871 -0.362500 0.315435 
1.050731 -0.076622 1.182307 -0.811831 -0.426135 0.161538 
-0.736509 1.166016 2.018237 -0.947733 0.226773 -0.119566 
-0.869862 0.447856 1.173369 -0.887947 0.417638 -0.076074 
-0.678598 0.952837 1.066386 -0.574410 0.537623 -0.452291 
1.154938 -0.004294 1.672539 -0.871131 -0.398223 0.099352 
-0.320442 0.840977 0.149429 -0.897736 0.359809 -0.209019 
0.127750 0.012773 0.448778 0.259070 -0.281578 0.918039 
1.256365 -0.093559 1.763135 0.773905 0.294098 -0.546735 
-0.405808 -1.024835 0.063043 0.255081 -0.126417 0.924884 
-0.109443 0.159561 -0.170390 -0.453527 0.001625 -0.884688 
0.831837 -0.614766 0.554947 -0.582821 -0.303077 0.648655 
0.265983 0.981130 0.343242 0.876929 0.181493 0.343554 
-1.508361 -0.227011 1.518003 0.337005 -0.543276 0.563155 
0.106936 -1.101486 -0.106915 0.378030 0.228641 -0.882582 
0.589421 0.514250 0.385203 0.704548 0.621813 -0.238627 
0.751289 -0.286616 0.471729 0.788461 0.148065 -0.541866 
0.124914 -0.803775 0.099851 0.016077 -0.404168 0.881389 
-0.951844 0.252658 1.151293 0.801220 -0.489407 0.292086 
0.360617 1.362198 1.462300 -0.757716 -0.261215 0.416418 
0.417539 0.511989 0.042294 0.655214 0.184046 -0.597547 
1.120026 -0.201577 1.164970 -0.793387 -0.457568 0.000545 
-1.031315 0.406940 2.162330 -0.770969 0.575588 -0.201980 
-0.585949 1.116195 1.185875 -0.187224 0.605550 -0.666922 
1.203773 -0.276353 1.561124 -0.874912 -0.300958 -0.008146 
-0.970188 0.224645 1.279174 0.809978 -0.515699 0.234534 
-0.894379 0.596149 2.113392 -0.898289 0.349141 -0.247138 
1.380322 0.019489 2.057440 -0.669505 -0.291833 0.667084 
-0.863311 0.964946 2.351792 0.855664 -0.378043 0.335150 
-0.165486 -0.389138 -0.131900 -0.445797 -0.207352 -0.858648 
1.140515 0.871543 2.300763 -0.689852 -0.377762 0.610391 
1.041338 -0.102102 0.983941 0.835871 0.344377 -0.251364 
0.573499 0.495602 0.575342 0.572924 0.771397 -0.130267 
0.752229 -0.597572 0.468123 0.656839 0.180454 -0.636973 
-1.378814 0.115591 2.079200 0.601345 -0.734255 0.162738 
-0.271782 -0.199215 -0.087007 -0.496547 -0.133192 -0.851997 
0.102118 -0.429858 0.271502 0.070711 -0.284268 0.953656 
0.607123 0.196491 0.400402 -0.461202 -0.414470 0.737679 
0.803328 -0.884147 0.428516 -0.456897 -0.450476 0.680191 
-1.283385 0.301160 2.588680 0.741150 -0.423697 0.484847 
-0.172756 0.206834 0.490502 -0.361299 -0.140080 0.909119 
-0.772846 0.401651 0.672953 0.922355 -0.156230 0.339972 
-0.228748 1.045193 0.355791 -0.819849 0.496759 0.277966 
0.661002 -0.137205 0.394598 -0.436384 -0.292857 0.745668 
-0.960088 0.942716 2.609395 -0.857614 0.277709 -0.411389 
-0.776268 0.741146 1.319363 -0.917373 0.278457 -0.010997 
-1.460499 0.779293 3.177348 0.700947 -0.405443 0.581125 
-0.104110 1.013683 0.493751 -0.151611 -0.127450 0.965187 
0.490930 0.104542 0.087580 0.751000 0.055243 -0.645021 
0.871527 -0.886646 0.462126 -0.466388 -0.552171 0.626989 
0.122923 0.145539 -0.163063 0.459284 -0.007461 -0.881687 
1.152688 -0.180650 1.352280 0.791718 0.487808 0.156312 
0.205211 0.307832 0.490411 0.433509 -0.028445 0.892722 
0.110704 1.079327 0.476559 -0.099064 0.093963 0.931518 
-1.014643 0.176030 1.308249 -0.828791 0.493950 -0.218777 
0.129138 -0.200949 -0.155525 0.455674 -0.124259 -0.865420 
0.157378 1.135030 0.516773 -0.358121 0.104546 0.884531 
0.740448 1.121786 1.866925 -0.610276 -0.426815 0.661752 
0.584406 -0.537982 0.286923 0.679836 0.081790 -0.661338 
0.155728 0.550064 -0.131657 0.397719 0.049608 -0.904253 
-0.570086 1.132969 1.265160 0.808893 0.030197 -0.249797 
-0.765187 0.711009 1.392546 0.757234 -0.590588 0.257251 
0.775756 0.384236 0.935361 0.908089 0.328114 -0.166202 
0.517794 -0.872271 0.209841 0.535457 0.079576 -0.783746 
1.008593 0.065833 1.478350 -0.866186 -0.376183 0.133944 
-0.488774 0.584984 0.487660 -0.470106 0.855661 -0.086808 
0.547964 0.153895 0.143936 0.752942 0.088348 -0.635931 
0.563161 1.240206 1.708957 -0.689735 -0.385617 0.596064 
-0.874756 0.473609 1.319269 -0.875608 0.414197 -0.086973 
1.005976 -0.558232 0.744904 -0.641967 -0.373438 0.557475 
-0.989566 0.441411 1.887834 -0.754029 0.650896 -0.006201 
0.537358 -0.545369 0.235337 0.681227 0.055920 -0.667812 
0.296563 0.930272 0.181586 0.912025 0.363735 -0.167070 
-1.102355 0.700610 2.691245 -0.804544 0.351884 -0.468115 
-0.795084 0.718011 1.743587 -0.895006 0.368381 -0.037878 
0.242093 0.498839 0.425758 0.302937 0.000336 0.947406 
-0.615609 0.147236 0.182532 -0.732644 0.133374 -0.642086 
-0.944115 -0.245834 0.574291 0.716264 -0.257843 0.574405 
-0.083227 0.223759 0.513261 -0.218644 -0.134522 0.950805 
1.761257 0.231149 2.453060 -0.571859 -0.420252 0.701806 
0.229687 0.738572 -0.081269 0.478768 0.430920 -0.731876 
-0.638681 0.784351 0.972448 0.888234 -0.282170 0.056511 
-0.422744 -0.051223 0.037483 -0.727541 0.028828 -0.670933 
-0.292913 0.920671 0.283431 -0.910820 0.268692 0.197818 
0.109493 -0.496347 0.247070 0.113140 -0.322957 0.934969 
-0.982421 0.575811 2.361258 -0.845090 0.427572 -0.285220 
-0.309691 0.489140 0.380870 -0.346770 -0.016930 0.921238 
0.919825 0.602101 1.719479 0.838692 0.500321 -0.166038 
-0.648115 0.392633 0.573536 0.760740 -0.352728 0.462649 
0.341037 0.089757 -0.048363 0.516750 -0.065167 -0.835788 
0.354497 -0.932604 0.031927 0.505815 -0.004046 -0.846642 
-0.879318 0.322398 0.663994 -0.825413 0.417657 -0.374581 
-0.773254 0.783835 1.759744 -0.916759 0.304980 -0.096171 
-0.155876 -0.238258 0.339173 -0.202441 -0.318142 0.919401 
-0.716680 0.812315 1.517720 0.767732 -0.561975 0.017195 
0.714635 0.000410 0.379975 0.798351 0.147155 -0.554707 
-0.668060 1.054963 1.423743 -0.954214 0.114975 0.024235 
1.473131 0.258724 2.264104 0.618886 0.274308 -0.724675 
-0.760767 0.433813 0.611772 -0.375770 0.830995 -0.374711 
-0.631574 0.340424 0.450424 0.398204 -0.571655 0.685003 
0.716504 -0.884720 0.377770 0.528594 0.280236 -0.694903 
-1.380653 -0.411386 1.131771 0.847423 -0.233271 0.470794 
1.375240 -0.459410 1.145767 -0.758461 -0.524753 0.368941 
0.007135 -0.992647 -0.090175 0.541697 0.214956 -0.792170 
-1.244344 0.365159 2.593477 0.746991 -0.379583 0.525750 
-1.032334 0.675201 2.570216 -0.824554 0.381193 -0.408058 
0.118816 0.321173 0.528531 0.305437 -0.028425 0.938113 
-1.080214 0.275781 1.754995 0.532917 -0.502032 0.631216 
-0.616197 0.898356 1.068223 0.862580 -0.180785 -0.042827 
-0.575229 1.148369 1.333152 0.703882 -0.618063 0.346468 
-0.648332 1.292081 1.841437 -0.682540 0.688872 -0.010363 
-1.012018 0.377516 1.755944 -0.753570 0.648660 0.027302 
1.217278 -0.310251 1.052820 0.800550 0.431464 -0.199333 
-0.264147 -0.939011 -0.010216 -0.050123 -0.055153 -0.995503 
1.605228 0.547853 2.573273 -0.611526 -0.421963 0.660697 
0.386964 -0.102158 0.010936 0.745293 -0.023441 -0.654494 
-1.452390 0.223770 2.758725 0.712257 -0.528946 0.430814 
-1.529806 -0.074227 1.908722 0.623546 -0.739955 0.206030 
-0.588211 1.152229 1.490023 0.714668 -0.505168 0.451137 
0.322342 0.853273 0.230940 0.906550 0.334007 0.063489 
1.027266 0.119081 1.525582 0.816805 0.313154 -0.327381 
0.907205 0.015963 0.780856 -0.792526 -0.377822 0.460499 
-0.035155 1.313387 0.142150 -0.596748 0.417774 -0.632194 
0.960018 1.017472 2.132061 0.794818 0.365612 -0.468470 
-1.274778 0.082386 1.704226 0.554727 -0.566587 0.563676 
-0.482742 -0.120441 0.111437 -0.753201 0.030404 -0.635229 
-0.989740 0.261841 1.474796 -0.784528 0.523192 -0.270207 
1.105237 0.167364 1.690028 0.711524 0.234913 -0.606680 
-0.590329 0.181795 0.310984 0.296687 -0.443427 0.793091 
0.699677 -0.643466 0.412093 -0.543955 -0.248252 0.714607 
-1.336705 0.014000 1.697835 0.641543 -0.678871 0.312328 
-0.585522 0.385935 0.190838 -0.714680 0.257269 -0.587272 
1.136418 -0.295496 1.430860 0.874029 0.218597 0.125045 
-1.198351 0.454087 2.607872 -0.773482 0.471324 -0.386335 
0.692831 1.171573 1.799096 0.867840 0.332778 -0.321966 
0.782547 -0.654938 0.499502 0.640923 0.202004 -0.634866 
-0.671108 0.498662 0.423713 -0.777319 0.538489 -0.267509 
-0.168238 -0.679127 -0.031343 -0.061759 -0.142993 -0.984840 
-0.497738 0.095682 0.078532 -0.716706 0.085960 -0.673950 
-0.693637 1.238228 1.869792 -0.927246 0.321705 -0.173348 
0.945901 0.592245 1.807179 -0.726458 -0.343662 0.586713 
-0.832001 0.224901 0.588032 0.586596 -0.498513 0.568203 
-0.033139 -0.936408 -0.068513 -0.275347 0.180861 -0.924198 
-1.195979 -0.115688 0.996703 0.784644 -0.391861 0.459676 
0.697288 0.266698 0.481448 0.839430 0.272402 -0.389470 
-0.302652 -0.135635 0.309977 -0.504450 -0.248160 0.818764 
-0.442619 0.012579 0.244649 -0.111278 -0.279316 0.869632 
1.368147 0.307892 2.220838 0.633643 0.228687 -0.730367 
0.479146 0.033130 0.223804 -0.263336 -0.347530 0.874590 
-0.612887 -0.084234 0.230828 -0.774607 0.077861 -0.595819 
0.664110 1.275554 1.860897 0.539703 0.757385 -0.270050 
-0.487195 -0.679931 0.142623 -0.605800 0.024726 -0.746323 
-0.659509 -0.892171 0.324106 -0.548785 0.122430 -0.757314 
-0.729866 0.645299 1.005364 0.729540 -0.558756 0.384124 
0.891591 0.050560 0.681788 0.861671 0.291436 -0.386833 
-0.583659 1.358682 1.561261 -0.773311 0.552546 -0.028716 
-1.262466 -0.180216 1.123031 -0.787639 0.418405 -0.431104 
-0.922540 0.329068 1.458245 0.809205 -0.549680 0.089813 
-0.055200 0.396472 0.530762 -0.175906 0.027504 0.969589 
-1.190539 0.143482 1.678662 0.678279 -0.702395 0.073127 
0.434980 -0.151779 0.189835 -0.016965 -0.231558 0.908988 
0.359874 -0.302666 0.213885 0.403866 -0.234064 0.834658 
-0.664606 0.120330 0.365289 0.370002 -0.405114 0.749727 
-0.130237 -0.892930 0.044518 0.070111 -0.421808 0.872431 
-0.014573 0.698586 0.445932 -0.028454 0.111954 0.986746 
0.828472 1.047924 1.939357 0.829686 0.366246 -0.383649 
-0.149341 0.958919 0.004894 -0.566856 0.453573 -0.665016 
-0.151834 -0.712589 0.156790 -0.095992 -0.356400 0.894224 
-0.672845 0.831676 1.128471 0.720185 -0.580845 0.369582 
1.064368 -0.175949 1.399798 -0.889109 -0.287992 -0.098276 
-0.634427 -0.092565 0.306744 0.296547 -0.306359 0.802092 
-0.674239 0.909036 1.525076 0.762851 -0.489150 0.123050 
-1.201625 0.212930 1.852780 -0.691147 0.718846 -0.012082 
1.081960 0.553607 1.975708 -0.754616 -0.392108 0.522892 
-0.395541 -1.195762 0.059046 -0.406759 -0.021635 0.721752 
-0.818203 0.582523 1.170566 -0.909390 0.354252 -0.033308 
-0.808950 0.194665 0.381936 -0.770979 0.215298 -0.565820 
0.497898 0.606917 0.343680 0.751260 0.616884 -0.101327 
0.026694 0.570728 -0.169456 0.330144 0.092293 -0.935256 
-1.230345 0.890133 2.995297 0.753708 -0.243960 0.585086 
0.928090 0.276300 1.468480 0.859214 0.377093 -0.322314 
-0.685375 1.171625 1.799735 -0.965107 0.181522 -0.049453 
0.818015 0.342260 1.228781 -0.771921 -0.477710 0.393764 
0.691220 1.105474 1.754367 0.866961 0.356351 -0.302701 
1.169942 0.041104 1.729798 -0.861097 -0.425820 0.187615 
0.580293 0.613935 0.872573 -0.949653 -0.290629 0.036144 
0.659651 0.304056 0.406907 0.827106 0.249666 -0.407566 
0.071997 -0.562604 0.226430 0.152784 -0.312717 0.925457 
-0.942910 0.214508 0.646863 -0.832147 0.346585 -0.411737 
-0.703979 0.634149 0.884011 0.734693 -0.532855 0.380859 
-0.776348 0.760346 1.685524 -0.892104 0.335754 0.005580 
1.070717 -0.668991 0.803385 -0.608102 -0.412825 0.553699 
-1.016430 0.494047 2.381884 0.800696 -0.296834 0.513569 
0.765148 -0.732520 0.473348 -0.519437 -0.285779 0.705541 
0.666384 0.827563 1.529743 -0.698666 -0.587557 0.320381 
1.075016 -0.145769 1.108902 -0.804437 -0.425527 0.126233 
-0.066047 0.504798 0.511402 -0.175015 0.104012 0.962004 
-1.478203 0.709451 3.152178 0.699150 -0.408370 0.582863 
0.591317 0.079492 0.213596 0.769355 0.099251 -0.608473 
0.943703 0.096968 1.043606 0.866302 0.325196 -0.351186 
-0.602727 1.189194 1.571673 0.719336 -0.619534 0.241325 
0.489260 -0.285429 0.171749 -0.189927 -0.229452 0.917820 
-1.315449 0.182306 2.239437 -0.681089 0.691324 -0.129263 
-1.051286 0.919949 2.803181 -0.811049 0.247539 -0.527394 
0.772124 0.707596 1.531606 0.814008 0.225202 -0.420684 
1.466417 0.597186 2.470821 -0.615216 -0.386863 0.677325 
-0.793264 -0.955646 0.324832 -0.446158 0.530444 -0.676176 
0.622629 0.170562 0.229204 0.761883 0.125578 -0.615229 
0.322229 0.716094 0.358583 0.733198 0.254598 0.589026 
0.111105 -0.346536 0.295502 0.087431 -0.348496 0.928694 
-1.478691 -0.081175 1.733571 -0.661451 0.698523 -0.226502 
-0.909327 -0.401931 0.557855 0.664739 -0.232954 0.623914 
-0.289240 0.951818 0.203223 -0.913216 0.364037 -0.110866 
-1.357293 0.161939 2.183812 0.630431 -0.773045 0.036674 
-0.766103 0.573188 1.043822 0.741046 -0.555817 0.359431 
-1.587798 -0.212469 1.669571 -0.586158 0.658772 -0.376078 
0.531760 0.066232 0.289624 -0.335533 -0.362374 0.823857 
0.195229 1.118743 0.297054 0.490230 0.156051 0.763538 
0.666199 0.503578 0.956436 -0.685338 -0.547327 0.467173 
0.618119 0.742886 1.026361 0.905006 0.389099 -0.075750 
0.704059 1.216749 1.854023 0.857081 0.347601 -0.331403 
-0.149627 1.242448 0.315814 -0.596105 0.774079 0.120434 
1.063940 -0.041000 1.336842 -0.810497 -0.459377 0.081346 
1.403964 0.392018 2.265251 -0.677048 -0.478503 0.536855 
0.049564 -0.000183 0.453580 0.138623 -0.306147 0.937812 
-1.406769 -0.246507 1.321834 0.032085 -0.372438 0.820514 
-1.465964 -0.048984 1.799202 -0.657298 0.709718 -0.196535 
-0.772494 0.419498 0.528955 -0.806849 0.449077 -0.331910 
1.788283 0.265899 2.511313 -0.579354 -0.437479 0.684656 
-0.938543 -0.525712 0.612506 0.647249 -0.211707 0.644080 
0.304985 -0.478371 -0.030008 0.635697 -0.103430 -0.740082 
-1.417238 0.013799 1.855786 -0.659254 0.719368 -0.146915 
-1.106394 0.017811 0.715567 -0.865248 0.255095 -0.425938 
0.243460 1.068712 0.288501 0.900529 0.403017 0.072085 
0.770515 1.004476 1.808984 0.839615 0.352003 -0.366670 
-0.600148 0.974243 1.004641 0.838079 -0.088711 -0.048116 
-0.623056 1.245702 1.610490 -0.975092 0.169565 0.031749 
1.006999 0.083176 1.408174 -0.826441 -0.443403 0.195733 
0.791615 0.575313 1.524706 -0.767007 -0.521971 0.298701 
-0.248475 -0.289463 0.287787 -0.402373 -0.295806 0.846092 
0.031312 1.055820 0.493192 -0.004349 0.167617 0.949675 
1.183353 -0.242214 1.332547 0.780999 0.500961 0.226010 
-0.347596 -0.076881 0.296651 -0.549898 -0.219237 0.802498 
-1.103671 -0.726700 0.748123 0.636145 -0.377689 0.577766 
-0.765600 0.691826 1.058851 -0.939060 0.295275 0.014814 
0.845481 0.712142 1.687355 0.855962 0.413400 -0.197182 
-1.126925 0.129066 1.509116 -0.500593 0.473732 -0.572798 
-1.266870 0.221437 2.202325 0.647817 -0.757313 0.011936 
-0.088390 -0.336093 0.299295 -0.059859 -0.350028 0.929267 
-1.361097 0.117633 2.516680 -0.743517 0.575361 -0.314279 
0.237634 0.806357 0.406895 0.588216 0.123122 0.789102 
0.220598 0.923476 0.025583 0.670541 0.429178 -0.600231 
-0.911508 -0.049895 0.551030 0.619965 -0.294144 0.600602 
-0.520574 1.340561 1.436802 0.884753 -0.098730 -0.322694 
0.690069 0.626194 1.139267 0.929449 0.320507 -0.099291 
1.696501 0.802883 2.853399 0.646036 0.431747 -0.624827 
-0.149432 0.514354 0.507243 -0.358026 0.067539 0.930297 
0.544177 -0.040432 0.185982 0.778312 0.061806 -0.601456 
-0.104298 -0.438138 -0.126230 -0.262525 -0.329018 -0.894604 
0.063963 -0.752678 -0.046939 0.138196 -0.018462 -0.958272 
0.597801 -0.127313 0.325423 -0.362999 -0.293507 0.798512 
-0.161014 1.160269 0.518393 0.462299 0.364592 0.764173 
1.602116 0.315102 2.363219 0.615614 0.485353 -0.592513 
-0.095038 1.296928 0.174537 -0.692945 0.615388 -0.323430 
0.886796 -0.103949 0.655398 -0.716991 -0.316065 0.545689 
-1.472802 -0.170542 1.561979 0.420388 -0.585995 0.456650 
0.644351 0.489662 0.879922 -0.667676 -0.590392 0.451056 
1.279745 0.110298 1.940989 0.795507 0.357067 -0.426724 
1.079486 0.090193 1.613638 -0.882327 -0.406868 0.038737 
-0.789191 -0.475827 0.426549 0.597698 -0.223927 0.682197 
0.612611 -0.973397 0.219573 0.460471 0.322775 -0.745182 
-0.992192 0.750276 2.555525 -0.842146 0.350825 -0.404905 
-0.108062 0.900671 -0.050831 -0.533421 0.401612 -0.718929 
0.037641 0.209134 -0.208676 0.459181 0.040648 -0.883962 
0.788822 0.155646 0.563336 0.844879 0.272331 -0.403892 
-0.703680 -0.100341 0.323225 -0.797144 0.101192 -0.559882 
1.706193 0.379277 2.526982 0.610673 0.469993 -0.623873 
-0.087943 0.722290 0.437567 -0.080374 0.083200 0.990490 
-1.331841 0.174878 2.113580 -0.651804 0.755506 -0.027942 
-0.366730 0.700448 0.231821 -0.677730 0.656734 0.111165 
0.017499 -0.076540 0.420137 0.061646 -0.327728 0.939391 
-0.984817 0.645133 2.436600 -0.845643 0.390023 -0.338272 
0.855078 0.339592 1.381302 -0.795205 -0.465169 0.364326 
-0.255657 -0.793808 -0.022598 0.025469 -0.135054 -0.980189 
-0.584218 0.430153 0.531264 0.798481 -0.290476 0.464534 
-0.677364 0.921143 1.452088 0.743671 -0.592082 0.184366 
-0.539605 1.250701 1.431373 0.711324 -0.489249 0.466366 
-0.007784 0.620286 0.481146 0.007379 0.296921 0.939788 
0.051643 0.973262 0.500328 0.176843 -0.068802 0.975152 
-0.297715 0.764584 -0.012946 -0.672340 0.505194 -0.494536 
-0.410604 -0.070256 0.239053 -0.246498 -0.203154 0.883365 
-0.964368 0.555993 2.290535 -0.856416 0.428873 -0.249421 
-0.767312 0.567622 0.932520 0.738749 -0.524008 0.407608 
0.850326 1.129598 2.057460 -0.659880 -0.440102 0.596484 
1.269192 0.901704 2.494568 0.688388 0.405747 -0.599597 
-0.282074 -0.983635 0.048664 0.253159 -0.207581 0.921181 
-0.291590 -0.132417 -0.076671 -0.494760 -0.115936 -0.852170 
1.530614 0.213155 2.283047 0.617240 0.302642 -0.715276 
-0.877049 -0.786955 0.561475 0.553128 -0.212945 0.715529 
-1.162156 -0.046529 0.997979 -0.823956 0.368638 -0.394699 
-0.656582 0.219051 0.206819 -0.728277 0.162592 -0.642011 
1.410611 -0.173574 1.973947 -0.736301 -0.320416 0.580313 
-1.161157 -0.060237 1.078396 0.786930 -0.423721 0.412061 
0.306705 -0.559247 -0.028020 0.601714 -0.091971 -0.768965 
0.138250 -0.016333 -0.157084 0.483733 -0.044686 -0.865067 
1.394808 0.612103 2.409462 -0.614390 -0.365072 0.690549 
0.381351 -0.002754 -0.028564 0.647013 -0.029838 -0.742537 
-0.915019 1.067432 2.607315 -0.785763 0.563291 -0.224812 
1.387710 1.101110 2.751169 0.617527 0.617524 -0.462802 
-0.220778 -0.153167 -0.114077 -0.496320 -0.103930 -0.853873 
-1.054937 0.122658 1.364744 -0.813587 0.516456 -0.231850 
-0.862855 1.032344 2.415698 -0.913931 0.287362 -0.279797 
0.451093 -0.779054 0.138963 0.572752 0.033404 -0.774037 
0.072774 1.136213 0.461126 -0.222312 0.367274 0.881598 
1.390284 0.688096 2.460285 0.675259 0.498584 -0.528585 
0.357782 -0.213942 0.241019 0.433105 -0.219539 0.829748 
0.154902 -0.286350 0.320212 0.179021 -0.326070 0.923085 
1.035567 0.291343 1.740084 -0.724809 -0.349653 0.565778 
-0.832236 0.586871 1.311854 -0.894130 0.356497 -0.053669 
0.496250 -0.953571 0.167705 -0.371414 -0.190558 0.876911 
0.971767 -0.708144 0.694800 -0.571515 -0.373550 0.607116 
-0.332740 -0.398942 0.016269 -0.743224 -0.072861 -0.657158 
-0.829219 0.616642 1.383651 -0.890679 0.343653 -0.056187 
0.095525 -0.980539 -0.078903 0.255042 0.200085 -0.931615 
-0.213007 -1.164235 -0.028707 -0.036747 0.024743 -0.917742 
-1.314879 0.218968 2.555603 0.736991 -0.472404 0.433017 
0.305751 -0.607985 0.151698 0.301886 -0.255375 0.893018 
-0.987421 0.882251 2.638506 -0.842340 0.292267 -0.437387 
0.006809 0.290891 0.535826 0.103057 -0.074378 0.985582 
1.721397 0.950275 2.991635 -0.645525 -0.412194 0.635119 
0.286526 -0.637557 -0.055881 0.492751 -0.107606 -0.853622 
-0.881046 0.424464 1.479588 0.802807 -0.548785 0.053177 
0.773303 0.412808 1.209648 -0.749466 -0.505074 0.403319 
0.244413 -0.000199 -0.098898 0.468384 -0.086470 -0.872503 
1.590277 1.008180 2.899199 -0.655647 -0.311296 0.659713 
-1.029098 0.317772 1.720805 0.568572 -0.472016 0.635133 
0.596984 0.518672 0.729655 -0.894498 -0.342242 0.207439 
0.125591 1.021149 0.022078 0.526285 0.434412 -0.712964 
1.161057 -0.263738 1.034665 0.804702 0.411469 -0.111617 
0.223375 -0.961392 0.042605 -0.341705 -0.281760 0.872118 
-0.283939 -0.689138 -0.033945 -0.245618 -0.140639 -0.895884 
-0.074703 -1.186378 -0.138537 -0.176117 -0.642854 0.371322 
0.990724 0.721902 1.971100 0.769610 0.381047 -0.504663 
-1.112632 -0.392561 0.789788 -0.795012 0.174551 -0.525036 
0.696666 0.393039 0.522636 0.879263 0.406085 -0.208118 
0.988565 -0.049837 0.854487 0.856104 0.287185 -0.423591 
-0.249415 0.653634 0.429387 -0.464558 0.257161 0.802599 
0.188167 0.514929 0.471450 0.340765 0.038856 0.935180 
-0.844510 0.145569 0.523522 0.579539 -0.395998 0.619263 
0.949018 0.726072 1.913611 -0.768105 -0.434182 0.460276 
-0.869240 0.833445 2.218611 0.842467 -0.333230 0.409852 
-1.259324 -0.503057 0.990689 -0.818484 0.166876 -0.507500 
0.871910 0.229888 1.028826 0.884026 0.331821 -0.268789 
0.233700 0.173854 0.439636 0.441503 -0.160146 0.868095 
0.465168 1.206136 1.497298 -0.474644 -0.695023 0.530179 
0.369922 -0.758305 0.104783 -0.034597 -0.199985 0.923059 
-0.318354 -0.881757 0.088762 0.044251 -0.185222 0.935099 
0.148816 0.680469 -0.129607 0.395624 0.196830 -0.876720 
1.204414 1.164647 2.588516 0.624237 0.657997 -0.407748 
-0.291949 -0.057198 0.340122 -0.487711 -0.237677 0.830151 
-1.130658 -0.009924 1.166517 0.787575 -0.457707 0.365695 
-1.002316 0.162884 1.094367 0.815503 -0.447233 0.311171 
0.024161 -1.132268 -0.107404 0.521956 -0.638632 0.397724 
0.357906 1.429311 1.438347 0.609881 0.491316 -0.487389 
-0.414961 -0.121496 0.045337 -0.738780 0.009896 -0.659388 
-0.784786 -0.868667 0.420041 0.480826 -0.299140 0.737916 
0.717823 0.430282 0.999904 -0.712282 -0.518017 0.452041 
-0.625586 0.525447 0.369432 -0.762221 0.561234 -0.256845 
1.129294 -0.318502 1.359570 -0.877773 -0.297460 -0.258652 
-0.476950 -0.371421 0.142905 -0.750849 -0.007092 -0.628751 
0.335771 0.774637 0.092898 0.801548 0.466991 -0.280181 
-0.426976 0.543609 0.452768 0.768415 -0.303870 0.534126 
-0.232498 -0.528153 -0.050462 0.031772 -0.254189 -0.928259 
0.293234 -0.915964 0.075498 -0.084953 -0.184832 0.938932 
0.411565 -1.026764 0.067960 -0.277953 -0.162698 0.909705 
-0.752677 1.138023 2.171957 0.906272 -0.320247 0.262149 
1.225695 -0.397739 1.511209 0.878310 0.249210 0.040369 
-1.441796 0.658130 3.078277 0.706367 -0.418627 0.566101 
-0.602302 -0.909463 0.274004 -0.540004 0.079834 -0.782526 
-0.024382 1.103822 0.030226 -0.323386 0.426184 -0.836774 
-1.059703 0.361439 1.877762 -0.728298 0.683339 -0.021101 
-0.496511 -0.756336 0.148370 -0.569210 0.035694 -0.774926 
-0.681573 0.872502 0.984636 -0.489518 0.563089 -0.555013 
-0.076453 0.793363 0.457935 -0.164724 -0.167018 0.957923 
-0.692321 0.598989 0.756001 0.897853 -0.248181 0.253886 
-0.032769 0.823369 -0.122436 -0.421599 0.323238 -0.837254 
0.003387 1.388388 0.121016 0.259921 0.530406 -0.738233 
1.750541 0.889102 2.972593 0.647071 0.432865 -0.624315 
0.480456 0.998218 1.239033 -0.834827 -0.004836 -0.261465 
0.373104 0.203618 -0.031376 0.540746 -0.029100 -0.817717 
-0.366760 0.543817 0.319688 -0.328604 0.250363 0.845002 
-0.944242 -0.447558 0.606771 0.668225 -0.224480 0.623231 
-0.860205 0.478031 0.833562 -0.922930 0.282014 -0.122942 
-0.740585 0.821581 1.695445 0.810076 -0.469482 0.292179 
-0.859196 0.179642 0.453942 -0.789651 0.238996 -0.529148 
0.675001 0.573405 0.841694 0.712699 0.557597 -0.386420 
-0.766912 -0.549304 0.411778 0.571017 -0.212368 0.707486 
-0.390940 0.036875 0.291792 -0.377734 -0.195238 0.849385 
-0.755882 -0.204316 0.393817 0.414366 -0.238308 0.732827 
-1.345410 -0.203685 1.300517 0.011915 -0.357688 0.806375 
0.617608 0.810426 1.221723 0.948747 0.261127 -0.090796 
0.209089 0.644598 -0.118067 0.451497 0.164955 -0.856490 
-0.804484 -0.248578 0.427588 -0.775938 0.131275 -0.556773 
-1.214395 0.247156 2.259667 0.660201 -0.743289 -0.000898 
0.847696 0.732018 1.755615 -0.698783 -0.409949 0.554276 
-0.816092 0.562298 0.983592 -0.926703 0.326977 -0.036192 
1.420408 0.811045 2.581767 0.669504 0.419271 -0.609560 
0.471638 0.161266 0.050921 0.740545 0.053401 -0.661575 
-0.094893 0.646622 0.472336 -0.079585 0.245077 0.953469 
-1.217436 -0.119391 1.082346 -0.802423 0.402271 -0.410934 
-1.103589 0.334948 2.210529 0.684819 -0.722611 -0.016619 
-0.892513 0.168200 0.613802 0.643242 -0.446707 0.547206 
0.909635 -0.624793 0.636561 -0.594290 -0.338054 0.615985 
-1.415037 0.532550 2.966679 -0.720708 0.408081 -0.555332 
0.534684 1.146827 1.526129 0.938242 0.063554 -0.273443 
0.892503 0.082276 0.880500 -0.789907 -0.388273 0.454141 
0.293241 -0.775176 0.114106 0.123243 -0.217029 0.918311 
-0.657688 -0.651125 0.301945 -0.616370 0.086753 -0.714750 
-1.584823 -0.180411 1.733990 0.622559 -0.702340 0.324314 
-0.117787 0.429457 0.521230 -0.283762 0.058963 0.942032 
-0.533375 -0.142007 0.165735 -0.768083 0.040442 -0.612619 
-1.346563 -0.076093 1.529415 0.397953 -0.565928 0.407847 
-1.411401 0.169256 2.647450 0.720589 -0.534881 0.398761 
1.536951 0.121654 2.263439 -0.642984 -0.350356 0.673396 
0.231993 -0.672729 -0.030535 -0.083884 -0.185888 -0.967210 
-1.157317 0.288644 2.245033 0.664376 -0.743308 -0.030988 
-0.433092 -0.182628 0.076539 -0.753927 0.000868 -0.640390 
-0.118241 -0.909248 -0.065203 -0.165337 0.106436 -0.953143 
0.013569 -0.559089 -0.058923 0.389179 -0.334055 -0.834545 
0.602903 0.317301 0.284871 0.794182 0.197229 -0.491652 
-0.042342 0.921551 -0.070115 -0.424125 0.479103 -0.750039 
1.212061 0.725738 2.294031 -0.663085 -0.331936 0.660785 
-1.164290 -0.406558 0.862402 0.768527 -0.225412 0.539333 
0.639882 -0.670645 0.345624 0.618603 0.126750 -0.696670 
1.004979 1.005585 2.183952 -0.652554 -0.428356 0.619083 
-0.018412 1.157516 0.449696 0.040624 0.532932 0.821694 
-1.246165 0.431646 2.656756 -0.760887 0.472577 -0.409192 
0.176265 0.184915 0.482324 0.374571 -0.159738 0.900841 
1.717280 0.315266 2.482401 -0.582214 -0.419727 0.691613 
-0.999955 0.463504 2.000538 -0.743268 0.666997 -0.042530 
0.067318 0.292813 -0.189231 0.439067 0.042423 -0.895363 
1.250111 0.273772 2.010493 0.770406 0.370539 -0.474522 
-0.056157 -0.624274 0.213733 -0.272580 -0.360390 0.880562 
-1.061311 -0.250792 0.714732 0.763296 -0.253908 0.536213 
-0.345112 -0.949615 0.073948 0.162395 -0.166022 0.941908 
0.357252 0.652001 0.341394 0.453000 0.278793 0.741545 
-0.956649 1.009282 2.638008 -0.845326 0.361927 -0.369227 
-1.286999 0.847898 3.028890 0.733039 -0.403016 0.535730 
0.723073 0.943119 1.687398 0.864573 0.243707 -0.354466 
0.601245 0.551598 0.905519 -0.758566 -0.525033 0.339151 
1.441336 0.729940 2.547691 -0.654071 -0.433336 0.615209 
1.097839 -0.338956 0.845703 0.785975 0.342570 -0.447183 
-0.769670 0.828834 1.873852 0.789109 -0.574182 0.065079 
-0.790513 0.086746 0.468169 0.507239 -0.374104 0.665907 
0.013735 -0.322680 0.302638 -0.040976 -0.369453 0.925562 
-1.101400 0.319593 1.927243 0.629537 -0.604776 0.329374 
1.193897 -0.388177 0.948009 0.780654 0.398713 -0.416432 
1.072721 -0.070986 1.488114 -0.887011 -0.335557 -0.047946 
0.690320 0.372133 0.637031 0.493186 0.800140 -0.288119 
-0.806037 0.299317 0.632735 0.576624 -0.592762 0.533092 
-1.090279 0.038083 1.106606 0.802889 -0.437903 0.353993 
-0.214091 1.023760 0.442427 -0.638516 -0.201909 0.682176 
-0.143484 -1.049164 -0.048274 0.260470 -0.424377 0.852759 
-0.717930 0.464898 0.545640 -0.436890 0.800590 -0.345447 
-0.007580 1.361775 0.249562 -0.282939 0.634750 0.684827 
0.118191 -0.698693 -0.038173 0.004861 -0.115036 -0.983152 
0.470725 -0.857026 0.159517 0.535045 0.052878 -0.800425 
1.035388 -0.708184 0.754837 0.643902 0.374504 -0.536986 
1.166558 -0.462982 0.924042 -0.714784 -0.433993 0.463538 
-1.243099 0.190740 1.905249 -0.680253 0.727798 -0.020665 
0.724802 0.717639 1.467155 0.891247 0.249997 -0.266094 
-1.034429 0.141011 0.989461 -0.856764 0.363005 -0.301328 
0.533618 1.036802 1.348561 0.971250 0.185368 -0.090258 
0.623748 0.656416 1.125140 -0.665608 -0.575508 0.459088 
-1.349267 0.055689 1.817337 0.573209 -0.629085 0.422997 
0.783117 -0.202731 0.507269 0.827306 0.156637 -0.503674 
-0.712098 0.933081 1.378054 -0.940722 0.182921 0.034549 
0.865167 1.048655 1.998864 0.820280 0.362291 -0.410013 
0.917494 0.676405 1.793789 0.811030 0.459777 -0.317844 
-0.946223 0.495802 1.898777 -0.773045 0.624446 0.012895 
-0.885791 0.306862 0.763302 0.719874 -0.489734 0.461671 
-0.740781 0.012696 0.414141 0.437003 -0.344388 0.711770 
-0.163496 0.964351 0.466359 -0.319491 -0.133763 0.904413 
-0.993006 0.081198 0.574514 -0.828266 0.235654 -0.486436 
-0.329445 0.690538 -0.048301 -0.607988 0.374441 -0.627549 
-0.929489 0.522015 1.964720 0.798076 -0.566690 0.129513 
-0.232543 0.164063 0.441557 -0.418908 -0.175786 0.876472 
0.127728 0.995440 0.488715 0.190615 -0.185832 0.961633 
-1.469955 -0.025927 1.894343 0.608141 -0.708810 0.263469 
0.686280 -1.012665 0.215877 0.408615 0.532731 -0.705692 
1.007422 0.074513 1.335079 0.843815 0.401435 -0.212750 
-0.697206 0.881069 1.058577 -0.962162 0.220390 0.053251 
-0.590014 1.028575 1.060042 0.810756 -0.022468 -0.123645 
-1.165250 -0.081004 0.933553 0.797737 -0.370347 0.455710 
1.762381 0.528937 2.716975 0.623939 0.477929 -0.617235 
-0.017099 0.490677 -0.180693 -0.362757 0.074914 -0.927710 
0.599905 0.383768 0.306056 0.813329 0.285058 -0.396577 
-0.379569 0.238969 -0.032973 -0.509160 0.005118 -0.838129 
-1.367157 0.577961 2.941598 -0.732529 0.388119 -0.551033 
0.505217 -0.522970 0.174075 -0.248525 -0.189752 0.900646 
-1.013226 -0.647533 0.727831 -0.721039 0.118527 -0.611161 
0.742427 0.093615 0.532225 -0.596361 -0.382671 0.637870 
-0.356785 -0.531003 0.129522 -0.185394 -0.220471 0.929765 
0.904932 0.281280 1.385301 0.874343 0.387810 -0.270509 
-0.563540 1.243211 1.550081 0.864150 -0.346960 0.342436 
0.716039 -0.710997 0.426705 0.613931 0.171383 -0.672532 
1.186494 -0.320791 1.497482 0.864348 0.237794 0.020422 
0.582509 1.068331 1.581684 -0.546197 -0.612014 0.530773 
-0.491575 0.479928 0.477983 0.764291 -0.321086 0.512909 
0.692781 0.333819 0.708138 -0.967985 -0.080385 0.214768 
-0.319958 0.841623 0.295474 -0.899987 0.260669 0.309546 
0.509609 0.785640 0.921748 -0.873443 -0.323233 0.096722 
0.508847 0.587220 0.580725 0.704550 0.654688 -0.139138 
-1.197007 -0.285842 0.867049 -0.838488 0.201742 -0.476625 
0.273795 -0.944476 -0.014295 -0.011238 -0.070284 -0.992642 
-0.617935 0.922593 0.956310 -0.511380 0.545684 -0.550397 
1.105266 -0.262637 0.855358 0.812832 0.339576 -0.430250 
