-1.765549 0.793910 -0.667981 0.753125 -0.276414 -0.564166 
1.464532 1.563309 -0.059116 -0.017640 0.099371 -0.959922 
-0.388266 -1.112594 0.126962 -0.278843 0.000634 -0.852620 
0.077151 0.964926 0.047697 0.462736 0.412418 -0.767275 
1.656057 1.239128 -0.137928 -0.046535 -0.399692 0.902950 
0.214112 -0.164105 0.316589 0.361294 -0.170225 0.875949 
0.961907 1.195343 0.141524 0.618458 -0.061197 0.757636 
-2.043869 1.987219 -1.616598 -0.724440 0.144878 0.669058 
-1.010794 -0.332296 -0.185122 -0.523302 -0.116303 0.827256 
1.303111 1.158988 -0.057442 0.433882 -0.181071 0.829535 
0.962863 0.300326 -0.041341 -0.264379 0.164058 -0.898450 
1.136892 0.562874 -0.037212 0.553383 -0.149869 0.790878 
-1.240131 2.019636 -0.389369 -0.885831 0.293803 0.323002 
-1.546334 1.523068 -0.797477 -0.849754 0.319585 0.406967 
0.207883 1.059867 0.540067 0.406329 -0.366008 0.744526 
0.579755 -0.114715 -0.001711 0.172222 0.057615 -0.892172 
1.042179 1.637135 0.050936 -0.087820 -0.044301 -0.992942 
0.427130 -0.035145 0.234405 0.434655 -0.250551 0.848623 
-1.907914 0.775906 -0.885559 -0.752674 0.162538 0.621171 
-0.213071 -0.361903 -0.073970 -0.565113 -0.193759 -0.794608 
-0.880498 -0.549986 -0.135620 -0.495519 -0.068408 0.847107 
-1.160562 1.292025 -0.064072 0.538356 -0.112633 -0.811534 
-0.978412 0.553894 -0.021371 0.431574 0.116217 -0.891174 
-0.474426 -1.358053 0.136425 -0.272677 0.120605 -0.945278 
0.298856 0.792872 0.148162 0.768587 0.413366 -0.413101 
2.205053 0.744934 -0.245897 0.014674 0.072384 -0.988441 
0.876740 0.965585 0.180868 0.348735 -0.019799 0.927570 
-0.710286 0.489097 0.088945 0.107728 0.299845 -0.853010 
1.089941 1.411979 0.020023 -0.128535 -0.008033 -0.986202 
-0.157446 1.102578 0.565513 0.158300 0.038649 0.900464 
2.499775 1.962243 -0.140880 -0.039887 -0.240829 0.962923 
0.735605 0.359646 0.047841 -0.044299 0.156617 -0.904466 
-1.094894 0.576945 -0.112480 0.490299 0.066921 -0.849187 
-0.695705 0.036853 0.091262 -0.540533 -0.232125 0.795351 
-1.532418 1.479078 -0.730257 -0.853008 0.356452 0.362641 
1.244709 0.948905 -0.036182 0.480598 -0.125061 0.805117 
1.759771 1.560716 -0.121960 0.281209 -0.150734 0.932669 
2.914313 2.110565 -0.040745 0.151570 0.230193 -0.959278 
-0.916449 1.180951 0.152160 -0.195990 0.019196 0.930049 
0.110687 -0.378680 -0.114854 0.449393 -0.287161 -0.828727 
-0.306736 -0.690201 0.205304 -0.470979 -0.101948 0.859793 
-0.516737 -0.083310 0.159023 -0.540836 -0.227750 0.793977 
-1.354095 0.706767 -0.310954 0.614344 -0.050394 -0.747304 
-1.935053 1.711118 -1.434427 0.724012 -0.302717 -0.594207 
0.148257 -0.705035 0.044959 -0.007732 -0.323520 -0.934408 
0.392738 0.584125 0.212423 0.714042 0.389804 -0.513167 
2.089898 1.536446 -0.210710 -0.151159 -0.011527 -0.978817 
-2.047474 1.860183 -1.595836 0.730226 -0.129191 -0.667660 
-0.041977 -0.603641 0.289196 -0.309788 -0.189408 0.924443 
-0.413187 0.582965 0.389812 -0.407701 0.171538 0.829381 
1.779642 2.094106 -0.043669 -0.212158 0.473297 -0.827585 
-1.195812 0.013445 -0.245889 -0.567167 -0.186119 0.797060 
-1.363506 1.429649 -0.433377 0.766917 -0.110534 -0.600811 
-1.866889 0.992095 -0.993926 0.753999 -0.215208 -0.606027 
-0.787889 0.502552 0.067664 0.267918 0.298647 -0.879579 
0.706285 -0.048817 0.062638 0.526401 -0.187603 0.822243 
2.686485 2.181449 -0.060686 0.090578 0.533187 -0.809874 
-0.187240 0.305015 0.447465 -0.159026 -0.313377 0.933880 
-0.893652 1.106838 0.136154 0.880261 0.192690 -0.357185 
-0.190492 0.451742 0.492275 -0.158122 -0.278447 0.945669 
-0.007905 1.061212 0.074542 -0.286124 0.356623 -0.884977 
1.196520 1.652652 -0.000705 0.095166 0.291179 -0.950222 
2.453516 1.518442 -0.211820 -0.066487 -0.278277 0.951128 
-0.622448 0.281804 0.042085 -0.087551 0.155287 -0.871342 
0.129497 0.957304 0.545758 0.217945 -0.114340 0.966287 
-1.897008 1.673729 -1.382368 0.725612 -0.332211 -0.577561 
2.264719 0.947148 -0.249977 0.221699 0.081829 0.927393 
0.131726 1.075169 0.545106 -0.007093 0.033700 0.938359 
-0.222785 -0.902827 0.099136 0.185712 -0.313174 -0.921242 
0.286169 -0.694645 0.203914 0.420320 -0.107763 0.873576 
-1.403886 1.260640 -0.309578 0.673762 -0.243684 -0.642820 
-2.023667 2.514224 -1.646688 -0.703702 0.036168 0.707781 
-2.123784 0.680593 -1.165907 0.778042 -0.347003 -0.519621 
-0.088428 -0.947956 0.219973 -0.222436 0.020629 0.963899 
2.032621 1.907120 -0.090377 0.147432 -0.159574 0.942290 
1.058287 1.110345 0.071757 0.640427 -0.143930 0.714289 
1.723812 1.494765 -0.131294 -0.180328 0.168401 -0.955432 
0.147553 -0.853331 0.093267 -0.097237 -0.365023 -0.918306 
0.890454 0.162717 0.042517 0.499068 -0.231165 0.828268 
1.634610 1.555029 -0.099284 -0.158888 0.109760 -0.962215 
-1.168187 1.009507 -0.118790 0.523752 -0.044133 -0.815328 
2.760628 1.670417 -0.153620 -0.066803 -0.083652 0.981027 
0.451765 0.508207 0.187830 0.465029 0.380923 -0.722581 
-1.881373 1.195402 -1.149602 0.756333 -0.228202 -0.605307 
0.583782 0.486075 0.408396 0.319059 -0.057157 0.925861 
-2.059767 0.738260 -1.103695 -0.780359 0.282429 0.539728 
0.206955 0.763642 0.001652 0.553442 0.509949 -0.628590 
-0.117198 0.120773 0.378258 -0.123044 -0.249138 0.957912 
-0.591140 0.461050 0.389041 -0.365757 -0.114929 0.895759 
-1.724472 1.422399 -1.046054 -0.803421 0.340612 0.444781 
-0.467666 -1.120206 0.110659 0.260363 -0.182831 -0.941351 
-1.116806 1.874178 -0.063976 0.910364 0.179281 -0.216651 
-1.515095 1.230681 -0.512121 -0.809243 0.009189 0.575146 
-0.486647 0.272040 0.079917 -0.284017 0.151186 -0.867469 
1.659922 1.876719 -0.013536 0.303820 -0.131261 0.899623 
-0.804045 -0.497910 -0.079835 0.303050 0.008453 -0.914162 
0.390097 -0.026586 0.067463 0.398223 0.075538 -0.886950 
-0.527744 0.397133 0.400173 -0.346709 -0.211759 0.890591 
1.281966 1.328728 -0.073933 -0.112070 0.018614 -0.988758 
-0.915353 -0.441605 -0.153009 0.337391 0.045873 -0.897949 
2.445701 1.066153 -0.270600 -0.002176 0.072275 -0.995528 
-0.999591 0.146688 -0.067423 -0.566220 -0.195450 0.795194 
-1.332036 0.261066 -0.287635 -0.609200 -0.104748 0.772634 
-1.347574 1.923252 -0.649026 0.846175 -0.114173 -0.509146 
-1.739344 2.036403 -1.296261 -0.728008 0.290762 0.597236 
-0.689243 -0.065077 -0.045952 0.014974 0.077243 -0.876648 
-0.191482 0.277121 -0.158459 -0.699376 0.041980 -0.694882 
-0.695436 -0.273389 0.000410 -0.568847 -0.105125 0.808299 
2.532837 2.112475 -0.106678 -0.075502 -0.394744 0.910300 
-0.329565 0.514284 0.035732 -0.694361 0.212686 -0.668665 
-0.773713 -0.339729 -0.037193 0.294292 0.017777 -0.908655 
2.759248 2.142328 -0.056926 -0.112783 -0.353197 0.921708 
3.103195 2.034728 -0.020440 -0.164920 -0.248138 0.952613 
2.310288 0.634011 -0.249118 -0.024869 0.024198 -0.993254 
0.613976 0.587185 0.228828 -0.189989 0.533897 -0.595324 
-0.482492 -0.182231 0.136825 -0.562013 -0.191365 0.791707 
-0.802553 -0.066250 -0.030167 -0.588984 -0.152878 0.791550 
1.752304 1.115856 -0.197948 -0.322463 -0.104735 -0.937802 
-1.605571 1.900342 -1.096215 -0.745613 0.410743 0.516735 
0.612618 0.422645 0.097958 0.060919 0.227762 -0.880496 
0.253669 0.821433 0.079685 0.638774 0.474893 -0.576834 
-1.807875 0.694735 -0.661745 0.747026 -0.228850 -0.613696 
-1.166155 1.816527 -0.156205 0.783712 -0.115602 -0.603656 
-1.331191 0.639420 -0.267946 -0.715027 -0.008151 0.664323 
1.961691 0.750459 -0.225885 -0.121442 -0.085316 -0.956220 
0.684316 -0.098188 -0.030671 0.056134 0.065683 -0.893047 
0.120883 -0.829390 0.229628 0.176157 -0.084036 0.968535 
-1.102263 1.388286 0.000182 0.515728 -0.115580 -0.831914 
2.288273 1.947175 -0.139785 0.037466 -0.182410 0.972199 
0.500267 0.551506 0.434517 0.002505 -0.040915 0.955335 
-0.911584 0.634489 0.037486 0.391479 0.133248 -0.907766 
-0.363731 -0.063159 0.277044 -0.447451 -0.245448 0.838293 
-1.848452 1.645477 -1.321252 0.725604 -0.369902 -0.557641 
1.534443 0.269196 -0.332096 -0.199474 0.272869 -0.926564 
-0.445328 -0.441164 0.032784 -0.165027 -0.018069 -0.915372 
2.214114 1.135042 -0.252466 -0.010149 0.110802 -0.988134 
0.244507 -0.611447 0.041093 -0.099686 -0.343106 -0.930255 
-0.908932 0.569006 0.098899 -0.726241 -0.198558 0.652323 
1.232362 1.208313 -0.017054 0.494385 -0.185394 0.795249 
-0.702197 -0.610442 -0.006129 -0.486114 -0.014577 0.861253 
0.162627 0.818811 0.016846 0.527130 0.461068 -0.698315 
-1.794315 2.527202 -1.433913 0.740268 0.041808 -0.659085 
0.302762 0.233227 0.384034 0.239114 -0.317540 0.913466 
0.733420 0.952452 0.242367 -0.672884 0.120041 -0.725908 
-0.683349 0.104439 0.131083 -0.519448 -0.267350 0.797261 
-0.087208 0.771549 0.524333 -0.128275 -0.080394 0.983914 
1.861444 0.804624 -0.215106 -0.214504 -0.248088 0.930578 
-0.336280 0.010576 0.311762 -0.383933 -0.265424 0.863104 
-1.483944 1.862262 -0.900407 0.766018 -0.469806 -0.433532 
0.042201 -1.160797 0.249215 0.474941 -0.135205 0.815190 
1.444456 1.741526 -0.025993 -0.032050 -0.093325 -0.976853 
-1.705386 1.156458 -0.810890 -0.776653 0.557999 0.190170 
-1.854832 0.909572 -0.895674 -0.749365 0.126813 0.631082 
0.035610 -0.178783 -0.186323 0.435552 -0.207830 -0.844113 
-0.315125 0.866364 0.326748 -0.896404 0.331188 0.114349 
-0.160581 -0.605817 0.015479 -0.209656 -0.305747 -0.920631 
0.577617 -0.494703 0.055901 0.495419 -0.062537 0.855777 
-1.732490 1.823279 -1.242388 0.699768 -0.460533 -0.526747 
2.001197 1.834007 -0.121451 0.191487 -0.109147 0.954918 
0.838635 0.075033 -0.052438 -0.095745 0.118614 -0.889757 
2.333891 0.876037 -0.258883 0.012933 0.070355 -0.992169 
0.360951 0.751674 0.354715 0.909004 0.349510 0.180804 
1.340103 0.460681 -0.159663 0.379300 -0.172328 0.890840 
-0.794762 1.019189 0.220861 -0.548533 -0.060253 0.831078 
1.010477 -0.460701 -0.162913 0.460110 -0.090680 0.867424 
-0.145227 -0.489558 0.305921 -0.172656 -0.193565 0.962802 
0.621369 0.489415 0.121365 0.088189 0.291076 -0.834504 
-1.196517 0.373328 -0.185352 -0.643245 -0.102457 0.735036 
0.158717 1.187081 0.557966 -0.449546 0.463681 0.712434 
-0.425410 0.550043 0.218422 -0.541214 0.419572 -0.650565 
0.465367 -0.087419 0.036365 0.305151 0.061298 -0.889818 
-0.973179 -0.418163 -0.192306 0.354001 0.064887 -0.889732 
0.956367 1.071239 0.070669 -0.227362 0.031225 -0.970044 
-0.064783 0.051892 -0.219757 -0.538550 -0.031117 -0.826699 
-1.733119 1.338410 -1.024492 0.778458 -0.223646 -0.576433 
-0.121628 0.213640 -0.200732 -0.626305 0.029939 -0.759754 
-1.013869 0.695619 0.021586 -0.754235 -0.145783 0.617690 
-0.154736 -0.770718 0.061293 0.095326 -0.343375 -0.926858 
-1.834890 0.741950 -0.733672 -0.750669 0.148783 0.637623 
-0.306614 0.727711 0.033799 -0.649116 0.571324 -0.483908 
-0.048632 0.778662 -0.052026 -0.422189 0.402587 -0.801822 
2.042294 1.101288 -0.226939 0.335524 0.124349 0.893294 
-0.450822 0.382827 0.391615 -0.295966 -0.286146 0.896551 
-0.225754 0.883229 0.481446 -0.657022 0.069496 0.736974 
-1.496376 2.070184 -0.966547 -0.818084 0.227603 0.499364 
1.102729 0.872029 -0.012198 -0.248557 0.071434 -0.962291 
1.698080 1.064760 -0.185450 -0.061959 -0.334677 0.917630 
1.079213 1.270961 0.019897 -0.161381 0.011597 -0.980805 
-0.684171 0.220318 0.184181 -0.487369 -0.321364 0.800315 
-2.028193 0.604573 -0.956917 -0.767124 0.250238 0.578455 
-1.828170 1.055706 -0.978386 0.750046 -0.195618 -0.620293 
1.825655 1.345678 -0.161781 0.282822 -0.036232 0.950923 
1.442056 1.861070 -0.013311 -0.029090 0.232157 -0.967773 
-0.488297 -0.931498 0.067309 0.147599 -0.117783 -0.969854 
0.090225 0.365640 -0.202865 0.590421 0.141508 -0.771415 
1.881797 0.519808 -0.212445 0.116614 0.015195 -0.934429 
-0.285161 -0.882478 0.166130 -0.202652 -0.078140 0.955911 
-2.085509 0.655945 -1.087339 0.771694 -0.335510 -0.529819 
0.423801 0.246872 0.096786 0.392815 0.150951 -0.879716 
0.448100 -0.215201 0.023524 0.307975 0.025494 -0.893523 
-1.588354 0.051375 -0.511288 -0.572772 -0.176962 0.794948 
-0.514470 -0.613969 0.043014 0.047892 -0.054314 -0.937271 
-2.042440 1.044681 -1.289404 0.773206 -0.312534 -0.548278 
-1.659076 1.746637 -1.125197 0.729699 -0.443579 -0.503428 
-0.260936 0.285573 0.417016 -0.209744 -0.312846 0.921471 
-1.442930 2.382101 -1.017731 0.852720 0.150897 -0.455140 
0.576613 0.228621 0.047616 0.220650 0.152150 -0.881562 
-0.055889 -0.443704 0.326107 -0.085878 -0.211886 0.971694 
0.308861 -0.082096 0.027689 0.515687 -0.031560 -0.833539 
0.574417 0.276606 0.300693 0.439050 -0.361694 0.819133 
-1.361242 1.977924 -0.596241 -0.856693 0.264284 0.369841 
0.940949 1.027411 0.130808 0.738651 -0.111967 0.659979 
0.420140 -1.010583 0.111151 -0.104434 -0.158890 -0.980151 
0.089286 1.133627 0.521857 -0.259723 0.343254 0.889835 
1.421355 1.968261 0.008774 -0.196355 0.353937 -0.886830 
-0.316549 0.720793 0.473560 -0.562308 0.341820 0.716023 
-1.121055 1.246385 0.016901 -0.859073 -0.104398 0.478866 
0.292418 0.461147 0.467195 0.180725 -0.237288 0.952823 
-0.775024 -0.729612 -0.096434 -0.472619 -0.029469 0.863363 
2.149279 0.331092 -0.226488 0.108692 0.031411 -0.964377 
-0.088533 -0.322815 0.334926 -0.167808 -0.024442 0.982608 
-1.856691 1.945378 -1.401680 -0.719578 0.283213 0.611757 
1.207782 0.742431 -0.045390 0.502808 -0.132626 0.805427 
0.161825 0.511189 0.513991 0.161014 -0.263068 0.949921 
0.526587 0.016715 0.209799 0.492102 -0.262155 0.817050 
1.105233 0.431187 -0.041724 0.573409 -0.163327 0.789524 
2.803334 1.239194 -0.214826 0.077342 0.110517 -0.987751 
0.202725 -0.502343 0.288300 0.333015 -0.174889 0.920905 
2.291680 2.163419 -0.088646 0.027533 -0.149910 0.982183 
-0.141588 0.899204 0.537519 -0.262312 -0.124879 0.951834 
-0.767408 -0.424231 -0.017899 -0.512782 -0.048565 0.844227 
0.930136 1.097554 0.176320 0.460672 -0.043297 0.885877 
-0.886207 0.326513 0.065716 -0.601237 -0.242541 0.747816 
-0.929447 0.003510 -0.108324 0.335479 0.101343 -0.870033 
0.154733 0.968691 0.086783 0.575324 0.378615 -0.706593 
-1.112559 1.461337 0.063251 -0.889541 -0.130130 0.425902 
2.599735 1.495128 -0.202564 -0.010897 -0.046004 -0.979570 
-0.668124 -0.782572 -0.038121 0.215362 -0.053077 -0.941608 
-0.376371 -0.384866 0.140202 -0.616612 -0.125895 0.775412 
-1.282563 1.493236 -0.124671 -0.876912 -0.072758 0.447561 
-1.131214 0.245125 -0.145188 -0.608690 -0.148083 0.769067 
-1.571919 1.290292 -0.633540 -0.840976 0.163441 0.485751 
-0.818836 -0.264126 -0.054737 0.320500 0.036611 -0.900328 
-0.855302 0.097403 -0.082337 0.201725 0.121402 -0.862554 
0.481736 -0.282554 0.013542 0.243664 0.010162 -0.899420 
-0.761846 -0.000239 -0.062668 0.097796 0.095036 -0.870910 
-1.504442 1.792065 -0.886616 -0.866454 0.205523 0.448602 
-1.121078 1.160544 0.001380 -0.847154 -0.095639 0.499702 
0.139115 0.793155 0.522197 0.231578 -0.061414 0.960057 
0.558894 -0.827386 0.048615 -0.148479 -0.095423 -0.965270 
-0.004376 0.858235 0.552171 -0.114919 -0.153322 0.973740 
2.623551 1.226546 -0.238845 0.017924 0.040380 -0.989958 
0.764621 0.645313 0.177623 -0.669307 0.349222 -0.610649 
-0.206503 0.023372 0.342375 -0.254880 -0.233889 0.915661 
-1.711016 0.941882 -0.692662 0.763212 -0.361426 -0.477922 
-0.370088 0.501913 0.148063 -0.639085 0.310227 -0.683110 
0.440152 0.168249 0.079942 0.367082 0.130926 -0.881615 
-1.597353 0.970225 -0.501947 0.744197 -0.221848 -0.603545 
-1.529517 2.455600 -1.179081 0.807041 0.200536 -0.543309 
-0.137908 -0.157724 0.345602 -0.185602 -0.116035 0.969484 
0.842537 -0.751756 -0.078003 0.379560 0.058173 0.898399 
0.328092 0.584829 0.486255 0.420547 -0.105729 0.864154 
-1.168485 -0.431638 -0.339386 -0.513205 -0.156374 0.823124 
-1.524758 2.009932 -1.024602 0.823656 -0.095589 -0.546831 
0.052068 0.647328 -0.125961 0.421234 0.381563 -0.805362 
-0.506387 0.141354 0.044329 -0.263543 0.122693 -0.865800 
-0.299642 -0.604550 0.213724 -0.546923 -0.122861 0.825092 
-1.732082 1.464638 -1.105652 0.802428 -0.278093 -0.524630 
-0.204801 1.240589 0.532738 -0.832412 -0.436305 -0.289657 
0.343814 0.394917 0.060341 0.597853 0.189902 -0.752038 
1.087755 1.496677 0.024183 -0.110366 -0.020478 -0.989194 
0.175574 -0.880632 0.202281 0.154205 -0.067292 0.976354 
1.636678 1.820329 -0.065647 -0.052424 0.278313 -0.954035 
2.490153 2.047879 -0.125366 -0.052188 -0.320484 0.936158 
2.017775 0.950547 -0.226875 0.417859 0.218923 0.856174 
-1.733766 2.286708 -1.351446 -0.765692 0.037358 0.629609 
-1.267216 1.742083 -0.328813 0.673847 -0.365336 -0.596758 
2.157169 2.040252 -0.129270 -0.070123 0.206286 -0.972497 
0.249644 0.961762 0.455127 0.786436 0.036735 0.577862 
0.354152 -1.317617 0.148676 -0.436565 -0.192584 -0.849434 
-1.408719 1.702072 -0.635312 0.804307 -0.332747 -0.450011 
-0.594616 0.654786 0.319638 0.274771 0.566101 -0.619605 
-0.234085 1.036163 0.203481 -0.800210 0.371915 -0.392337 
0.766633 -0.245413 0.003795 0.505883 -0.107924 0.846983 
-1.170731 -0.130471 -0.262891 -0.549526 -0.171869 0.806475 
-1.622559 1.480403 -0.924206 -0.817565 0.345734 0.419731 
-1.396050 2.038994 -0.849189 0.863887 -0.170900 -0.468314 
2.577665 1.313203 -0.229423 -0.044042 -0.177180 0.973751 
0.951043 0.477605 0.073090 0.643767 -0.160360 0.745169 
-0.319135 -0.475457 0.202701 -0.596216 -0.136248 0.789200 
1.137969 0.103060 -0.116255 0.504723 -0.171231 0.842016 
-0.598793 -0.609099 0.038780 -0.504363 -0.019878 0.851491 
-0.237023 -0.028851 -0.095666 -0.665767 -0.068500 -0.719912 
2.273869 1.859526 -0.166887 -0.000005 0.247850 -0.961935 
-0.853309 -0.440164 -0.104979 0.325206 0.027423 -0.905824 
0.359406 -1.050824 0.119129 0.082796 -0.103974 -0.924919 
-0.357352 -0.150664 0.256532 -0.499846 -0.215682 0.815750 
-1.116893 1.602974 0.025038 0.536948 -0.175111 -0.821083 
1.692777 1.413966 -0.140072 -0.077071 0.244797 -0.943261 
-0.030011 -0.367161 0.338840 -0.081545 -0.041808 0.994197 
-0.134856 -0.841027 0.089565 0.085748 -0.371578 -0.919058 
0.641200 -0.730503 0.032527 0.425187 0.004482 0.896525 
0.952666 0.210133 -0.067521 -0.207043 0.159684 -0.887107 
0.431691 -1.197584 0.140218 -0.267935 -0.177214 -0.945878 
1.512897 0.364673 -0.288233 0.260723 -0.247874 0.912926 
0.624809 0.177706 0.221661 0.466723 -0.306125 0.820385 
0.466325 -0.427655 0.080563 0.545744 -0.097767 0.827109 
1.985380 1.617514 -0.170380 0.188247 -0.150235 0.969317 
-0.119210 -1.030783 0.160358 0.098983 -0.417691 -0.901266 
1.009604 1.026703 0.093886 0.680546 -0.118973 0.692518 
-0.078760 -0.892021 0.114319 -0.077118 -0.383933 -0.902244 
0.292635 0.237990 -0.082539 0.736709 0.023972 -0.664866 
-1.988997 1.642219 -1.474892 0.734577 -0.260592 -0.609518 
1.002724 1.441704 0.142956 0.502282 -0.027426 0.848442 
-0.994882 0.775556 0.049550 -0.779933 -0.144539 0.590998 
-1.165947 1.627569 -0.090210 0.637502 -0.036923 -0.750959 
1.392193 0.306801 -0.227025 0.348778 -0.230270 0.885566 
-0.069123 -0.958963 0.139310 -0.113274 -0.390185 -0.893161 
-0.751857 0.844007 0.237170 -0.520151 -0.079729 0.840777 
0.257899 -0.854645 0.085868 -0.058775 -0.241334 -0.943980 
0.605312 0.553294 0.163249 0.030559 0.407844 -0.667671 
2.156471 2.107881 -0.102755 0.091645 -0.206231 0.961649 
0.669272 0.123530 0.005077 0.102126 0.126294 -0.886023 
-0.190335 0.105932 0.360237 -0.180968 -0.252999 0.947415 
1.738073 0.639186 -0.222804 0.015004 0.073077 -0.953191 
0.319016 0.054102 0.022624 0.548361 0.018685 -0.808117 
-1.882200 1.562274 -1.331894 -0.779356 0.164305 0.588174 
1.786481 0.296862 -0.246960 0.220542 0.165602 -0.927569 
0.090839 0.548469 0.531991 0.115281 -0.266689 0.954394 
0.128532 -0.486577 0.309405 0.161851 -0.181728 0.968279 
-1.337549 0.390482 -0.295052 -0.642421 -0.055643 0.738759 
-0.832014 0.576257 0.060507 0.363564 0.255679 -0.886550 
1.284122 0.583929 -0.109977 0.430846 -0.153396 0.856237 
0.326974 0.007004 0.314190 0.363524 -0.262050 0.870831 
-0.967317 0.222267 -0.090315 0.362252 0.151335 -0.864765 
1.666696 0.466109 -0.318775 -0.066670 0.216365 -0.950190 
-0.703421 0.374568 0.214468 -0.558409 -0.314392 0.748733 
0.301368 0.883500 0.230540 0.885528 0.343554 -0.248335 
-1.975320 1.449201 -1.407054 0.754054 -0.270744 -0.591321 
0.356952 0.249737 0.072612 0.511295 0.127287 -0.835037 
1.111450 0.762554 -0.031605 -0.278156 0.088357 -0.949948 
-0.746116 -0.246193 -0.044434 0.194608 0.037784 -0.896965 
0.047218 0.490641 0.518526 0.063096 -0.297032 0.951051 
2.127390 0.725125 -0.231317 0.303690 0.152443 0.905686 
0.977148 0.697045 0.074117 0.677588 -0.130748 0.712624 
0.393009 -0.288446 0.029687 0.360705 0.003454 -0.895049 
-1.888371 2.256526 -1.510792 0.717544 -0.109382 -0.687034 
0.103769 0.041881 0.362991 0.130667 -0.205091 0.966808 
2.841921 2.154902 -0.038432 0.123475 0.444456 -0.853555 
2.364699 0.569502 -0.249562 0.096745 0.016869 0.986305 
-0.702098 0.551398 0.250353 -0.189458 0.112661 0.936146 
0.183221 0.126218 0.371317 0.168465 -0.258115 0.948954 
-1.534351 1.164282 -0.488260 -0.804161 0.044162 0.576402 
1.947229 0.823052 -0.227135 -0.172246 -0.109093 -0.957393 
2.879874 1.298581 -0.196715 0.098452 0.124971 -0.984677 
1.896421 0.430969 -0.210684 0.180660 0.044903 -0.932552 
0.158798 0.491838 -0.129804 0.618398 0.200237 -0.739773 
0.945913 -0.184226 -0.075043 -0.322830 0.072833 -0.915833 
-0.130044 0.383153 0.484483 -0.111923 -0.320723 0.939046 
-0.611372 0.273039 0.258798 -0.459233 -0.367152 0.802441 
-0.006495 0.782944 0.534720 -0.080425 -0.132126 0.983036 
2.497581 1.350459 -0.232904 -0.039198 -0.202235 0.967850 
-0.272227 0.058025 -0.079929 -0.715430 -0.043735 -0.676581 
2.741407 1.844016 -0.130428 0.103468 0.182384 -0.975852 
0.769188 0.397543 0.189659 0.547698 -0.259796 0.778240 
-1.559171 1.930018 -1.047336 0.818506 -0.029921 -0.562777 
0.307031 0.091498 0.331509 0.280696 -0.280613 0.906506 
1.007081 0.221240 -0.005600 0.498671 -0.226280 0.831893 
1.331007 -0.001380 -0.277954 0.505997 -0.196098 0.834816 
-1.806498 2.329251 -1.437402 0.723237 -0.108841 -0.680313 
-1.914464 0.335386 -0.704816 -0.684518 0.094109 0.697232 
0.172915 1.055025 0.404218 0.433773 0.837146 0.250503 
2.414884 1.838566 -0.171678 0.007997 -0.093610 0.985427 
-1.068840 -0.433485 -0.269252 0.370013 0.092373 -0.878056 
0.736678 0.879645 0.227101 -0.712595 0.120193 -0.672368 
-1.337561 1.643709 -0.428946 0.772678 -0.279522 -0.514524 
0.543312 0.046967 0.031980 0.234567 0.100959 -0.886713 
-1.428809 1.921377 -0.789286 -0.848537 0.315685 0.400501 
0.080877 -0.544041 0.293101 0.142345 -0.225132 0.961373 
0.528735 0.087350 0.241535 0.476499 -0.292007 0.817293 
-1.482774 1.524770 -0.695626 0.858581 -0.172067 -0.455857 
-0.919116 0.425698 0.062659 -0.678160 -0.214479 0.700652 
2.076719 2.010540 -0.134683 -0.109108 0.194797 -0.972622 
-1.736131 1.656271 -1.179370 -0.796398 0.120093 0.570943 
1.350141 -0.096861 -0.325439 -0.419737 0.168594 -0.871720 
-1.940202 2.175599 -1.544542 0.718046 -0.096973 -0.686775 
0.102666 -0.445160 -0.087835 0.371859 -0.370169 -0.837881 
0.159144 0.235126 -0.178830 0.646450 0.034063 -0.744136 
1.882728 1.894878 -0.059481 0.210335 -0.148177 0.925133 
0.838775 0.941466 0.120126 -0.753088 0.140367 -0.622543 
-1.483434 -0.127783 -0.520630 0.518265 0.238792 -0.814268 
0.216166 -0.713226 0.226520 0.225284 -0.191561 0.943238 
-1.170825 1.877684 -0.118044 -0.902145 0.325607 0.245066 
0.053111 -0.259566 -0.162837 0.428888 -0.249028 -0.841258 
-0.360948 -0.987367 0.146609 -0.234307 -0.007092 0.967665 
0.678444 0.440913 0.293445 0.486433 -0.197137 0.814851 
2.082960 0.402821 -0.222297 -0.149972 -0.088155 0.952940 
1.732318 1.355049 -0.160670 -0.052540 0.298961 -0.936235 
-0.410785 0.079611 0.284433 -0.392057 -0.297323 0.858158 
1.419527 0.233501 -0.260668 0.332449 -0.258579 0.883509 
0.849481 0.639783 0.075776 -0.305795 0.200674 -0.925586 
0.365283 0.430692 0.440489 0.191277 -0.223930 0.954216 
-1.047500 -0.043714 -0.139965 -0.558516 -0.141004 0.809203 
-1.795859 2.028198 -1.358753 0.747860 -0.028367 -0.658567 
2.805930 1.324208 -0.201226 -0.081650 -0.155235 0.979860 
0.216363 -0.915853 0.106935 -0.185650 -0.320872 -0.917973 
1.335206 1.547707 -0.046558 0.084670 0.308778 -0.943008 
1.570193 1.947804 0.003700 0.342639 -0.117806 0.902744 
1.008990 1.484041 0.060995 -0.127374 -0.024625 -0.986458 
1.500544 1.091253 -0.148807 0.218991 -0.227597 0.903089 
0.752348 -0.081049 -0.041430 -0.031668 0.074270 -0.895954 
-0.091019 -0.099046 -0.178450 -0.520463 -0.111298 -0.823068 
-1.981750 0.630234 -0.904592 0.758748 -0.323651 -0.537963 
0.890301 -0.424317 -0.069191 0.457336 -0.072297 0.872841 
1.202476 -0.019680 -0.191592 0.499072 -0.170638 0.842477 
-1.909012 2.064694 -1.483969 -0.716658 0.209122 0.644555 
0.539081 0.560628 0.202551 0.132194 0.463423 -0.621240 
-0.056544 1.033558 0.560156 -0.105235 0.053285 0.969207 
0.325731 -0.532270 0.185648 0.550653 -0.127231 0.823696 
-0.319522 0.653249 0.502665 -0.465714 0.347334 0.795627 
0.088698 -0.756202 0.064991 0.052964 -0.368301 -0.916917 
1.000818 0.660320 0.004156 -0.328697 0.095282 -0.933193 
-0.196367 -0.318954 0.310631 -0.356628 -0.084280 0.896675 
-2.081815 1.715651 -1.596765 -0.744125 0.173779 0.641317 
-0.184728 1.176176 0.556256 -0.848600 -0.074485 -0.413909 
-0.305851 0.227076 0.379261 -0.254148 -0.315231 0.909606 
1.243398 -0.296794 -0.296011 -0.368363 0.119102 -0.885645 
0.052294 -0.812917 0.249603 0.310896 -0.057068 0.933579 
1.330671 1.407528 -0.034074 0.345324 -0.304190 0.808074 
0.687478 0.282446 0.032788 0.064793 0.157142 -0.890482 
0.535492 -0.672603 0.070957 0.460768 -0.016975 0.877101 
1.854253 2.041972 -0.080458 -0.100187 0.223072 -0.967465 
-0.155284 -0.930602 0.200692 -0.162632 -0.025307 0.977356 
2.949452 2.025140 -0.054920 0.154816 0.220901 -0.961272 
-1.320100 1.595686 -0.361235 0.723615 -0.221570 -0.595194 
-1.691427 1.272820 -0.919135 0.766641 -0.185529 -0.604339 
0.967649 -0.062974 -0.066776 -0.339437 0.094511 -0.911137 
2.078805 0.671598 -0.232155 -0.128004 -0.079598 -0.969501 
-1.685148 1.679474 -1.132229 0.743918 -0.407593 -0.510441 
0.712202 -0.203527 -0.021304 -0.048563 0.044736 -0.908145 
-1.011827 0.830269 -0.016204 0.442620 0.051890 -0.879161 
2.634367 1.357330 -0.218414 0.011419 0.007509 -0.984687 
-1.522663 2.311718 -1.129990 0.773865 -0.153722 -0.609655 
0.144998 0.326297 -0.180425 0.640507 0.093644 -0.739812 
-0.237340 1.085307 0.316794 -0.890246 0.414171 -0.040914 
-0.004223 1.316737 0.326732 -0.216638 0.760530 0.588443 
2.978992 1.532001 -0.148696 -0.126348 -0.166526 0.977132 
-1.325679 -0.027323 -0.377146 0.507793 0.198979 -0.830860 
-0.436211 0.306868 0.366664 -0.314470 -0.303560 0.888282 
-1.981740 1.261593 -1.341975 -0.781224 0.289021 0.548446 
0.193882 -0.028201 0.337113 0.277998 -0.216813 0.904568 
-1.807157 0.226344 -0.602215 -0.603613 -0.054501 0.787098 
-0.810874 0.080024 0.031837 -0.549838 -0.218949 0.795332 
0.240065 0.103816 -0.109811 0.679552 -0.023368 -0.712238 
0.237716 0.307312 0.433767 0.184600 -0.315138 0.927279 
-1.701639 0.703369 -0.559302 0.708854 -0.135066 -0.675328 
0.127760 -0.948566 0.130093 -0.088339 -0.397518 -0.908996 
-1.241150 -0.381172 -0.386681 0.418514 0.139756 -0.853213 
-1.043457 0.206361 -0.120735 0.459951 0.149993 -0.862775 
0.012867 0.021410 0.365907 0.080158 -0.175102 0.978672 
-1.187025 1.593765 0.021133 -0.902428 -0.110130 0.400720 
0.771675 -0.756492 -0.056200 0.415111 0.006564 0.893442 
2.549321 1.903480 -0.145519 -0.043515 -0.198359 0.976416 
-0.805270 -0.661452 -0.103341 -0.481192 -0.041456 0.857789 
-0.594718 -0.700631 0.036411 0.217948 -0.069022 -0.948082 
1.199222 1.460722 -0.029900 -0.098097 -0.006803 -0.991124 
-1.209519 1.122723 -0.133208 0.551602 -0.087833 -0.796537 
-1.276448 0.372338 -0.254296 -0.638001 -0.069374 0.742039 
1.488577 1.796979 -0.011061 0.402063 -0.054146 0.894673 
-0.217625 0.488792 -0.095238 -0.665439 0.144112 -0.709396 
0.251803 -0.202240 -0.069845 0.620493 -0.135754 -0.755815 
0.314361 0.863636 0.345099 0.893257 0.316996 0.187123 
-1.193119 0.815834 -0.166680 0.532209 -0.011385 -0.808856 
1.253526 -0.375666 -0.304695 0.463322 -0.121613 0.854380 
1.858300 0.595142 -0.215262 0.057714 0.001320 -0.938669 
-1.852958 1.718542 -1.340619 -0.775241 0.097673 0.609941 
-0.974104 0.597082 0.041717 -0.727516 -0.173740 0.646740 
-0.117872 1.103321 0.115579 -0.467244 0.375676 -0.790689 
-1.843214 1.527341 -1.281386 0.740763 -0.365151 -0.548716 
-0.294681 0.867944 0.404157 -0.844146 0.249604 0.433018 
-1.627041 0.421153 -0.486533 -0.649159 -0.011296 0.737747 
-0.532729 -0.186015 -0.007462 -0.167134 0.043484 -0.887728 
-0.326479 0.656700 -0.010389 -0.704912 0.278757 -0.642505 
0.387084 0.027521 0.281380 0.369906 -0.274671 0.874645 
0.936630 0.402025 0.074192 0.589987 -0.195874 0.772971 
-0.457196 -0.517795 0.040579 -0.100367 -0.034884 -0.924770 
1.736071 0.748649 -0.220664 -0.050308 -0.181836 0.948852 
-0.469316 0.027571 0.241090 -0.494018 -0.290197 0.802435 
-1.381004 1.932144 -0.731381 0.857559 -0.106855 -0.493654 
0.172615 1.041298 0.121830 0.591777 0.328224 -0.726334 
-1.506414 1.117476 -0.425988 0.718513 -0.254725 -0.591915 
1.315022 1.550001 0.021207 0.447990 -0.139861 0.818441 
0.370627 -0.042077 0.282863 0.421022 -0.254097 0.849969 
0.353967 0.325999 0.076301 0.536591 0.164250 -0.808605 
-1.114694 0.739818 -0.061786 -0.760702 -0.094370 0.613137 
-1.696780 2.237689 -1.304471 -0.770710 0.092156 0.619379 
2.689027 1.711335 -0.155932 -0.047025 -0.056122 0.982420 
0.613314 0.674478 0.307330 0.090344 0.008334 0.906236 
0.316616 -0.210055 0.282827 0.524020 -0.198029 0.800352 
0.696246 -0.305387 -0.006429 -0.088445 0.021495 -0.919698 
0.684437 -0.153230 0.027826 0.547428 -0.148291 0.821328 
-1.705500 2.361049 -1.344101 0.732915 -0.119481 -0.668441 
-0.208865 -0.824057 0.073951 0.143488 -0.306292 -0.927762 
-0.279501 -0.309579 0.001092 -0.523413 -0.094514 -0.832485 
-0.238412 0.856398 0.077388 -0.632770 0.456380 -0.616038 
1.275269 -0.207543 -0.298666 -0.388011 0.137924 -0.881107 
-1.320898 2.011417 -0.538453 -0.867685 0.267733 0.351322 
0.639283 0.378779 0.291196 0.490723 -0.296128 0.797834 
-1.535763 2.388391 -1.153311 -0.806218 -0.038845 0.577980 
0.242854 0.626574 0.518978 0.387676 -0.125952 0.873518 
-1.605896 0.186606 -0.474273 0.551581 0.082577 -0.826789 
0.465586 -0.826648 0.085618 -0.071735 -0.108739 -0.966732 
-0.590432 0.531231 0.152962 -0.143615 0.381570 -0.719165 
-0.626632 0.468567 0.109327 -0.059977 0.295677 -0.828829 
0.143161 -0.605493 0.011028 0.169002 -0.315957 -0.927083 
-1.069483 1.758815 0.060429 0.937904 -0.246109 -0.120004 
2.286664 1.551577 -0.211607 -0.016025 -0.268790 0.951338 
2.189387 1.915607 -0.124988 0.083533 -0.168555 0.961226 
-1.653980 1.896308 -1.161206 -0.735965 0.372212 0.558638 
2.735354 1.259822 -0.219454 -0.057637 -0.136278 0.983544 
1.514497 0.165839 -0.340910 0.311701 -0.284404 0.883865 
0.249982 0.544205 0.498076 0.197364 -0.214906 0.952371 
-1.185947 1.794111 -0.085852 -0.909767 0.311026 0.236944 
1.776745 1.277780 -0.184919 0.023303 0.320540 -0.937399 
0.218225 1.060036 0.188895 0.766652 0.373642 -0.452866 
-1.531089 0.366725 -0.435737 0.594982 0.021817 -0.781056 
-1.499651 0.885873 -0.383265 -0.778471 0.099119 0.602838 
-1.797783 1.201440 -1.008412 -0.759846 0.531785 0.246242 
-0.602091 -0.034541 -0.011765 -0.104939 0.082340 -0.876120 
1.016202 -0.338193 -0.137247 0.468837 -0.104148 0.863111 
2.607460 1.707332 -0.166468 -0.021619 -0.020739 0.985329 
0.226609 0.463744 -0.099597 0.676612 0.145190 -0.706890 
-1.304641 2.151480 -0.691713 0.851684 -0.157406 -0.493448 
-0.164345 -0.689317 0.042517 -0.059541 -0.284063 -0.943306 
1.567318 0.863819 -0.226141 -0.162383 0.107677 -0.980247 
1.663414 0.849178 -0.234952 -0.169816 0.057279 -0.973493 
0.640903 -0.085803 0.087654 0.527560 -0.188543 0.820200 
-1.400627 0.099263 -0.376966 0.526262 0.147486 -0.833842 
3.106556 1.961878 -0.038665 -0.164547 -0.225734 0.959582 
-0.070579 -0.245217 0.341958 -0.147114 -0.058177 0.981879 
0.338707 -0.889156 0.091555 -0.093200 -0.216542 -0.967326 
1.787704 0.940600 -0.226924 -0.234333 -0.063505 -0.961141 
0.649045 0.035243 -0.001312 0.113461 0.101278 -0.888473 
-1.293003 0.447991 -0.289451 0.591238 0.017972 -0.773388 
0.020911 0.936636 0.562153 0.156853 -0.022196 0.976318 
-1.911613 1.232955 -1.210882 -0.773010 0.384223 0.430151 
-1.458152 0.609123 -0.400966 0.655748 -0.062620 -0.718445 
2.914202 1.937206 -0.081205 -0.134510 -0.263108 0.948961 
-1.820048 1.314492 -1.137474 0.769426 -0.235013 -0.586542 
0.516774 -0.772102 0.078222 0.439968 0.009195 0.889813 
-0.731005 -0.160159 -0.052876 0.119186 0.056592 -0.886384 
-1.618617 1.958656 -1.152087 0.782045 -0.021967 -0.615985 
0.053696 1.235102 0.156597 0.519188 0.183662 -0.826031 
-1.594180 1.293875 -0.705061 -0.815643 0.511497 0.220252 
-0.537429 -0.876132 0.058965 -0.452137 0.045516 0.885830 
1.607008 1.301282 -0.097530 0.131790 -0.267909 0.921105 
-1.216665 0.436948 -0.227986 0.553975 0.047671 -0.803147 
-1.194274 0.228511 -0.195989 -0.601380 -0.132579 0.777835 
0.261760 0.336505 -0.103526 0.731619 0.075413 -0.664900 
0.919144 1.436616 0.155086 -0.113852 0.081569 0.862870 
0.727610 -0.948021 0.011154 0.286259 0.233547 0.925566 
1.141432 1.657172 0.070025 0.552268 -0.267773 0.732870 
-2.012596 1.165481 -1.324716 -0.783974 0.296481 0.542975 
1.588492 0.469570 -0.318342 -0.166956 0.226887 -0.948355 
-0.323803 -0.595512 0.038443 -0.291999 -0.113923 -0.893861 
0.075544 -0.291787 0.337833 0.155997 -0.035112 0.982861 
1.441986 0.170021 -0.295675 0.366173 -0.261411 0.870391 
-0.140456 1.003547 0.546750 -0.203947 -0.121086 0.968302 
0.176555 0.879593 0.058244 0.595638 0.411789 -0.672493 
0.299567 0.591803 -0.047963 0.696644 0.223208 -0.672179 
-0.659484 0.408763 0.074585 0.050389 0.230248 -0.884797 
0.649514 -0.943879 0.030586 -0.199041 -0.215686 -0.947234 
-1.523784 0.298634 -0.414970 -0.618095 -0.068911 0.767430 
1.891560 0.738773 -0.220233 -0.069138 -0.067115 -0.945630 
-1.195390 -0.349744 -0.340000 -0.523394 -0.168086 0.817000 
-1.169821 1.217437 -0.031569 -0.851454 -0.079511 0.490450 
-1.822292 0.876841 -0.834217 0.768521 -0.439756 -0.414740 
-1.262070 1.192253 -0.117918 -0.841148 -0.035446 0.505184 
0.524280 -0.038906 0.025573 0.244867 0.076649 -0.889105 
1.133249 -0.193600 -0.184867 0.483993 -0.140298 0.851959 
-1.416386 0.431490 -0.348154 -0.652645 -0.031333 0.729902 
1.140977 0.694963 -0.054534 -0.291761 0.100621 -0.943396 
1.096229 -0.056922 -0.148484 -0.372689 0.121418 -0.898208 
-0.093279 -0.691208 0.042080 -0.026166 -0.365346 -0.921915 
-0.637576 -0.336529 0.019852 -0.566035 -0.095370 0.810741 
-0.236560 -1.103821 0.178120 0.269121 -0.323399 -0.899375 
-1.187888 0.096449 -0.217849 -0.577076 -0.187953 0.792990 
-0.216067 -0.506099 0.280801 -0.376299 -0.166489 0.902559 
0.014726 -0.430164 0.333489 0.082582 -0.197977 0.973047 
-0.161885 -0.512218 -0.018391 -0.231229 -0.412574 -0.856543 
0.446909 -0.902872 0.106483 0.424898 0.032570 0.899505 
-1.482510 1.435016 -0.645202 0.828766 -0.059202 -0.529335 
0.978392 0.136262 -0.026865 0.514594 -0.197099 0.830823 
2.523117 1.686555 -0.179959 0.005596 0.017170 0.988771 
-0.394034 -0.937498 0.095610 0.043264 -0.147805 -0.963456 
-1.494950 2.355560 -1.079885 -0.817827 0.024925 0.549826 
-1.638871 2.023871 -1.189039 -0.744225 0.313419 0.571741 
-1.812379 1.907499 -1.345026 -0.719539 0.325169 0.593830 
1.112151 -0.484871 -0.234761 -0.323215 0.041873 -0.900072 
-1.233313 -0.080539 -0.300873 -0.556287 -0.192179 0.799935 
-0.330574 0.778544 0.197858 -0.852029 0.386388 -0.301956 
-1.185575 1.182262 -0.103387 0.543611 -0.094092 -0.804428 
1.749989 0.358176 -0.265179 -0.120404 -0.189420 0.930949 
-0.184981 -0.244190 0.321751 -0.311113 -0.109745 0.912642 
0.354925 -0.721817 0.175885 0.493051 -0.063447 0.858098 
0.277906 -0.096196 -0.045124 0.619883 -0.083417 -0.754926 
0.970780 0.345543 0.043680 0.556493 -0.207940 0.794324 
0.396523 0.324101 0.389078 0.243843 -0.250445 0.933325 
-1.006890 1.358001 0.118831 -0.068878 0.050926 0.926659 
1.747761 1.984197 -0.066954 -0.084350 0.213623 -0.970053 
-0.644725 0.363876 0.268031 -0.526618 -0.329919 0.762357 
-1.902683 1.772766 -1.415699 0.715536 -0.328047 -0.586401 
-0.230546 0.607685 -0.069439 -0.622334 0.254911 -0.710893 
-0.065868 -0.520210 0.301979 -0.134346 -0.223487 0.961087 
1.487838 0.500710 -0.241629 0.272814 -0.202544 0.921386 
-1.272876 1.673486 -0.257770 -0.948140 0.121067 0.180225 
0.863788 -0.275984 -0.039525 -0.292353 0.043249 -0.925748 
-1.219393 1.583926 -0.043673 -0.895069 -0.107241 0.416938 
-1.398152 2.126406 -0.890065 0.848869 -0.201949 -0.484672 
1.079539 0.715024 0.016554 0.609091 -0.130567 0.749401 
-0.211275 0.386424 0.471326 -0.151717 -0.297755 0.940878 
0.058528 0.704041 0.523204 0.071063 0.030517 0.991477 
-1.917740 2.438435 -1.541619 -0.727177 0.020076 0.679344 
-1.632786 0.260963 -0.485626 -0.607989 -0.070651 0.779983 
-0.691211 -0.526343 0.008190 -0.504155 -0.030040 0.850665 
-0.743436 -0.095045 -0.002737 -0.586053 -0.156535 0.791385 
0.011024 -0.100360 -0.212315 0.434770 -0.173243 -0.848874 
0.344418 -0.451932 0.177226 0.580962 -0.131641 0.801560 
-1.446968 1.629333 -0.676853 0.867335 -0.269269 -0.401843 
-1.441823 2.040271 -0.917192 0.849988 -0.151549 -0.494963 
-0.863064 0.467199 0.044778 0.361466 0.204366 -0.907968 
-0.239689 -0.110836 -0.085492 -0.648812 -0.096795 -0.733796 
-0.258373 0.161639 0.364858 -0.227340 -0.288157 0.924785 
2.295155 0.756759 -0.247893 0.174533 0.060159 0.951356 
-1.935098 1.529521 -1.384801 0.743130 -0.302226 -0.581874 
-1.298330 1.685392 -0.364259 0.724006 -0.315889 -0.557915 
0.002337 1.205069 0.113383 0.546763 0.215644 -0.771261 
2.429161 0.854260 -0.263008 0.080107 -0.011740 0.982062 
-0.131846 1.219828 0.196864 -0.693868 0.510358 -0.463346 
-0.354002 -0.218871 0.237781 -0.539631 -0.192026 0.799077 
0.355966 0.640095 0.092850 0.761673 0.313685 -0.508322 
-0.536845 0.472017 0.142021 -0.261016 0.314290 -0.784013 
-1.876005 0.417326 -0.680209 0.681860 -0.122536 -0.697122 
-1.152982 0.535805 -0.164739 0.519985 0.053162 -0.826992 
-0.979383 0.887448 0.016773 0.425120 0.053472 -0.891247 
0.835956 -0.546692 -0.077199 -0.247092 0.000431 -0.932192 
-0.032289 -0.448442 -0.113538 -0.298888 -0.429780 -0.845740 
-0.313920 0.581800 -0.027139 -0.705005 0.211719 -0.668139 
0.802145 -0.627054 -0.056082 0.439430 -0.035560 0.884304 
1.809368 1.637892 -0.131923 -0.190839 -0.000048 -0.965724 
1.631954 1.171917 -0.184604 -0.336418 -0.043479 -0.934105 
0.491346 -1.051091 0.099412 0.463485 0.179271 0.834601 
2.586987 2.195035 -0.072773 -0.078000 0.097518 0.965726 
1.918550 1.011889 -0.231600 0.097774 0.196136 -0.973409 
1.407898 1.330094 -0.069879 0.254378 -0.315863 0.834841 
0.351929 -0.973325 0.105040 -0.085761 -0.182708 -0.978180 
1.462329 1.028251 -0.149287 0.297468 -0.166652 0.906998 
1.063653 1.688585 0.096726 0.643329 -0.281854 0.707875 
-0.564490 0.408363 0.105386 -0.147449 0.251859 -0.844139 
-0.964709 0.342393 0.010424 -0.643208 -0.206189 0.731436 
-0.448269 -0.243520 0.014319 -0.266873 0.027161 -0.893177 
1.562886 1.730078 -0.043605 0.390246 -0.257552 0.840295 
1.047614 -0.556599 -0.195356 -0.307696 -0.002508 -0.906155 
-1.839030 1.426167 -1.224700 -0.795586 0.263087 0.538953 
0.168133 -0.326235 -0.101180 0.519409 -0.211440 -0.812560 
-1.179138 0.616100 -0.177324 0.530697 0.029334 -0.816101 
-1.748520 0.612285 -0.580023 -0.712460 0.100412 0.672901 
0.077382 -0.848264 0.099055 0.094178 -0.377067 -0.905234 
0.031882 -0.617585 0.288806 0.350622 -0.179604 0.915852 
1.894624 1.361907 -0.178504 0.241560 -0.056532 0.961108 
1.463323 0.937113 -0.174217 -0.165118 0.089156 -0.979881 
-1.386761 0.497077 -0.352278 0.618723 -0.013475 -0.751422 
0.609253 -0.665285 0.048792 -0.182598 -0.062799 -0.957828 
2.242064 0.604310 -0.243587 -0.017001 0.033750 -0.990958 
0.587709 -0.580114 0.040691 -0.098948 -0.046156 -0.945544 
-0.285127 -0.010803 -0.028916 -0.634209 -0.038903 -0.743167 
1.394513 1.440012 -0.080113 -0.239108 -0.052331 -0.952154 
-1.801528 0.310030 -0.603630 -0.630083 -0.014913 0.759041 
-0.431332 -1.413324 0.162108 0.186745 -0.719133 0.423405 
-1.543938 0.142906 -0.447516 0.540804 0.109952 -0.831113 
2.513831 1.419263 -0.224236 -0.033876 -0.059599 -0.983384 
2.260747 1.627289 -0.207372 -0.126216 -0.144741 -0.976015 
-1.821391 1.836542 -1.343764 0.703831 -0.391428 -0.560604 
-0.122660 -0.003896 -0.177949 -0.576282 -0.044308 -0.801140 
1.089005 0.619931 -0.041560 -0.323260 0.107861 -0.932372 
0.864817 0.281380 -0.019706 -0.138425 0.161890 -0.893475 
-0.395763 0.520798 0.435815 -0.338287 -0.079140 0.891806 
0.721197 0.104362 0.124814 0.493684 -0.249696 0.823074 
1.472189 0.723901 -0.200622 -0.219410 0.121237 -0.961414 
-1.595907 2.073357 -1.161430 0.775196 -0.104516 -0.615003 
1.778240 0.505742 -0.211923 -0.188460 -0.156996 0.934404 
2.406176 1.325512 -0.241016 -0.006081 -0.183337 0.971020 
0.748317 -0.827663 -0.031729 -0.221300 -0.140711 -0.938333 
-0.873724 0.471211 0.132397 -0.695418 -0.210755 0.683058 
1.159496 1.236318 -0.019379 -0.154462 0.022714 -0.981879 
-0.753638 -0.617732 -0.067510 0.267510 -0.015411 -0.924846 
-1.953850 0.423384 -0.747083 0.717402 -0.189893 -0.656829 
-1.356255 1.183711 -0.242897 0.628293 -0.156943 -0.737983 
-1.024153 1.115353 0.079167 -0.848036 -0.134634 0.501612 
0.369120 -1.243644 0.176758 0.148445 0.150761 0.871028 
-0.190351 0.750542 0.501669 -0.298902 0.146411 0.915036 
-1.333306 0.091930 -0.320280 -0.576856 -0.181665 0.793609 
-1.103285 0.162768 -0.132339 -0.584149 -0.170797 0.792961 
-1.517841 2.081278 -1.043539 0.813475 -0.143834 -0.553992 
-0.761657 0.926528 0.235959 0.709253 0.165969 -0.683075 
-1.053467 1.826602 0.109186 0.879708 -0.057532 -0.230934 
0.200445 -0.392165 -0.074434 0.531182 -0.232230 -0.805508 
0.386605 -0.914922 0.145068 0.346660 -0.002060 0.924831 
0.093363 0.081923 -0.207807 0.561700 -0.013496 -0.813726 
0.358868 -0.271140 0.219759 0.552374 -0.174443 0.798646 
-0.447116 0.580449 0.281557 -0.361288 0.543059 -0.633200 
0.178563 -0.090824 -0.131537 0.588879 -0.086469 -0.785934 
1.335171 0.931136 -0.113785 -0.189593 0.080294 -0.975955 
-0.973462 -0.259327 -0.157476 0.387717 0.076622 -0.884070 
-1.232913 1.656627 -0.137722 -0.960638 0.107091 0.112770 
-0.479391 0.342367 0.106971 -0.280815 0.206755 -0.852929 
3.027048 1.963964 -0.054380 0.165758 0.218840 -0.960361 
-0.198257 0.384711 -0.126662 -0.691140 0.126091 -0.682079 
0.148190 1.117553 0.359347 0.709427 0.085984 0.615627 
-1.393560 1.104160 -0.287094 0.641604 -0.150526 -0.725371 
1.425480 0.097560 -0.317144 0.487882 -0.228601 0.835186 
-0.398981 0.209624 0.090453 -0.417117 0.136454 -0.863054 
0.048944 -0.029471 -0.210531 0.491480 -0.099169 -0.837426 
2.859445 1.992957 -0.077066 -0.126730 -0.292380 0.940127 
0.589385 -0.139800 0.095709 0.534046 -0.178586 0.818527 
-0.607315 0.126596 0.193775 -0.499214 -0.299766 0.798612 
1.864304 1.707206 -0.136583 -0.179857 -0.086128 -0.969318 
1.739826 0.858724 -0.231693 -0.175208 -0.000732 -0.966582 
-1.824923 1.125383 -0.999076 -0.762282 0.534671 0.245730 
-1.964089 1.328784 -1.360493 0.765792 -0.276769 -0.580304 
2.805371 1.809562 -0.127783 0.119615 0.191814 -0.971818 
0.115117 -0.682110 0.254993 0.190001 -0.191637 0.957462 
0.370593 0.570970 0.135605 0.636468 0.377081 -0.664757 
-0.135921 1.110218 0.366328 -0.753333 0.113143 0.542937 
1.393801 -0.149702 -0.358285 0.498501 -0.192597 0.836207 
0.843149 0.724244 0.082588 -0.410338 0.181515 -0.866124 
-0.204600 0.674994 -0.062626 -0.559537 0.346353 -0.718663 
0.644822 0.480010 0.348482 0.406007 -0.102657 0.872236 
-0.258776 0.131920 -0.096803 -0.721503 -0.016717 -0.672381 
-1.861665 2.204576 -1.470239 0.727209 -0.124271 -0.672244 
-1.648595 2.392519 -1.292026 0.737798 -0.122833 -0.662496 
0.213046 0.926104 0.101572 0.659365 0.381077 -0.641086 
-0.383086 -0.636309 0.135864 -0.537519 -0.065460 0.831443 
-1.401411 -0.051790 -0.440785 0.517855 0.219835 -0.822053 
-0.074257 0.444782 0.503712 -0.077150 -0.308124 0.946022 
2.118533 1.144037 -0.245426 -0.002956 0.129052 -0.984856 
0.820797 0.329212 0.011310 -0.121095 0.159598 -0.900818 
0.103471 -0.757571 0.246600 0.199564 -0.128822 0.959195 
-0.279060 0.382951 0.449648 -0.176139 -0.275150 0.942082 
0.405253 0.658989 0.364794 0.592144 0.380617 0.688761 
0.719471 -0.693610 -0.030300 -0.201418 -0.043825 -0.946471 
-0.343465 0.093321 0.322441 -0.326483 -0.290732 0.889279 
-0.995531 -0.137466 -0.147558 0.417984 0.092160 -0.876934 
1.830079 0.880513 -0.218857 -0.144946 -0.247698 0.938001 
-2.019161 0.910812 -1.166485 0.770181 -0.296462 -0.553357 
-1.794387 1.783338 -1.299519 0.707773 -0.412295 -0.546975 
3.172093 2.085690 0.005609 0.193203 0.249178 -0.948815 
2.417378 0.645530 -0.256610 -0.043357 0.001711 -0.997142 
0.352454 0.651210 0.487535 0.612412 0.010868 0.781173 
-1.746331 1.727432 -1.231388 0.710707 -0.449528 -0.525359 
-0.246948 -0.206261 0.299934 -0.464649 -0.178344 0.823845 
-1.447690 1.560350 -0.604310 -0.885395 0.289664 0.326896 
1.052593 1.432212 0.090320 0.649388 -0.219796 0.706606 
2.432697 2.090551 -0.122883 -0.041285 -0.342381 0.929061 
0.667551 -0.237548 0.027210 0.536996 -0.124273 0.829664 
1.659898 0.035003 -0.484628 -0.354743 0.275432 -0.872583 
0.518376 -0.439922 0.029974 0.091225 -0.021094 -0.922239 
-0.297842 0.512739 -0.053364 -0.723405 0.132012 -0.671430 
1.110472 1.331218 0.054357 0.599111 -0.201853 0.735594 
-0.286820 0.959217 0.302097 -0.918353 0.349201 -0.047263 
1.210509 0.558199 -0.105364 -0.317395 0.126174 -0.930571 
-1.395736 1.465555 -0.356586 -0.868804 0.168839 0.407685 
-0.735563 -0.686758 -0.053150 -0.477314 -0.020329 0.863411 
0.245907 -0.339645 -0.059535 0.585379 -0.184855 -0.782824 
2.568513 1.179076 -0.251401 -0.015383 -0.121628 0.985721 
2.254462 0.853801 -0.252862 0.024251 0.084110 -0.989396 
2.063026 1.676621 -0.173160 0.142422 -0.193615 0.963754 
-0.935459 -0.169737 -0.081491 -0.541997 -0.102836 0.822919 
2.660197 1.953642 -0.120135 -0.083463 -0.278087 0.947514 
1.463388 0.410727 -0.247149 0.293922 -0.221008 0.908369 
1.808264 0.648278 -0.213982 -0.186869 -0.196111 0.934124 
-1.634504 1.307790 -0.849884 0.777362 -0.155720 -0.594121 
-0.051844 0.517961 0.527635 -0.073163 -0.288096 0.953352 
-2.124810 0.746153 -1.214767 0.781000 -0.350137 -0.514612 
-0.579979 0.380181 0.339617 -0.429055 -0.268647 0.831417 
1.606211 1.420705 -0.119134 -0.007554 0.237108 -0.942454 
0.819152 -0.195506 -0.010138 0.503676 -0.114925 0.847604 
-0.519282 0.090971 0.237981 -0.492832 -0.308608 0.798557 
1.245738 0.683343 -0.074377 0.468009 -0.140748 0.828720 
-0.404398 0.449893 0.433886 -0.219016 -0.202623 0.950355 
1.292988 1.871949 0.025530 -0.006074 0.221462 -0.972334 
0.979799 0.101802 -0.089379 -0.254676 0.131070 -0.891340 
-0.552338 -0.257729 -0.009353 -0.105354 0.027530 -0.895127 
1.076709 -0.282262 -0.166427 0.475370 -0.120929 0.857960 
0.152557 0.707391 0.517534 0.179802 0.108308 0.957748 
1.335991 0.379346 -0.175748 0.385618 -0.194068 0.882329 
0.469262 -0.690910 0.087271 0.475340 -0.021076 0.869254 
-0.380420 0.623119 0.444097 -0.514455 0.082637 0.808594 
-0.308512 0.860736 0.224500 -0.878682 0.352179 -0.268592 
2.207002 1.758728 -0.177593 0.120653 -0.027021 0.982910 
0.011610 0.419151 0.492717 0.018809 -0.322366 0.944873 
-1.192672 -0.189906 -0.310735 0.446561 0.147275 -0.853609 
0.279587 -0.252622 -0.008854 0.537784 -0.116975 -0.818048 
-0.651561 -0.039277 0.086445 -0.553539 -0.209280 0.793783 
-0.717962 -0.931324 -0.012285 0.268522 -0.268032 -0.913666 
0.314111 -0.902938 0.164221 0.244812 -0.041813 0.948460 
1.061991 1.052575 0.019989 -0.212359 0.041950 -0.972428 
-0.028579 -0.734466 0.266947 -0.374071 -0.102858 0.912746 
0.824933 -0.823776 -0.053282 -0.258757 -0.177250 -0.925878 
-0.826829 0.861107 0.186071 -0.373381 -0.024519 0.914810 
0.474945 0.367855 0.124160 0.318512 0.230432 -0.843170 
1.051513 0.816320 0.003160 -0.274387 0.075859 -0.953547 
-0.282450 0.938057 0.233261 -0.869854 0.343335 -0.269174 
0.826953 0.430838 0.153676 0.585585 -0.223859 0.764017 
