0.200248 -1.076885 0.144369 -0.158566 0.205901 0.955348 
0.451989 -0.314897 0.039584 0.793950 -0.133894 -0.590138 
0.329774 0.834601 0.181754 0.870930 0.374254 0.251570 
0.102298 -0.790887 -0.046255 0.101314 -0.355145 -0.911275 
1.311889 0.173854 1.285178 -0.779538 -0.031151 0.545482 
1.049414 -0.820262 1.510685 -0.795380 0.577800 0.138078 
0.240206 0.479415 -0.275043 0.575913 0.171047 -0.783221 
-1.850229 0.417375 1.764408 -0.582963 -0.320852 -0.719441 
1.736029 -0.116412 2.272788 0.864711 -0.454184 -0.164876 
-0.767719 -0.342237 0.636874 -0.856086 -0.089838 -0.502601 
-0.736174 0.333647 0.645417 0.752743 0.112651 0.610873 
0.484737 -0.003804 0.078718 0.835233 -0.093714 -0.537085 
-2.399320 -0.001776 2.891905 0.943278 0.277335 0.162480 
0.093465 -0.586852 -0.137033 0.048649 -0.452401 -0.889998 
-0.182081 -0.473068 -0.182318 -0.348019 -0.440147 -0.810356 
-0.722691 0.351197 0.514032 -0.741345 0.410455 -0.521536 
-0.337489 0.617778 0.269799 -0.450460 -0.082998 0.809696 
1.489056 -0.565604 2.165381 0.842482 -0.529586 -0.075495 
-0.254465 -0.186934 0.155308 -0.481068 -0.138332 0.823090 
0.906928 -0.723762 0.840710 -0.850914 0.141437 0.495940 
-0.160561 1.201497 0.364272 0.461698 0.469205 0.708022 
1.770670 0.154138 2.824222 -0.931737 0.280140 -0.163219 
-2.326591 -0.171034 2.824332 -0.910893 -0.349677 -0.204905 
-0.453662 -0.620549 0.212633 -0.681061 -0.171891 -0.673686 
-0.583986 -0.730893 0.414552 -0.723674 -0.103158 -0.631658 
-0.807975 -0.567998 0.797637 -0.871076 -0.156212 -0.445703 
1.214356 0.132222 1.118986 0.824709 -0.275827 -0.492521 
0.900457 0.541482 0.787655 -0.796695 0.317927 0.500911 
1.503767 -0.396487 2.740138 -0.855697 0.472729 -0.115741 
-1.490580 0.183406 1.521428 0.792291 -0.048600 0.567497 
-1.269768 0.392414 1.265641 -0.752533 -0.316748 -0.571058 
0.287886 -0.314113 -0.187585 0.539355 -0.270579 -0.778778 
-2.047956 -0.418902 2.327459 0.790858 0.373374 0.430782 
1.208479 -0.808214 1.999956 0.772228 -0.603132 -0.168277 
-0.236682 0.320189 -0.302134 -0.642101 0.049267 -0.744818 
1.189295 -0.126184 1.134921 -0.792797 0.105693 0.542220 
1.056134 0.392540 0.990084 -0.686460 -0.196938 0.667583 
-0.496134 0.226837 0.085082 -0.863943 -0.100860 -0.491982 
-1.322824 -0.915858 1.941296 -0.528001 -0.540567 -0.649902 
1.500263 0.506044 1.462511 0.805898 -0.221400 -0.503240 
-2.356128 0.471851 2.281162 0.831102 0.087170 0.473419 
1.574950 -0.177457 1.750518 0.941921 -0.258287 -0.084751 
0.784603 0.430368 0.646331 -0.750559 0.339872 0.550625 
0.565471 0.543176 0.278348 0.820134 0.417292 -0.338566 
-1.193513 -0.881356 1.794362 -0.584411 -0.546656 -0.577756 
-1.272914 -0.882657 1.870158 0.621830 0.513713 0.567829 
-2.247646 -0.194859 2.561238 -0.786265 -0.451294 -0.377636 
1.789400 0.252859 2.871379 -0.935224 0.146201 -0.247705 
-0.489612 -0.086168 0.232138 0.479158 -0.104741 0.794599 
-2.016113 0.543909 1.980415 0.650748 0.078140 0.670181 
-1.477208 -0.122413 1.486539 -0.466757 -0.230853 -0.814110 
-0.786529 -0.810195 0.699594 -0.863632 -0.041565 -0.480874 
0.179309 1.249494 0.226245 0.068159 0.891453 0.030532 
-0.768312 -0.015739 0.598029 -0.850567 -0.130765 -0.506626 
-0.678587 0.335693 0.363877 -0.881142 0.025861 -0.456632 
1.808168 0.204452 2.778686 -0.951205 0.238545 -0.147290 
-1.772572 -0.243824 1.775682 -0.720671 -0.335379 -0.592062 
0.944741 -0.426260 0.835524 0.833110 -0.153682 -0.518932 
0.369448 0.543723 0.202476 0.156352 0.102061 0.882146 
1.332056 -0.646236 1.937031 0.817192 -0.550864 -0.108616 
-0.225638 1.122099 0.381523 -0.278263 -0.557241 0.762309 
1.087006 -0.844048 1.739368 -0.778040 0.587462 0.167465 
-0.912645 -0.281907 0.881816 0.808867 0.119099 0.557892 
0.975565 -0.853925 1.273279 0.794734 -0.539136 -0.200915 
-1.767542 0.371901 1.701821 -0.614044 -0.231512 -0.720472 
-0.584155 -0.851140 0.419039 0.602851 -0.007039 0.694398 
-0.898660 0.503493 0.852286 0.807233 0.198586 0.542331 
0.238279 -0.909606 0.121222 0.052259 0.107833 0.952597 
1.153922 -0.611063 1.341264 -0.819120 0.437773 0.282989 
-0.757312 0.352754 0.577649 -0.721649 0.406042 -0.554292 
-1.844233 -0.456788 1.995005 -0.698335 -0.415695 -0.571371 
-1.155103 0.714928 1.118277 0.713431 0.470037 0.348066 
-0.717012 -0.125447 0.589556 0.812116 -0.016927 0.569384 
-0.707665 0.252117 0.606378 0.750566 -0.115756 0.648501 
1.873446 0.480683 2.846163 0.867306 0.315924 0.366624 
1.660418 -0.243786 2.145353 -0.898597 0.354373 0.163271 
-1.308678 -0.383445 1.460763 -0.647234 -0.366609 -0.639711 
0.140234 -1.324280 0.194917 -0.777886 -0.241662 0.315014 
-0.129554 0.871685 0.357420 -0.269684 -0.059203 0.958680 
0.081061 0.356287 -0.377859 0.520402 0.127415 -0.822104 
-0.539666 -0.020680 0.330506 0.603480 -0.108914 0.720565 
1.151985 -0.482512 1.103350 -0.845859 0.204332 0.483702 
-1.949957 0.071588 1.858763 0.641183 0.152035 0.742484 
-0.279636 -0.681436 0.102247 -0.267368 -0.068496 0.902859 
-1.534068 -0.447200 1.699834 -0.626518 -0.466303 -0.616641 
1.323520 -0.282327 1.264947 0.836146 -0.284668 -0.468046 
-0.301435 -0.100918 -0.209349 -0.611359 -0.175778 -0.743184 
1.567629 -0.156614 2.999256 0.872028 -0.390252 0.270689 
1.343076 -0.047557 1.317036 -0.812767 0.097445 0.505658 
-0.834483 0.056590 0.682575 -0.847829 -0.160725 -0.497323 
-2.383077 0.538495 2.325873 0.697836 0.387753 0.546066 
-0.223213 -1.276766 0.178371 -0.694396 0.232072 0.640430 
-0.911017 0.420027 0.841602 0.703551 -0.222738 0.671871 
0.743490 0.003980 0.538770 0.829761 -0.111922 -0.542786 
0.243378 0.554214 -0.250159 0.540110 0.262586 -0.774563 
0.257255 1.047716 0.172062 0.913642 0.383458 0.083113 
-1.334184 0.095698 1.431140 0.718319 0.047034 0.631287 
-0.766544 0.423487 0.595906 -0.726455 0.336644 -0.577470 
-0.164549 -0.875995 0.016839 -0.062832 -0.352781 -0.930093 
0.753515 0.140729 0.624344 -0.748523 -0.135109 0.642698 
1.142349 0.094177 1.033537 0.827169 -0.263413 -0.493504 
-0.066905 0.294428 0.279870 -0.087136 -0.290971 0.943255 
0.229350 1.262148 0.380307 0.779329 -0.473738 -0.387917 
-0.842857 0.451071 0.764423 0.782201 0.277175 0.539696 
-1.353289 -0.614734 1.702622 -0.477723 -0.504204 -0.688276 
-0.801014 -0.678827 0.792768 0.867591 0.088217 0.461775 
-1.412619 0.314858 1.436074 -0.648984 -0.304401 -0.666123 
0.814702 -0.698209 0.686104 -0.803744 0.017048 0.579048 
0.134219 -1.191044 0.092671 -0.731120 0.040705 0.596276 
0.415583 -0.243211 -0.030180 0.802246 -0.133470 -0.577564 
-1.831872 -0.676774 2.153467 -0.684216 -0.490844 -0.537414 
1.637787 0.238187 3.230869 0.898834 -0.235858 0.352966 
-1.086905 0.712645 1.025582 -0.602427 0.344939 -0.621312 
1.074353 -0.508136 0.999484 0.841811 -0.211598 -0.486531 
-2.071385 0.216224 1.929099 -0.529393 -0.311399 -0.776142 
1.763865 0.316596 3.010003 0.929325 -0.202417 0.284689 
-0.010860 0.222893 -0.444097 -0.485770 0.024300 -0.870498 
-0.617043 0.510051 0.435327 0.694847 0.373542 0.599211 
-1.501819 0.708401 1.510414 -0.685424 -0.385463 -0.600238 
-0.524673 0.586939 0.205132 -0.851477 0.398351 -0.290012 
-0.945617 0.673367 0.849188 0.793202 0.120945 0.592303 
-0.716388 0.262374 0.453326 -0.870906 -0.060870 -0.484252 
0.252091 -0.558254 -0.104301 -0.100503 -0.419245 -0.867896 
1.585746 -0.175976 2.907333 0.880708 -0.371914 0.250269 
-1.500549 0.772495 1.562838 0.502176 -0.120247 0.842622 
1.759248 0.038805 2.669897 -0.875742 0.458859 -0.042541 
1.272002 -0.601588 1.677543 -0.850179 0.491154 0.032719 
-2.207465 0.350177 2.048991 -0.809803 0.054859 -0.561104 
0.247898 -1.018556 0.088377 0.297466 -0.307921 -0.876860 
-1.154400 -0.236322 1.221537 0.747381 0.196161 0.610251 
0.895792 -0.425860 0.777995 0.831857 -0.136020 -0.527005 
-0.177301 -0.014937 -0.306951 -0.541348 -0.111479 -0.809561 
1.232931 0.579623 1.201243 -0.712800 -0.270581 0.626487 
-1.224460 0.682312 1.280522 0.774808 0.055546 0.606972 
1.652919 0.172429 1.843556 -0.880685 0.015545 0.438885 
0.148031 0.315619 -0.352948 0.579354 0.068315 -0.790216 
-0.088494 0.182001 -0.390726 -0.528500 -0.007824 -0.834895 
-1.757423 -0.652253 2.070994 -0.688084 -0.485090 -0.534632 
-1.447151 0.603711 1.523528 0.422094 -0.083990 0.881025 
1.822977 0.205898 2.291661 -0.939506 0.150185 0.194068 
1.277847 -0.529316 1.477787 0.756460 -0.488691 -0.381235 
-0.072175 1.045185 0.369560 -0.152595 0.057725 0.975580 
-0.293486 -0.610754 0.087136 -0.267699 -0.078545 0.906288 
-2.118386 -0.242776 2.272140 0.842418 0.279585 0.395025 
-0.907678 0.529589 0.772985 -0.656721 0.346383 -0.659005 
-0.674038 0.008831 0.428210 -0.855484 -0.109211 -0.504582 
1.445358 0.739309 1.377453 0.792892 -0.285987 -0.536647 
0.739048 -0.673322 0.576998 -0.749551 -0.042767 0.641170 
-0.237768 -0.821827 -0.002400 -0.017958 -0.377296 -0.911888 
-0.930561 -0.835215 1.308147 0.802484 0.388621 0.412350 
1.603924 -0.250575 1.904140 -0.776897 0.371512 0.422446 
1.557549 -0.409573 2.493349 -0.868234 0.440868 -0.034839 
-2.073899 0.353905 1.916267 -0.674021 -0.140083 -0.710139 
0.825652 0.427219 0.712887 -0.758941 0.325653 0.549286 
0.863776 0.073328 0.701301 0.816950 -0.144332 -0.548843 
1.661396 -0.183275 1.927951 0.917749 -0.320358 -0.192553 
-0.030197 -0.217535 0.203548 -0.122812 -0.013836 0.986972 
0.009099 0.515865 0.353748 0.038895 -0.279919 0.956942 
1.688214 0.188789 3.084539 0.905589 -0.262840 0.308438 
0.150852 1.074322 0.366091 0.080694 -0.030715 0.960513 
-0.059401 0.766432 -0.218389 -0.422984 0.377078 -0.813810 
0.932685 0.653622 0.812429 -0.785891 0.143297 0.590571 
-0.357734 -0.990286 0.176296 -0.556985 -0.198864 -0.780156 
-0.217786 -0.693944 -0.056760 -0.049828 -0.398511 -0.895576 
-1.156603 0.105867 1.203148 0.709952 0.014004 0.648694 
0.769445 0.632430 0.611022 -0.786421 0.073421 0.608192 
1.863106 0.259936 2.499383 0.971248 -0.077049 0.077985 
0.961702 -0.011057 0.869888 -0.759472 -0.027095 0.608111 
0.442107 0.322325 0.253273 -0.604071 -0.185385 0.755880 
0.909827 -0.254997 0.769887 0.820823 -0.117497 -0.548010 
-0.124106 0.799874 0.347374 -0.188762 -0.018298 0.977444 
-0.667192 -0.080813 0.423117 -0.856521 -0.089998 -0.507785 
0.561188 -0.115068 0.222752 0.822908 -0.090363 -0.556760 
1.644189 -0.244149 2.023040 -0.865444 0.364300 0.281757 
0.567017 -0.506347 0.374728 0.697408 -0.137702 -0.667221 
-2.190183 0.620374 2.058051 0.686592 0.131261 0.710652 
-0.071425 0.952846 0.369923 -0.210777 0.037428 0.967975 
-0.183994 1.241615 0.309036 -0.875327 -0.394511 -0.232522 
-1.488832 0.394972 1.550994 0.517647 -0.021401 0.815546 
-1.166211 0.402464 1.118926 -0.783823 -0.302466 -0.533763 
0.232448 0.423609 0.284074 0.169618 -0.239090 0.949448 
0.738631 0.568893 0.576963 -0.771835 0.128821 0.604277 
-1.566772 0.169754 1.518907 -0.643041 -0.167210 -0.694513 
-0.497332 0.068085 0.280114 0.579023 -0.153514 0.746886 
-0.882889 -0.845199 1.112358 -0.867252 -0.308000 -0.371267 
1.089435 -0.158409 1.016712 -0.796600 0.086841 0.553204 
1.393213 0.458898 1.386525 -0.769298 -0.175768 0.552057 
1.279042 0.288556 1.249114 -0.757853 -0.100647 0.572254 
0.114378 -0.342763 -0.269653 0.399966 -0.330804 -0.835192 
-2.106743 0.277726 1.952956 -0.505660 -0.346321 -0.783602 
0.606198 0.005591 0.295639 0.838959 -0.072738 -0.536752 
-1.292925 -0.987147 1.978429 0.555912 0.533003 0.635566 
0.323186 -0.454971 0.089378 0.467294 -0.097955 0.818414 
0.275220 0.749767 0.310759 0.529738 0.255116 0.804392 
-0.322971 0.005529 -0.191269 -0.667218 -0.139842 -0.694706 
1.772393 0.278005 2.938406 -0.923160 0.090788 -0.315256 
-0.061529 1.306372 0.119214 -0.363286 0.823403 0.393974 
1.476205 0.495476 1.531540 -0.707538 -0.124497 0.647245 
-0.299953 -0.340946 0.133037 -0.605633 -0.103814 0.762703 
1.392198 -0.405630 1.567145 -0.887379 0.382306 0.066297 
0.316612 -0.915975 0.124428 -0.194799 0.075881 0.963466 
-1.890236 0.552192 1.793351 -0.805114 0.026594 -0.580576 
-2.225088 -0.191565 2.490613 -0.762015 -0.462740 -0.411381 
-0.419584 0.550205 0.270996 0.690488 0.283507 0.655164 
-1.036621 -0.246188 1.050867 0.775594 0.155776 0.588890 
-0.285246 -0.745129 -0.028612 -0.530337 -0.260094 -0.797836 
0.492217 -0.774376 0.322111 0.621083 -0.157078 -0.730049 
-1.311907 -0.543777 1.602891 -0.522651 -0.478943 -0.660568 
0.936630 0.499341 0.879514 -0.751616 -0.002523 0.627677 
0.010614 0.331382 0.292424 0.000544 -0.324866 0.943428 
1.421235 -0.171119 1.390188 0.799203 -0.258261 -0.529835 
-1.481176 0.648413 1.460298 -0.848146 -0.175582 -0.489046 
-0.387009 -0.920673 0.207458 -0.578606 -0.193360 -0.760699 
-1.821487 0.575820 1.785601 0.537958 -0.010419 0.797451 
-0.463991 0.461885 -0.030334 -0.838920 0.134551 -0.479456 
1.698771 0.689828 1.941050 0.986440 -0.024920 -0.155968 
-0.229708 -0.146383 -0.255230 -0.545285 -0.179371 -0.796205 
-1.591063 0.095038 1.531412 -0.743973 -0.152987 -0.640097 
0.663759 -0.348714 0.470237 0.764083 -0.097596 -0.615764 
-0.795064 -0.221599 0.698772 0.826903 0.050405 0.551834 
0.320974 0.261196 0.184085 0.124033 -0.226138 0.964115 
0.052375 -0.525579 -0.171581 0.093211 -0.625337 -0.766213 
-0.668822 0.485239 0.477088 -0.768285 0.375503 -0.460192 
0.963167 -0.241241 0.866266 -0.810780 0.083050 0.557975 
0.239232 0.183686 0.202189 0.188480 -0.237792 0.951333 
0.579538 0.261073 0.411207 -0.661883 -0.200498 0.711785 
1.537566 0.513020 1.578689 0.900385 -0.289537 -0.240253 
-0.422860 -0.821670 0.255789 0.380696 0.056192 0.849803 
1.442254 0.729356 1.475355 -0.658748 -0.214379 0.704734 
-1.079462 -0.859910 1.673395 0.683923 0.533382 0.482087 
-0.644511 0.057238 0.370249 -0.856799 -0.110181 -0.502031 
0.129364 -1.245586 0.148760 -0.187858 -0.287120 -0.838152 
-0.112878 -0.500648 0.171126 -0.202769 -0.146465 0.966777 
-0.300646 0.402780 0.236674 -0.104752 -0.210788 0.967685 
1.085581 -0.869108 1.808960 0.730208 -0.624172 -0.256034 
0.011799 1.182868 0.304217 0.001795 0.627621 0.755719 
1.591895 -0.380594 2.431292 0.831724 -0.541795 -0.059887 
-1.105531 0.186699 1.066292 -0.794904 -0.293465 -0.523085 
1.222766 0.682395 1.232912 -0.782182 0.093428 0.608190 
1.665670 -0.215255 2.516425 0.832896 -0.536042 -0.048910 
-0.266781 -0.267937 0.148102 -0.517776 -0.111319 0.807540 
1.814675 0.347240 2.141457 0.926836 -0.159251 -0.299942 
-2.400486 0.305233 2.364712 -0.900068 -0.213374 -0.374470 
0.234249 1.201315 0.418937 0.702555 0.104035 -0.689692 
0.735841 -0.781409 0.561166 0.760538 0.001396 -0.636758 
-1.324411 0.269091 1.416956 0.698476 -0.045455 0.649686 
-0.009386 1.291792 -0.069744 -0.532293 -0.047366 -0.787805 
-0.247957 0.999058 0.270038 -0.795130 0.045733 0.571963 
1.299944 0.429378 1.276594 -0.747631 -0.175416 0.582594 
-1.071247 -0.671947 1.467642 -0.723804 -0.452399 -0.495130 
1.033081 0.689587 0.928458 0.654510 0.262811 -0.638692 
-0.076080 0.109622 -0.387451 -0.502789 -0.037443 -0.848894 
0.501382 -0.070697 0.112762 0.827012 -0.097593 -0.548681 
0.997592 0.435627 0.922388 -0.665938 -0.231007 0.694640 
-0.332039 0.348172 0.202835 -0.077462 -0.206221 0.969246 
1.878777 0.346762 2.734039 0.963235 -0.197278 0.165866 
1.564062 -0.315802 1.908421 -0.741795 0.402990 0.440475 
-0.645155 -0.096923 0.489054 0.745552 -0.046171 0.618486 
-0.087151 -0.837981 -0.029291 -0.125438 -0.316832 -0.920261 
1.384206 0.179658 1.371660 -0.802478 -0.024597 0.507717 
0.570539 -0.626527 0.417216 -0.552080 0.023666 0.752653 
-0.536102 -0.102342 0.305978 0.551525 -0.082908 0.745224 
-0.472487 0.137123 0.049376 -0.861755 -0.087309 -0.498700 
-2.050940 0.488133 2.027171 0.688775 0.090173 0.619056 
0.249784 0.595699 0.314731 0.324935 -0.190016 0.890536 
-1.991145 0.496012 1.868122 -0.799005 0.039220 -0.587705 
1.152667 -0.712234 1.566325 -0.823686 0.534970 0.084083 
0.678502 0.184040 0.409404 0.844845 -0.139322 -0.513780 
0.648796 -0.024093 0.491011 -0.726650 -0.093236 0.658141 
1.323990 -0.541902 1.688072 -0.866751 0.467471 0.001418 
-1.708980 -0.420321 1.860832 0.393472 0.390922 0.767242 
0.495754 -0.426478 0.197994 -0.337853 0.002282 0.867762 
-0.717335 -0.082708 0.514902 -0.853705 -0.103828 -0.509097 
-1.133193 0.645596 1.144981 0.751652 0.326939 0.433935 
1.767949 -0.051842 2.284689 0.866372 -0.449225 -0.170479 
0.320211 0.814628 0.027862 0.816288 0.448223 -0.298430 
-2.089077 -0.308494 2.272902 -0.697636 -0.491030 -0.507059 
-0.161262 0.416563 0.322553 -0.253007 -0.272899 0.927647 
1.021012 -0.794938 1.307336 0.794093 -0.537314 -0.209614 
0.028368 1.136010 -0.094077 0.386112 0.206064 -0.889018 
-0.753594 -0.657600 0.592036 -0.848456 -0.008291 -0.521155 
-2.428520 0.292719 2.530126 0.947196 0.084401 0.246869 
0.167681 0.399983 0.315850 0.243489 -0.274477 0.929129 
-0.903825 -0.372874 0.876375 -0.830886 -0.179366 -0.506162 
1.463444 0.653411 1.404266 0.790921 -0.284821 -0.539649 
-1.019519 -0.678947 1.245612 -0.805399 -0.334974 -0.455656 
1.074309 -0.719504 1.280427 0.806044 -0.473150 -0.270056 
0.135007 0.909342 -0.119204 0.545568 0.367995 -0.727908 
-0.312801 -0.949034 0.118723 -0.532800 -0.229616 -0.802104 
-0.424673 -0.697818 0.199085 -0.645897 -0.185072 -0.703832 
0.271523 -0.177505 -0.226037 0.557786 -0.203521 -0.781502 
0.310394 -0.497902 -0.117702 0.602443 -0.250262 -0.733766 
0.753247 0.481117 0.602200 -0.755591 0.248550 0.579094 
-1.629736 -0.678295 1.988403 -0.671815 -0.489317 -0.545435 
0.383854 -0.452785 -0.041243 0.753270 -0.164227 -0.625329 
-0.547462 0.098387 0.370024 0.681838 -0.146167 0.682805 
1.388583 -0.497105 1.771977 -0.602017 0.482323 0.587654 
-2.073224 0.423664 2.002399 0.678701 0.063754 0.665098 
-0.034306 -0.361082 -0.296045 -0.341201 -0.380448 -0.843992 
1.001571 -0.891586 1.555045 0.761285 -0.621459 -0.177743 
-1.408156 0.073411 1.442100 -0.608688 -0.284660 -0.700088 
0.697979 -0.190897 0.540094 -0.738442 -0.023090 0.640035 
-1.408187 0.637286 1.474567 0.693394 -0.256899 0.654456 
1.816173 0.141893 2.664228 0.950041 -0.192779 0.214654 
-2.296057 -0.233388 2.804474 0.894940 0.366010 0.241072 
-0.033621 1.082591 -0.106721 -0.345875 0.267182 -0.890611 
-0.704854 -0.920321 0.526901 -0.796735 0.061170 -0.566096 
-2.120713 0.534703 2.048030 0.682985 0.108077 0.660656 
1.108357 -0.596526 1.052128 0.848553 -0.236023 -0.468904 
-1.082168 -0.572634 1.243935 0.805758 0.274371 0.500514 
-1.416867 -0.892420 1.999959 0.548452 0.513183 0.641860 
0.045528 -0.232650 0.201679 0.140689 -0.008557 0.984400 
-0.161250 -0.290511 0.188407 -0.257619 -0.020642 0.955366 
-1.508763 -0.264071 1.581577 -0.405927 -0.343190 -0.818937 
-1.663758 -0.372822 1.765976 -0.738248 -0.407601 -0.527852 
-0.490201 0.234096 0.296651 0.627875 -0.215603 0.732481 
-0.003453 0.731536 0.350371 -0.044805 0.043346 0.995772 
-0.683510 0.631080 0.513715 0.764310 0.131093 0.608854 
-2.117640 -0.294543 2.345338 0.834915 0.314505 0.388350 
-1.826277 -0.029706 1.755328 -0.686326 -0.151586 -0.688021 
0.047258 -0.342885 -0.295557 0.350117 -0.362765 -0.844608 
-0.505581 -0.339120 0.151386 -0.812879 -0.129030 -0.564682 
0.742256 0.243070 0.499507 0.854348 -0.106544 -0.503481 
-2.250013 -0.338356 2.789771 -0.877619 -0.403687 -0.257132 
0.328904 -0.145916 -0.143493 0.643475 -0.216960 -0.684607 
-1.021099 -0.766621 1.532078 0.717655 0.494517 0.472721 
0.518296 -0.179963 0.249296 -0.455865 -0.070443 0.810032 
-0.072937 0.525295 -0.333759 -0.453058 0.286904 -0.829549 
1.246186 0.621153 1.139862 0.802635 -0.259606 -0.529453 
-0.195078 0.386750 -0.307447 -0.593373 0.124113 -0.766530 
1.662368 0.371966 1.843912 0.867835 -0.259073 -0.367770 
-0.830028 -0.337425 0.789086 0.835421 0.097079 0.523260 
1.245372 -0.700396 1.837401 0.800345 -0.565283 -0.133754 
0.172010 -0.601972 -0.109186 0.193197 -0.457459 -0.856937 
1.559380 0.183449 1.674126 -0.804865 -0.000275 0.533315 
0.879868 -0.834862 0.782512 0.828987 -0.119698 -0.524992 
-0.631454 0.301476 0.292084 -0.876994 -0.013678 -0.470003 
1.493618 -0.316534 2.962631 0.851470 -0.469078 0.220736 
0.177266 0.492256 0.327873 0.232496 -0.246531 0.937070 
1.667874 -0.117875 2.728601 0.839859 -0.509735 0.047413 
-0.559391 0.350661 0.455885 0.721241 -0.000818 0.673474 
0.123348 -0.153405 -0.311219 0.460750 -0.191024 -0.841041 
1.225134 -0.640657 1.619377 -0.841696 0.506607 0.049483 
-0.275748 0.988955 0.198769 -0.908467 0.308994 0.220261 
-0.141435 1.100290 0.187256 -0.686995 0.377688 0.369637 
-2.337231 -0.064377 2.693918 -0.929492 -0.278756 -0.210041 
-2.209878 -0.063050 2.271680 0.902555 0.191111 0.341638 
-0.213178 0.933497 0.309767 -0.605344 0.071859 0.765883 
1.522324 -0.226978 3.029005 -0.864868 0.431062 -0.248247 
0.570050 -0.277216 0.310372 -0.484767 -0.024309 0.785087 
0.238205 0.101557 -0.287545 0.608000 -0.072014 -0.766435 
1.638651 -0.309117 2.101130 0.886572 -0.397616 -0.192852 
-0.806912 -0.757884 0.786694 -0.870973 -0.111619 -0.449831 
1.463274 0.461278 1.414753 0.786881 -0.272793 -0.547783 
-2.311466 0.081839 2.386854 0.791774 0.400704 0.424078 
1.632422 -0.319064 2.411622 0.830173 -0.546917 -0.084280 
-2.052974 -0.246216 2.130025 -0.672563 -0.462983 -0.568620 
-0.327468 -1.040501 0.121642 0.258388 -0.016552 0.942541 
0.883466 -0.342289 0.780851 -0.817608 0.073638 0.556631 
0.438239 0.659529 -0.021696 0.721897 0.549648 -0.355174 
-1.526456 0.450058 1.513752 -0.815748 -0.210642 -0.512159 
-1.934025 -0.292654 1.973746 -0.682995 -0.371787 -0.618085 
-2.319565 0.598798 2.202298 -0.805346 0.234581 -0.484010 
-0.426456 -0.136913 -0.011306 -0.827454 -0.118683 -0.544477 
0.343908 -0.674404 0.043521 -0.105363 0.023499 0.981592 
-2.040861 -0.515210 2.447354 0.774711 0.436235 0.423278 
1.816345 0.063245 2.564234 0.947209 -0.208723 0.199476 
-1.091321 -0.590401 1.340016 0.772881 0.333834 0.508780 
0.780224 -0.588728 0.615280 0.797725 -0.022026 -0.596166 
-1.772829 0.503047 1.726761 0.543065 -0.163050 0.767752 
-0.000331 -0.709701 0.165863 -0.537682 -0.120663 0.829926 
1.377736 -0.573466 1.911985 -0.674441 0.510922 0.431075 
-0.971926 0.254763 0.860955 -0.830593 -0.244700 -0.490845 
-2.057380 0.610285 1.927659 -0.776509 -0.017695 -0.627627 
1.200628 -0.755228 1.850958 0.785008 -0.582780 -0.154283 
0.250867 0.183574 -0.291904 0.638048 -0.037607 -0.750260 
-0.255664 0.470795 -0.271816 -0.589933 0.156093 -0.780039 
-1.813386 -0.158511 1.793765 0.564820 0.278583 0.746949 
1.228011 -0.492384 1.263109 -0.838268 0.305254 0.413576 
-0.469255 -0.451987 0.167302 0.311319 0.002582 0.875196 
0.525595 -0.350754 0.184813 0.784265 -0.123562 -0.600961 
0.805527 -0.255378 0.647482 0.818237 -0.080033 -0.565045 
0.327358 0.440754 -0.242892 0.649238 0.098400 -0.751134 
1.408413 0.641017 1.336322 0.798390 -0.286748 -0.528832 
-1.963375 -0.219123 1.961350 -0.679855 -0.364357 -0.626230 
-0.765591 -0.262922 0.630683 -0.855193 -0.101070 -0.504705 
-0.192353 0.677451 -0.224563 -0.442477 0.441421 -0.763364 
-1.442954 0.762649 1.503355 0.401259 -0.329157 0.834881 
0.231701 -0.595026 0.115560 0.367934 -0.136414 0.892724 
-0.506557 0.077690 0.116577 -0.858827 -0.089091 -0.503131 
1.495146 -0.345333 2.891320 0.849079 -0.478069 0.187501 
1.500865 -0.366382 2.820175 -0.856975 0.467262 -0.150982 
-1.513466 -0.064490 1.534272 0.834360 0.072275 0.530345 
-0.871015 0.382952 0.790613 0.713667 -0.212628 0.664852 
-0.659339 0.308232 0.564773 0.741188 0.032097 0.644889 
-1.560827 -0.002923 1.527864 -0.364317 -0.198282 -0.894172 
-1.333804 0.525438 1.407926 0.683295 -0.191075 0.664776 
0.312350 -0.139440 0.138043 0.447853 -0.166438 0.826601 
-0.016358 0.103818 0.219312 -0.072402 -0.177414 0.978250 
1.668637 0.247294 1.856385 0.889194 -0.152501 -0.386153 
1.565329 -0.443526 2.177276 -0.858802 0.455657 0.172541 
1.476483 -0.331868 1.710934 -0.601514 0.401751 0.668454 
-0.672890 -0.155304 0.522016 0.761447 -0.016875 0.601300 
-0.029975 1.229239 0.253391 0.060344 0.775834 0.606482 
0.250925 -0.098760 -0.250234 0.564330 -0.164297 -0.783108 
0.367370 0.495551 0.259246 -0.463130 0.109296 0.759787 
0.186795 0.108042 0.194649 0.193592 -0.199763 0.959922 
-0.262491 -0.323225 -0.208684 -0.525100 -0.263612 -0.797755 
1.637524 0.699616 1.888577 -0.829134 0.012143 0.475357 
-1.006948 -0.186029 0.966065 -0.797102 -0.207862 -0.550239 
1.835880 0.644742 2.257694 0.976878 0.086913 -0.183645 
-2.243245 -0.055710 2.336736 -0.698669 -0.494760 -0.493354 
1.066844 0.070092 0.995446 -0.744953 -0.029739 0.606777 
-0.804733 -0.137208 0.708936 0.812364 0.011682 0.566178 
0.107366 1.248920 0.223410 -0.007716 0.897156 0.375980 
-2.320539 0.122316 2.328535 -0.935675 -0.160218 -0.297528 
0.423243 0.264141 -0.051684 0.867703 -0.068959 -0.488634 
-0.338450 -0.425415 0.080111 -0.412227 -0.087847 0.825991 
1.802535 0.686736 2.208155 -0.859427 0.316129 0.328187 
0.324381 0.192340 0.162102 0.139763 -0.237080 0.960356 
0.383186 -0.704528 0.125535 0.623143 -0.199687 -0.724887 
1.761651 -0.011141 2.602261 0.833597 -0.531664 -0.046042 
1.121641 0.403494 1.067086 -0.702777 -0.191743 0.644883 
-1.570257 -0.622392 1.891128 -0.687119 -0.477202 -0.534908 
1.331555 -0.363583 1.280671 0.838618 -0.284173 -0.464109 
-1.820267 -0.401196 1.945906 0.566432 0.382473 0.678410 
-0.342492 0.245408 0.178939 -0.005816 -0.231945 0.931979 
-0.870021 -0.281837 0.822735 0.818505 0.100564 0.549290 
0.057887 1.250055 -0.036616 0.564571 0.155028 -0.778488 
0.262104 0.760256 -0.145654 0.557061 0.520976 -0.640372 
1.594411 0.595085 1.701057 0.856671 -0.380336 -0.312014 
-0.042929 -0.963988 0.093692 -0.297169 -0.117311 0.930947 
-0.430579 -0.349651 0.014298 -0.804907 -0.138495 -0.575040 
-0.292999 -0.190441 -0.205145 -0.581147 -0.212349 -0.762024 
1.673217 -0.246919 2.358425 0.839748 -0.521709 -0.117535 
-1.476376 -0.886145 2.041969 0.592274 0.514356 0.613138 
-0.141658 0.580849 -0.279220 -0.457246 0.317678 -0.803303 
-2.130620 -0.409489 2.547387 -0.799089 -0.441692 -0.370118 
-0.421306 0.193274 0.181832 0.515948 -0.222185 0.802770 
-2.184839 -0.077404 2.206954 -0.659928 -0.507501 -0.552252 
-1.910272 -0.434552 2.063252 0.698581 0.386784 0.581228 
1.886280 0.413720 2.796457 0.963148 -0.160937 0.207825 
-0.041864 0.037586 0.207142 -0.107899 -0.144412 0.980160 
1.277929 0.430059 1.185760 0.811114 -0.278610 -0.512999 
1.264582 -0.023968 1.184950 0.828814 -0.280399 -0.483081 
-2.283774 0.073081 2.233360 -0.809781 -0.356534 -0.448003 
1.245526 0.539906 1.142898 0.808121 -0.275606 -0.519683 
1.286018 0.676925 1.158640 0.681088 0.210009 -0.666412 
1.146773 -0.666587 1.409348 0.772154 -0.530724 -0.279672 
1.058763 -0.598974 0.994250 0.847474 -0.218522 -0.476695 
-2.206465 0.432083 2.147189 0.758641 0.136344 0.566355 
-1.911653 0.001763 1.835647 0.639588 0.180142 0.735728 
-0.806248 0.433374 0.691850 0.766838 0.365644 0.518370 
-1.957462 -0.339263 2.050312 -0.681448 -0.416644 -0.590059 
-1.153646 -0.150865 1.216507 0.735054 0.152888 0.622996 
-1.449983 0.247589 1.498113 0.762670 -0.068752 0.593332 
-0.828713 -0.860969 0.874413 -0.879063 -0.151760 -0.418760 
1.580038 -0.031984 1.592831 0.918471 -0.155233 -0.320702 
0.264915 0.848717 -0.047170 0.701327 0.418943 -0.520019 
-1.003693 0.438015 0.885701 -0.833576 -0.280107 -0.474236 
1.800327 0.383391 2.339713 -0.927228 0.106493 0.154324 
-1.458242 -0.022204 1.502495 0.799461 0.068149 0.560685 
1.589159 0.259859 1.685817 0.925637 -0.159803 -0.250307 
0.049014 -0.833924 -0.023684 0.215863 -0.304344 -0.909095 
-1.332516 -0.251336 1.412305 -0.659173 -0.294326 -0.662909 
-1.314718 -0.174802 1.419536 0.740218 0.193212 0.611532 
0.144461 0.201352 0.246198 0.201170 -0.229349 0.948448 
1.164398 -0.407091 1.090669 0.837332 -0.230049 -0.485560 
-1.288559 -0.013898 1.353096 -0.733618 -0.318188 -0.598220 
-1.089245 -0.191574 1.088904 -0.777838 -0.245192 -0.563866 
-1.886055 -0.137781 1.815700 -0.696894 -0.263133 -0.657441 
1.132638 0.355296 1.012709 0.819209 -0.268578 -0.505848 
-1.261271 -0.952791 1.919028 -0.555528 -0.549441 -0.615848 
-0.436935 0.328238 -0.046048 -0.865198 -0.004482 -0.475225 
0.178710 -0.315379 -0.251309 0.455538 -0.280658 -0.827191 
1.703303 0.090844 2.947666 0.908698 -0.307568 0.250642 
1.884447 0.539225 2.654319 0.911272 0.243680 0.149173 
-0.453768 0.336988 0.282624 0.634323 -0.134438 0.733547 
0.568189 0.401177 0.155315 0.881463 0.083733 -0.439130 
-0.538384 0.286308 0.136967 -0.873803 -0.037915 -0.476081 
1.629972 -0.124657 2.833435 -0.867953 0.456814 -0.135036 
-0.393612 -0.399035 -0.043535 -0.791854 -0.147832 -0.589383 
0.952049 -0.306374 0.826853 0.825304 -0.139772 -0.534086 
0.482989 0.413408 0.011253 0.882565 0.088869 -0.432011 
1.134347 0.635801 1.111482 -0.755768 0.278871 0.486341 
-0.908409 -0.507743 0.944211 -0.844861 -0.210815 -0.467845 
-1.639784 0.491190 1.627272 0.502349 -0.215606 0.790351 
0.405967 0.626823 0.167170 0.278049 0.403820 0.778096 
0.262816 -0.200929 0.150943 0.500377 -0.136105 0.811101 
-2.177180 0.468824 2.004108 -0.755951 -0.013042 -0.650411 
0.689545 -0.503104 0.518265 0.752531 -0.068762 -0.630298 
-1.243170 -0.382855 1.390283 -0.729057 -0.333228 -0.590572 
1.850869 0.184611 2.496327 0.967798 -0.077484 0.148044 
1.333955 0.486306 1.251566 0.806952 -0.282313 -0.517551 
-1.137691 -0.196622 1.161432 -0.766395 -0.266953 -0.572106 
0.009678 -0.782317 0.143007 0.460544 -0.120879 0.876349 
1.537539 -0.296512 2.835500 0.846291 -0.487821 0.145845 
-0.636860 -0.185172 0.455139 0.681626 -0.019638 0.650242 
1.854226 0.247934 2.400503 0.974923 0.021115 0.050975 
1.707189 0.026325 2.829507 -0.877975 0.420072 -0.136918 
1.267830 -0.580172 1.590158 -0.860328 0.482569 0.014867 
-1.016906 -0.726024 1.391564 0.764646 0.403211 0.466094 
-1.109683 -0.612506 1.466266 -0.719581 -0.435703 -0.517166 
0.210582 1.123320 0.362549 0.656709 0.459677 -0.575222 
-0.342773 -0.179172 0.100705 -0.272974 -0.142059 0.883262 
-2.297544 0.141815 2.257511 0.764994 0.387730 0.491718 
0.998559 -0.306603 0.881495 0.826484 -0.156534 -0.526435 
0.413245 -0.476794 0.035804 0.736332 -0.162134 -0.638151 
-0.175570 0.672265 0.354442 -0.236159 0.228845 0.922956 
-2.107836 -0.155146 2.144926 -0.667116 -0.471457 -0.568641 
0.519391 0.644530 0.294371 -0.644861 0.389414 0.645659 
0.509721 -0.293123 0.141698 0.798374 -0.119938 -0.586866 
-0.487791 -0.824433 0.313408 -0.652828 -0.147045 -0.694682 
0.201969 1.103388 -0.002238 0.749621 0.369620 -0.475147 
-2.370350 0.258044 2.318173 -0.896151 -0.212548 -0.385274 
-0.579825 -0.015425 0.398665 0.676754 -0.096473 0.673074 
-0.280825 -1.105194 0.134467 -0.050689 0.114436 0.868217 
-2.147276 0.025351 2.097366 0.834160 0.170309 0.464856 
0.995249 0.434507 0.844279 0.819678 -0.251152 -0.513230 
-0.143759 0.223870 -0.363254 -0.575854 0.000261 -0.801917 
-0.507518 -0.225233 0.144077 -0.826220 -0.117862 -0.547263 
0.969939 0.212153 0.884760 -0.710044 -0.130596 0.654991 
-2.033574 0.425144 1.940667 0.640646 0.033273 0.724080 
0.723915 0.358852 0.513972 0.730822 0.423452 -0.522922 
1.397511 -0.379391 1.492453 0.762234 -0.411114 -0.479344 
-1.083091 -0.702622 1.542830 0.726019 0.474490 0.477273 
-0.710404 -0.219775 0.513725 -0.847586 -0.094212 -0.521145 
0.570660 0.484051 0.139411 0.889675 0.168703 -0.406847 
-1.188732 -0.101296 1.264337 0.721776 0.139848 0.634384 
-0.339942 -0.418975 -0.119390 -0.711342 -0.195924 -0.651551 
1.035692 0.587541 0.980988 -0.771589 0.317233 0.470045 
0.232800 0.665033 0.338248 0.365123 0.247079 0.860448 
-1.992092 -0.339886 2.119008 0.757228 0.332383 0.511285 
-0.076282 -0.767219 -0.051165 -0.119023 -0.357707 -0.906756 
0.678301 -0.920435 0.498739 0.713696 0.005682 -0.673963 
0.193416 -0.486100 0.155234 0.296995 -0.139165 0.941914 
0.929185 -0.835473 0.867110 0.852456 -0.187555 -0.478632 
1.639669 0.066311 1.791701 0.939405 -0.049745 -0.289269 
-0.690033 -0.428627 0.527902 -0.802066 -0.092781 -0.560837 
-2.417265 0.163324 2.681603 0.950659 0.154787 0.197930 
-0.314581 -0.637824 -0.046158 -0.625236 -0.218406 -0.723544 
1.373310 -0.334428 1.406234 -0.867259 0.281068 0.322564 
-0.444323 0.677178 0.035522 -0.684361 0.673986 -0.215618 
1.178506 0.568351 1.137220 -0.699488 -0.273689 0.645069 
1.494970 -0.576370 2.367393 -0.841547 0.522436 0.062197 
1.526509 -0.473001 2.474684 -0.856280 0.476608 -0.006982 
1.238332 -0.106154 1.193042 -0.791293 0.112002 0.536694 
0.507910 0.158443 0.109498 0.854623 -0.083562 -0.510307 
1.067888 -0.222680 0.957015 0.826232 -0.186629 -0.516820 
-0.962458 0.607208 0.882846 0.800297 0.292537 0.487089 
-0.381622 0.733332 0.151008 -0.884362 0.401676 0.175625 
0.610743 -0.092157 0.310137 0.827253 -0.077928 -0.553228 
-0.498417 0.615176 0.134402 -0.837792 0.427988 -0.281579 
-2.251433 0.477892 2.079194 -0.764155 -0.031279 -0.636317 
0.821501 -0.542956 0.686783 0.820422 -0.086272 -0.553115 
0.097775 -0.426576 -0.255102 0.361084 -0.400548 -0.834056 
-1.376141 0.700359 1.450508 0.672534 -0.283056 0.673160 
-0.189688 -0.572315 -0.116412 -0.085140 -0.464448 -0.855761 
1.122136 0.430179 0.997492 0.816749 -0.267366 -0.510585 
-0.352217 -0.673252 0.035088 -0.662773 -0.188714 -0.695457 
-0.415285 -0.056548 -0.038514 -0.834987 -0.112295 -0.534131 
0.330092 0.702361 -0.132457 0.547885 0.578392 -0.576434 
0.974706 0.608642 0.873005 -0.792349 0.287586 0.506470 
0.324740 0.025819 -0.192051 0.670284 -0.132465 -0.691860 
-2.303815 -0.175746 2.741013 -0.908545 -0.331485 -0.227133 
1.349363 -0.652084 2.013218 -0.731888 0.539030 0.303787 
-0.088840 -0.420425 -0.260503 -0.366812 -0.396326 -0.832891 
1.644256 0.141257 3.137981 -0.897108 0.231835 -0.335895 
0.647129 -0.169768 0.462145 -0.668533 -0.042718 0.683540 
-1.474093 0.056328 1.478585 -0.506238 -0.248806 -0.781328 
1.457470 -0.497325 1.944281 -0.670797 0.487761 0.451334 
-1.964578 0.272562 1.860095 0.619733 0.036389 0.762347 
-0.676032 -0.570857 0.530627 0.740373 0.000044 0.604359 
-0.022603 -0.524359 -0.174340 -0.146861 -0.666765 -0.724199 
1.798445 0.021488 2.499301 -0.956936 0.178459 -0.186755 
0.333362 -1.148814 0.168991 0.367511 -0.008014 -0.859767 
1.838448 0.329929 2.836786 0.948860 -0.201118 0.217260 
0.449892 0.596994 0.260881 -0.618485 0.355481 0.660421 
1.410422 -0.581898 2.011961 -0.716151 0.516713 0.346985 
-0.945748 0.089068 0.903404 0.747218 -0.047835 0.624059 
-1.011143 -0.879147 1.627381 0.689967 0.546022 0.467524 
1.696307 0.012384 1.964984 -0.907152 0.175496 0.353972 
1.889303 0.507633 2.449229 0.981312 -0.039446 -0.101721 
1.519227 -0.107640 1.534055 0.737141 -0.213059 -0.630428 
0.978801 0.121805 0.836942 0.820888 -0.199170 -0.524995 
0.343156 -0.512240 0.038779 0.108493 -0.050509 0.942634 
1.025533 0.103664 0.947634 -0.736081 -0.059879 0.621483 
-0.739823 0.223779 0.526142 -0.853034 -0.153581 -0.496424 
0.811849 0.214528 0.696105 -0.723842 -0.162452 0.660418 
-1.718319 0.530560 1.687314 0.524031 -0.200756 0.773459 
-0.172377 1.161608 0.006355 -0.743557 0.447131 -0.427578 
-1.162091 0.514001 1.175925 0.685889 -0.219786 0.673223 
0.000380 1.117894 0.349231 0.113720 0.423292 0.878560 
0.497488 0.487931 0.352710 -0.693702 0.307783 0.639648 
-0.716027 0.157471 0.492639 -0.852036 -0.149743 -0.500030 
1.348424 -0.494681 1.629725 -0.882935 0.448670 -0.028188 
1.575604 -0.102037 1.757727 -0.803928 0.233617 0.506440 
-0.083743 0.182472 0.238294 -0.111778 -0.237542 0.956360 
0.463998 -0.113227 0.048427 0.820457 -0.109700 -0.555673 
-2.002161 -0.277288 2.072488 -0.677121 -0.429443 -0.586068 
-1.441167 0.140755 1.457708 -0.572172 -0.273645 -0.728415 
0.470225 -0.003284 0.213377 -0.477182 -0.143109 0.811165 
1.651213 0.762386 1.832930 0.916610 0.203553 -0.203426 
1.807213 0.380292 2.441324 -0.934102 0.142751 0.052244 
0.663919 0.238934 0.518804 -0.710244 -0.170864 0.675559 
-2.260764 -0.274484 2.729160 -0.889056 -0.365402 -0.255800 
1.549267 0.038942 1.560667 0.727523 -0.191942 -0.652997 
-0.284092 -0.412995 -0.176705 -0.535361 -0.296800 -0.781128 
0.755699 -0.505712 0.603271 -0.784710 -0.032592 0.616855 
-1.304789 -0.702996 1.744705 0.718432 0.472179 0.476250 
-0.014490 -0.630437 0.172647 -0.445999 -0.139545 0.881988 
0.283935 0.488701 0.267540 0.110863 -0.199114 0.968175 
-0.340827 -0.793772 0.086158 0.187293 0.040624 0.968341 
-2.086482 0.599104 1.997668 0.640649 0.095876 0.719620 
-0.768977 0.036884 0.657838 0.787838 -0.078424 0.595062 
-2.345679 0.095002 2.487319 0.847594 0.329869 0.364737 
-0.257082 0.696307 -0.187956 -0.479766 0.517293 -0.692333 
1.404829 -0.522436 1.867917 -0.645786 0.493352 0.496592 
-1.238701 0.480399 1.208848 -0.764701 -0.312706 -0.555585 
0.632569 -0.967781 0.426861 -0.634041 -0.135845 0.724152 
-0.507788 0.335248 0.365162 0.671114 -0.088318 0.708636 
1.200732 0.193573 1.155328 -0.747547 -0.061284 0.588905 
1.701621 0.521584 2.147415 -0.874744 0.067823 0.243350 
-0.262632 0.788408 -0.120355 -0.580261 0.504825 -0.627614 
-1.959941 -0.408101 2.120492 0.737516 0.363862 0.527387 
1.719210 -0.083813 2.580142 -0.930186 0.255852 -0.175103 
-1.004562 -0.595979 1.120424 -0.829270 -0.267830 -0.465443 
0.680791 -0.770226 0.514874 -0.671008 -0.030790 0.688443 
0.625185 -0.415610 0.474049 -0.628809 0.020345 0.703409 
-0.643864 -0.889074 0.477779 0.684090 -0.034367 0.637007 
-0.789469 -0.646856 0.717487 -0.864458 -0.085748 -0.474307 
0.869871 -0.067980 0.760551 -0.769046 -0.031433 0.612299 
0.331228 0.367424 -0.236729 0.691204 0.044831 -0.710870 
-0.280947 0.263995 -0.285490 -0.678127 -0.007839 -0.726735 
0.627853 -0.872007 0.454348 0.692467 -0.055299 -0.686294 
0.731639 -0.455006 0.560019 0.779918 -0.048510 -0.609873 
-0.277265 -0.457891 0.128571 -0.525355 -0.119953 0.827413 
1.219168 0.049564 1.127590 0.827670 -0.276676 -0.487187 
-0.352959 0.783782 0.056486 -0.859045 0.457748 -0.193965 
-1.032556 -0.335731 1.041658 -0.792523 -0.221556 -0.548343 
0.290591 0.955827 0.143570 0.924482 0.337127 0.016082 
0.175022 -1.017311 0.105720 -0.400234 0.056138 0.881725 
-0.476329 -0.121161 0.078335 -0.834262 -0.111495 -0.535952 
0.562123 0.499118 0.385255 -0.677357 0.378353 0.622315 
-0.833035 0.373204 0.639398 -0.771361 0.209093 -0.562464 
0.006915 -0.885748 0.126041 0.532127 -0.111114 0.827442 
1.440667 -0.367581 1.645957 -0.912118 0.374298 -0.038836 
-0.108749 -0.926150 0.091889 -0.034759 -0.119647 0.982007 
1.510112 -0.276739 1.654010 0.864560 -0.383465 -0.260624 
0.817852 0.621847 0.673579 -0.790276 0.127598 0.583399 
0.623450 -0.222571 0.341116 0.810679 -0.089458 -0.575678 
-0.827538 -0.408091 0.813301 0.845980 0.113656 0.499953 
0.951357 -0.081691 0.856080 -0.774852 0.003007 0.594668 
1.158185 -0.690019 1.493275 0.745495 -0.575130 -0.283830 
0.620186 -0.486670 0.450339 0.713792 -0.115965 -0.655598 
0.695597 -0.255373 0.473971 0.807476 -0.078577 -0.582419 
0.206961 0.920211 0.314783 0.557390 0.086154 0.796437 
1.603556 -0.115513 2.941623 -0.870644 0.426119 -0.199499 
0.329689 -1.076375 0.142044 -0.189739 -0.025545 0.896128 
-0.120948 1.253550 0.017299 -0.732187 0.544976 -0.317750 
0.469619 0.164077 0.041061 0.856604 -0.078622 -0.508195 
1.201594 -0.021753 1.151776 -0.771970 0.058699 0.561018 
-0.984838 -0.092882 0.922018 -0.807565 -0.208855 -0.535373 
-0.839027 -0.282377 0.743508 -0.837897 -0.134119 -0.516855 
0.245430 -0.006542 -0.267191 0.584680 -0.121882 -0.775244 
-0.079423 0.831372 -0.188545 -0.449998 0.404581 -0.786269 
-1.046708 -0.384547 1.107735 0.793038 0.202989 0.551898 
-1.264810 0.721161 1.326499 0.768799 0.248500 0.502077 
-0.788682 -0.169889 0.640100 -0.848277 -0.109027 -0.513922 
1.657385 0.610968 1.997009 -0.846703 0.032746 0.362433 
1.135664 -0.172566 1.070761 -0.801314 0.109418 0.541820 
0.061099 1.073566 0.359260 0.031276 0.180575 0.943068 
1.109323 -0.452336 1.051409 -0.840689 0.182316 0.496485 
-0.840504 0.142556 0.683783 -0.847000 -0.178757 -0.493514 
-2.040537 0.537986 1.903028 -0.767101 -0.023302 -0.636272 
-2.057903 -0.079995 2.025266 0.784648 0.228778 0.522453 
0.780325 -0.759694 0.612875 0.786493 0.005362 -0.611773 
1.304727 -0.400279 1.335687 -0.842429 0.305912 0.397955 
-2.327828 0.341971 2.227643 -0.838699 -0.154626 -0.492108 
-0.191301 0.516420 0.324297 -0.218220 -0.234415 0.942007 
0.482060 -0.235011 0.176851 -0.366944 -0.060222 0.858929 
0.822329 -0.471500 0.689283 0.825531 -0.098920 -0.545772 
1.143821 -0.790346 1.788936 -0.791102 0.566192 0.142215 
-0.315268 0.206743 -0.254209 -0.688920 -0.040154 -0.712798 
1.857476 0.288337 2.339593 -0.951180 0.096770 0.226360 
-0.948340 -0.836412 1.395726 0.771398 0.438365 0.425488 
-0.053243 -0.816194 0.124951 -0.250366 -0.130227 0.935711 
1.335095 -0.435456 1.477322 -0.866241 0.372350 0.178805 
1.383460 -0.024672 1.370821 -0.836695 0.081711 0.449511 
-1.095023 -0.911473 1.731905 -0.638273 -0.557701 -0.516015 
-0.577066 0.446039 0.162340 -0.889766 0.129806 -0.414038 
-0.997964 0.136755 0.913831 -0.817791 -0.242531 -0.509368 
-0.202535 0.822528 0.329024 -0.418309 0.106154 0.878343 
-1.137492 -0.458954 1.246213 -0.778541 -0.289701 -0.537849 
0.622969 -0.796739 0.450241 0.694687 -0.069338 -0.681603 
-1.136833 -0.551104 1.438261 0.734977 0.377559 0.538705 
0.974276 -0.578277 0.906698 -0.843429 0.147723 0.503418 
-0.259876 0.004145 0.163337 -0.296474 -0.189807 0.903597 
-0.218409 -1.422264 0.213772 -0.088283 -0.622329 0.647766 
-0.472590 -0.177385 0.182998 0.398288 -0.080302 0.837134 
1.634318 -0.314702 2.336089 -0.892398 0.371912 0.010845 
-2.420683 0.080193 2.887261 -0.946927 -0.264868 -0.154864 
1.770725 0.411948 2.113529 -0.905376 0.030692 0.364085 
0.060753 0.846281 0.363220 0.179328 -0.116448 0.971786 
1.070770 -0.842103 1.660405 0.743861 -0.613727 -0.234499 
-1.769447 -0.584833 2.029983 0.523875 0.446709 0.658294 
-1.370113 0.587052 1.377071 -0.728902 -0.331170 -0.596892 
1.604201 -0.289420 1.985550 -0.812228 0.387542 0.341374 
1.831746 0.161233 2.347032 0.818673 -0.459866 -0.289093 
1.676234 0.456889 1.873946 0.844636 -0.353870 -0.362555 
-0.750183 -0.454611 0.623213 0.844512 -0.000213 0.530744 
0.598731 -0.401372 0.406925 -0.560334 0.013233 0.741571 
-0.377386 0.668194 0.221020 -0.475276 0.224424 0.742112 
-0.387738 0.718612 0.052938 -0.838528 0.492026 -0.134462 
-1.828370 -0.603880 2.094540 0.613691 0.452992 0.604329 
0.688562 0.421980 0.524133 -0.711582 0.361906 0.587738 
-0.208385 -0.589270 0.121261 -0.329058 -0.157530 0.917094 
1.060591 -0.721911 1.165390 -0.834241 0.346550 0.353994 
-0.472612 -0.273467 0.084500 -0.817437 -0.126440 -0.558665 
1.631052 -0.252860 2.567137 0.835342 -0.527439 -0.012546 
1.340007 0.317200 1.321168 -0.770965 -0.106080 0.553490 
0.423478 0.116422 -0.038647 0.849142 -0.093044 -0.515995 
0.636333 -0.721289 0.464047 0.707401 -0.071609 -0.669863 
-0.611136 -0.483260 0.445150 -0.743991 -0.132992 -0.612380 
-0.435629 0.122208 -0.016596 -0.856370 -0.092933 -0.505479 
-0.674882 -0.334219 0.497338 -0.803431 -0.112135 -0.560290 
1.592811 -0.038522 3.115145 0.873358 -0.365784 0.317358 
-0.414731 0.094768 0.149706 0.445163 -0.191618 0.835405 
-2.248807 0.643726 2.092874 0.659486 0.243464 0.705902 
1.810780 0.096968 2.305017 0.836047 -0.444974 -0.264448 
-2.197513 0.232602 2.058489 -0.793828 -0.073677 -0.561744 
1.634442 0.552540 1.856383 -0.879772 -0.009684 0.427393 
-1.181026 -0.759883 1.675366 -0.580129 -0.533940 -0.575888 
-1.143380 -0.386585 1.242467 0.771444 0.245497 0.570801 
0.904315 0.225897 0.742460 0.819697 -0.186875 -0.532865 
-1.910714 -0.256848 1.906973 -0.684765 -0.333351 -0.641600 
-0.210271 0.237479 -0.324676 -0.624039 -0.006246 -0.766079 
1.885295 0.399431 2.424770 0.973930 -0.079053 -0.109374 
1.435874 -0.076503 1.405757 0.792202 -0.255391 -0.541523 
-2.468896 0.331854 2.758347 -0.959427 0.051406 -0.105082 
0.579389 0.642038 0.370251 0.808112 0.360400 -0.360683 
-1.978461 0.419307 1.848633 -0.582059 -0.259401 -0.752683 
-2.111423 0.541653 1.959634 -0.760980 -0.026501 -0.646462 
-1.837184 0.069755 1.754268 -0.624284 -0.073089 -0.769877 
0.055048 -0.630822 0.156540 0.331491 -0.154044 0.924587 
1.158295 -0.858732 1.988757 -0.766985 0.603859 0.198860 
-1.186155 0.333749 1.223886 0.696220 -0.111088 0.660980 
-1.947873 -0.173818 1.898822 -0.680746 -0.327706 -0.649514 
0.069724 -0.160494 0.200672 0.150257 -0.054422 0.980240 
1.415960 0.800497 1.429270 -0.719074 0.458972 0.301481 
-0.201171 1.021013 -0.050007 -0.657867 0.270912 -0.678303 
-1.876949 -0.323317 1.941680 0.642953 0.354420 0.655740 
1.302435 0.211818 1.222737 0.818502 -0.281701 -0.499099 
-1.428850 -0.415369 1.595473 -0.476719 -0.437305 -0.733212 
-0.524469 -0.510636 0.292841 -0.729019 -0.150306 -0.630366 
1.704216 -0.168506 2.005437 0.912841 -0.327578 -0.240079 
-2.468127 0.286756 2.833354 -0.971778 -0.056356 -0.116820 
-1.079474 0.567022 0.936775 -0.724714 0.157873 -0.650354 
0.414620 0.342087 -0.082191 0.826084 0.008407 -0.527827 
1.514220 -0.410599 2.668382 0.841288 -0.507120 0.078171 
1.671715 0.623182 1.859437 0.984290 -0.006532 -0.142751 
-1.122223 0.485119 1.044816 -0.799680 -0.296622 -0.513968 
-2.284876 0.593319 2.128450 -0.792182 0.080992 -0.588463 
-0.083528 0.518414 0.354396 -0.158036 -0.263392 0.945250 
1.213776 0.630234 1.065804 0.724528 0.142159 -0.668949 
0.194558 0.375383 -0.308783 0.599499 0.117737 -0.761104 
0.224387 -0.069152 0.170746 0.370784 -0.162382 0.874788 
-0.223259 1.065832 0.318272 -0.610926 -0.197178 0.688592 
-2.398073 0.262859 2.421731 -0.903718 -0.225648 -0.350794 
-1.290562 -0.073861 1.400164 0.719023 0.144987 0.630631 
1.065286 0.322181 0.999318 -0.696816 -0.156204 0.655207 
1.367072 0.393910 1.354512 -0.769597 -0.144107 0.553354 
-0.334186 0.688000 0.280743 -0.642639 0.293564 0.658576 
-0.156574 0.177250 0.236728 -0.217859 -0.215760 0.950350 
-1.071880 0.398837 1.063314 0.693671 -0.172040 0.671022 
-0.521381 0.412592 0.075744 -0.885532 0.090262 -0.427129 
-1.582674 0.417501 1.565621 -0.719950 -0.252533 -0.605111 
-1.055066 -0.628394 1.281637 0.796496 0.312204 0.485526 
1.116457 -0.101547 1.049817 -0.784851 0.069011 0.560663 
-2.457895 0.328224 2.683305 0.973305 0.046456 0.169550 
-0.175062 1.241070 0.225270 -0.892603 -0.336669 0.098578 
-1.459267 -0.506708 1.702785 -0.413060 -0.483800 -0.758308 
0.957831 -0.849488 0.968547 -0.855458 0.238800 0.422468 
0.430231 -0.622734 0.182282 -0.294952 0.032780 0.897985 
-0.131368 0.926844 -0.116775 -0.539580 0.362698 -0.735415 
1.464062 0.795185 1.525490 -0.828285 -0.150932 0.525951 
-1.269905 0.369731 1.334457 0.693167 -0.114586 0.658709 
1.840261 0.371065 2.509522 -0.949325 0.164787 0.028985 
0.115540 0.821424 -0.173834 0.473329 0.417616 -0.763013 
-0.798467 -0.482205 0.802038 0.863043 0.119546 0.470155 
-0.768123 -0.587860 0.673394 0.852516 0.016493 0.507684 
1.380325 -0.472498 1.705199 -0.861224 0.449192 0.058323 
-1.676111 0.424268 1.651587 0.518563 -0.166203 0.791879 
-0.555448 -0.288620 0.236902 -0.824284 -0.118441 -0.550541 
-1.714502 -0.009122 1.660817 -0.764606 -0.094553 -0.610979 
1.514596 -0.425572 1.973477 -0.723975 0.453973 0.403467 
1.590373 -0.058064 1.692475 0.983957 -0.118936 -0.065831 
-1.294722 -0.313750 1.413726 0.744632 0.277333 0.601328 
-0.866303 -0.573687 0.914621 -0.863468 -0.208844 -0.438320 
1.144908 0.589624 0.984785 0.729718 0.117550 -0.661596 
0.486108 -0.128136 0.209222 -0.433060 -0.096145 0.827758 
1.052636 -0.303631 0.944560 0.827639 -0.175575 -0.517981 
0.000007 1.218633 -0.087559 0.631833 0.144518 -0.729263 
0.998756 0.275183 0.854751 0.820740 -0.229626 -0.516881 
-1.914651 -0.617539 2.235738 -0.710253 -0.479950 -0.504408 
0.112735 1.125035 0.333544 -0.136800 0.256699 0.896951 
-0.607317 0.124503 0.296717 -0.858410 -0.112615 -0.498581 
0.479906 -0.618112 0.287938 -0.406373 0.039618 0.835032 
1.629835 -0.046057 2.972045 -0.875873 0.400754 -0.219492 
0.643525 0.216347 0.344924 0.849097 -0.137514 -0.507590 
-1.973401 0.721154 1.885358 0.533445 0.361556 0.710088 
-1.768512 0.611013 1.743870 0.510582 -0.023375 0.819922 
-1.418674 -0.662672 1.833059 0.481860 0.461588 0.730823 
1.228968 0.265458 1.189942 -0.747035 -0.096423 0.587720 
0.772021 -0.082772 0.593130 0.822066 -0.096556 -0.557398 
-0.560585 -0.969405 0.369368 0.580022 -0.075920 0.717433 
