-0.846853 0.449235 1.589714 0.928607 0.058255 0.231527 
-1.233316 0.496470 3.005106 0.936292 0.325211 -0.046183 
1.095347 0.245545 2.558865 0.875947 -0.431245 -0.160631 
0.520166 0.397056 0.528413 -0.877301 0.355506 0.296575 
-0.317848 -0.224778 0.160862 -0.566475 -0.178197 0.790095 
-0.560963 -0.172255 0.480078 0.749117 -0.023844 0.475664 
-0.686258 -0.341796 1.957449 -0.736922 -0.530032 -0.386250 
-0.702293 -0.032418 0.831090 -0.965295 -0.168898 -0.163314 
-0.923613 -0.190335 2.690083 -0.855498 -0.500395 -0.052216 
-0.443553 -0.675632 1.937322 0.806301 0.545710 0.126679 
-0.999791 0.146292 2.094718 0.848345 0.327543 0.374388 
-1.113477 0.263026 3.017120 -0.917417 -0.367985 0.126491 
-0.604647 -0.071457 0.611848 0.889807 -0.033363 0.348095 
0.339997 -0.878239 0.194415 0.666481 -0.174078 -0.676641 
-1.024728 0.164049 3.284090 0.888502 0.440748 -0.120498 
0.625413 -0.443396 1.617551 -0.823654 0.491628 -0.196752 
1.129793 0.773368 2.671080 0.974573 0.117807 0.057316 
0.312355 0.354161 -0.212097 0.607547 -0.006699 -0.789915 
-0.608664 -0.456312 1.968075 -0.755346 -0.540578 -0.313226 
-0.171237 0.994299 -0.061817 -0.597809 0.421102 -0.668195 
-0.565298 0.623833 0.539021 0.896137 0.105785 0.408428 
-0.814785 -0.226490 2.074455 -0.885480 -0.450597 -0.070558 
-0.572613 -0.557710 0.594823 -0.888969 -0.109054 -0.320490 
0.476422 0.274746 0.393509 -0.738258 -0.213593 0.587699 
-0.238745 -0.976594 0.031361 -0.105443 -0.291035 -0.947298 
-0.533803 -0.748404 0.592758 0.796048 0.011629 0.412192 
0.482552 -0.785769 0.468503 -0.692115 -0.023661 0.572420 
0.655756 -0.488467 2.186707 0.811578 -0.571977 -0.009499 
0.677526 -0.585914 1.143969 0.970580 -0.162342 0.039425 
-0.515747 0.416636 0.077794 -0.903164 0.114763 -0.350746 
-0.945517 0.724333 1.596212 -0.843942 -0.414900 -0.246279 
-0.406002 -0.990140 0.340323 0.610037 -0.008906 0.661106 
0.297994 -0.009210 0.194931 0.466118 -0.184775 0.851873 
0.529288 0.048352 0.511647 -0.819861 -0.127161 0.471330 
-0.276303 0.405871 0.276811 -0.232868 -0.154297 0.953833 
-0.112191 -0.073927 0.260718 -0.199856 -0.185789 0.958237 
0.815531 0.590839 1.377988 0.953499 -0.257723 -0.146353 
-1.036560 0.618457 1.904534 -0.864992 -0.338474 -0.294443 
-1.132199 0.249833 2.788185 -0.936532 -0.320491 0.123148 
-0.467411 -0.085290 0.235215 0.529060 -0.119823 0.732830 
1.031910 0.383533 2.958656 -0.943059 0.139025 -0.263915 
-0.788089 0.311665 1.462456 0.920771 0.102483 0.253984 
0.175543 -0.764543 -0.039386 0.201493 -0.301972 -0.927037 
0.899903 0.770477 1.625650 0.918012 -0.233482 -0.233651 
-1.339369 0.766489 3.055598 -0.978585 -0.092225 0.111123 
0.743911 -0.390610 1.310749 -0.966814 0.180106 0.054934 
-1.097568 0.146927 2.507670 -0.829828 -0.513166 -0.185435 
-0.435267 0.447393 -0.065099 -0.775684 0.099150 -0.537052 
0.259375 -0.753666 -0.033933 0.223286 -0.290295 -0.838176 
-0.097197 -0.146237 0.248527 -0.167375 -0.176216 0.966970 
0.784781 0.385908 3.450822 0.845644 -0.083241 0.474731 
-0.986799 0.079939 2.072582 -0.921401 -0.328138 -0.151963 
-0.520477 -0.100915 0.378203 0.665738 -0.076991 0.582249 
-0.551030 0.131751 0.271942 -0.909633 -0.079309 -0.379186 
0.663274 -0.149337 0.832269 0.961030 -0.094842 -0.238869 
0.967661 0.741933 1.913589 0.922093 -0.289815 -0.180032 
0.240522 0.593741 0.324881 0.402255 -0.121444 0.879866 
0.709110 0.495686 1.162011 -0.870519 -0.193305 0.394186 
-0.726179 0.461980 1.063490 0.898981 -0.076452 0.384027 
0.221434 -0.950482 0.019778 0.089115 -0.293172 -0.949490 
-0.084674 0.446273 -0.305348 -0.464110 0.126879 -0.864777 
-1.069679 0.340846 2.129705 0.902099 0.228818 0.356098 
-0.680403 -0.181397 0.727417 -0.971641 -0.118163 -0.196814 
0.650492 0.230919 0.773765 0.971546 -0.138392 -0.174176 
0.838933 0.886967 1.649313 -0.781159 -0.186222 0.571187 
0.467302 0.396350 0.464998 -0.884705 0.273332 0.336259 
0.741594 0.053849 1.119082 0.960562 -0.190467 -0.166903 
0.605254 0.504904 0.908788 -0.960242 0.018983 0.244829 
0.881622 -0.226259 2.540847 0.847006 -0.525946 -0.011483 
-0.112124 -0.467866 0.186633 -0.168674 -0.208363 0.961548 
0.624698 0.259050 0.572630 0.976997 -0.034350 -0.188385 
-1.204981 0.441449 2.507667 -0.965373 -0.208523 -0.054424 
0.995703 0.178482 2.880649 0.919657 -0.171315 0.338272 
0.110901 0.898000 -0.141565 0.538882 0.405400 -0.715126 
-0.931948 0.610519 1.734844 0.785472 0.046019 0.556261 
0.241807 0.778394 -0.153611 0.547921 0.520646 -0.641135 
-1.014685 0.335949 1.973633 -0.933601 -0.171003 -0.265573 
0.494792 0.047171 0.175111 0.899693 -0.074296 -0.415947 
0.522555 0.447774 0.097013 0.926656 0.117672 -0.301614 
-0.154553 0.044303 0.278269 -0.280120 -0.201039 0.936404 
-0.932192 -0.199394 2.613450 0.893092 0.415808 0.026495 
1.050294 0.597171 2.355233 -0.938456 0.024457 0.166827 
0.350970 -0.290860 0.116664 0.391794 -0.141356 0.820309 
-0.527958 0.554454 0.088325 -0.905190 0.267779 -0.275341 
-0.582932 -0.123322 0.423363 -0.929970 -0.100648 -0.315920 
-0.604126 -0.731926 1.189729 -0.956492 -0.158883 0.166143 
1.085038 0.513616 2.557912 -0.958221 0.072305 0.028946 
-0.362976 0.746225 0.182183 -0.856315 0.354091 0.310374 
0.777585 0.011730 1.252322 0.956802 -0.221421 -0.159188 
-0.444015 0.307595 -0.072598 -0.832241 -0.031730 -0.532286 
-0.590554 0.573899 0.596620 0.905648 0.107249 0.380858 
0.750519 -0.311422 1.294084 -0.963109 0.175405 0.106529 
-0.857689 -0.214957 2.171212 -0.889293 -0.450276 -0.062309 
0.698007 -0.374219 1.723867 0.768237 -0.561404 -0.102241 
0.647586 0.109557 0.767129 0.968731 -0.116443 -0.197791 
0.219217 0.708157 0.338529 0.396672 0.207996 0.867268 
-0.503898 -1.021107 0.441179 0.740789 -0.249911 0.483505 
-0.531563 -0.518213 1.876180 0.841934 0.498101 0.028494 
0.588808 -0.941348 0.642853 0.845705 0.083040 -0.391936 
-0.678066 -0.274905 1.046303 -0.955635 -0.192064 -0.098372 
-0.822538 -0.023209 1.814242 0.945438 0.292487 -0.031327 
0.246841 1.165636 0.491018 0.669169 0.186604 -0.706832 
-0.789989 -0.212445 1.976549 -0.886918 -0.444925 -0.069623 
0.003491 -1.054786 0.009951 0.634037 -0.227279 0.728272 
0.554053 -0.294003 0.531617 -0.778875 -0.011486 0.458159 
0.337041 -0.370242 -0.114685 0.717938 -0.199794 -0.622426 
-0.611960 -0.082524 0.488807 -0.941474 -0.091940 -0.290104 
0.714779 0.142681 1.140234 -0.912158 -0.017629 0.311363 
-0.607412 -0.217592 0.522512 -0.943224 -0.112667 -0.277926 
-0.989762 0.021668 2.855209 0.919383 0.340796 -0.128165 
0.817660 0.782939 1.550271 -0.862406 -0.275468 0.353041 
0.226211 0.611959 -0.229967 0.493965 0.226423 -0.821654 
0.813265 0.452853 1.502726 -0.893454 -0.094498 0.295035 
-0.041111 -0.448147 -0.227971 -0.214488 -0.470450 -0.844092 
-1.334080 0.861991 2.621561 -0.975212 0.065388 -0.143435 
0.826924 0.616489 1.564322 -0.880135 -0.175954 0.313747 
0.371803 -0.226004 0.085007 0.055526 -0.105407 0.918631 
0.230124 -0.933285 0.094606 -0.124099 0.044225 0.935821 
-1.194881 0.445829 3.106304 -0.915023 -0.386433 0.080684 
0.894078 0.218161 3.171870 0.895823 -0.238503 0.360693 
-0.263494 0.081502 -0.223959 -0.559776 -0.098564 -0.811324 
-0.425102 0.396146 0.326671 0.789903 -0.041063 0.558866 
0.192950 -1.187474 0.092129 0.472152 -0.177872 -0.769359 
-1.171465 0.676962 2.358396 0.877675 0.245708 0.277908 
-0.618334 0.040063 0.508424 -0.941987 -0.100222 -0.293163 
0.580429 -0.001137 0.498923 0.942345 -0.076211 -0.304431 
0.546731 -1.029888 0.456203 -0.737630 -0.315512 0.506782 
0.005056 0.228511 0.337095 0.060120 -0.204509 0.975768 
-0.655509 -0.385892 0.852450 -0.969131 -0.116991 -0.097148 
0.373105 -0.902965 0.258651 0.690001 -0.144686 -0.638970 
-1.120885 0.492869 2.162296 -0.843753 -0.364668 -0.359908 
-0.504431 0.456388 0.454765 0.859486 0.296976 0.388708 
0.877112 -0.080627 1.792473 -0.923769 0.267486 -0.141722 
-0.674105 -0.717639 0.904230 -0.989254 -0.008308 -0.112839 
0.175096 1.217905 0.228041 0.612921 0.780829 -0.002630 
0.011352 0.392700 0.372185 0.055864 -0.170314 0.979355 
0.632589 -0.444107 1.694453 -0.817152 0.507438 -0.232850 
0.181674 1.234863 0.335374 0.872225 -0.456316 -0.170643 
-0.532450 -1.006208 0.508451 0.781411 -0.252234 0.423462 
0.873272 0.515551 1.654485 -0.917093 -0.151368 0.169369 
0.080903 0.028758 -0.323696 0.474106 -0.075013 -0.861866 
-0.599226 -0.029438 0.441586 -0.934614 -0.088632 -0.309649 
-0.864621 -0.293468 2.364660 0.791009 0.466410 0.264979 
-1.068804 0.122539 2.684888 0.944170 0.267319 -0.128481 
-0.526109 -0.623127 1.404481 -0.902182 -0.340573 0.172342 
0.388675 -0.158000 0.091742 -0.147306 -0.117416 0.906336 
-0.487558 -0.616747 1.944214 -0.785113 -0.555680 -0.178458 
-1.026395 0.686561 1.850458 -0.856194 -0.374309 -0.270217 
1.114912 0.708986 2.420910 0.997610 0.016091 -0.052423 
0.551340 0.466664 0.513065 0.867016 0.427147 -0.172797 
1.101532 0.463140 2.852113 -0.966876 0.113341 -0.210527 
1.106028 0.765281 2.787761 0.899889 0.276806 0.192239 
0.647635 -0.534525 0.955576 -0.970125 0.044849 0.095576 
-0.066709 -0.528048 0.174162 -0.176767 -0.207838 0.955392 
-0.433078 0.529872 -0.055605 -0.751985 0.183362 -0.528281 
-0.939224 0.101229 2.007037 0.760101 0.343807 0.496611 
-0.789248 0.770322 1.212530 0.939361 0.107324 0.267749 
-0.762354 0.779525 0.979357 -0.814044 0.188835 -0.455492 
0.763884 0.446392 1.194294 0.963730 -0.230201 -0.122834 
-0.256081 0.629453 0.327401 -0.523396 -0.112089 0.817556 
-0.720144 -0.448148 2.272263 0.788424 0.496077 0.273139 
0.813347 0.693630 1.527060 -0.870242 -0.228751 0.340079 
0.156351 -0.377932 -0.226569 0.415403 -0.304453 -0.844495 
-0.621778 -0.517169 1.175030 -0.948510 -0.207317 0.102377 
-0.372882 -0.394833 -0.057103 -0.844734 -0.159743 -0.507236 
0.787701 -0.329988 2.144637 0.848884 -0.513232 0.052724 
-1.060382 0.113182 2.204650 -0.906749 -0.343689 -0.242477 
0.724970 0.637886 1.019017 0.793914 0.289083 -0.436029 
-0.659815 -0.299223 1.778501 -0.760267 -0.517181 -0.259957 
-0.264283 1.012500 0.227410 -0.904810 0.365952 0.195859 
-1.108359 0.836609 2.143729 0.846306 0.171867 0.366579 
-0.905715 0.444789 1.638250 -0.832366 -0.373345 -0.315733 
-0.855834 0.361882 1.641793 0.945595 0.088525 0.162089 
-0.522295 0.009010 0.396513 0.709268 -0.113576 0.561665 
0.140800 0.551729 -0.265359 0.450298 0.168616 -0.856685 
-0.144789 1.181091 0.027509 -0.618735 0.502707 -0.549681 
-0.143199 -1.265459 0.107861 0.246822 -0.259664 -0.920461 
0.730522 -0.466369 1.300339 -0.970354 0.176589 0.011550 
-0.948561 -0.053066 2.204572 0.795356 0.400913 0.355169 
-0.263669 -0.713510 -0.047898 -0.237633 -0.302877 -0.831698 
-0.598447 -0.555355 0.691265 0.891417 0.020925 0.296649 
-1.233221 0.696861 2.536131 0.902573 0.275030 0.192458 
-0.097088 -0.003701 0.274996 -0.192927 -0.197102 0.956577 
-0.530278 -0.110041 0.274837 -0.906693 -0.103309 -0.373751 
-1.054339 0.206498 2.137861 -0.911114 -0.280474 -0.280481 
-0.855039 0.725470 1.449172 0.905789 -0.093014 0.351222 
0.945908 0.788647 1.848120 0.924002 -0.296072 -0.158394 
0.437633 -0.016203 0.192766 -0.526808 -0.149709 0.774538 
0.471366 0.332032 0.493541 -0.874007 -0.049673 0.427329 
-0.903387 0.524609 1.682660 0.952258 0.002142 0.155765 
0.503504 -0.299918 0.322359 0.906935 -0.102287 -0.384192 
-0.195609 0.665141 0.353924 -0.306694 0.223993 0.894118 
-0.227295 0.964605 -0.029765 -0.695305 0.399085 -0.566160 
-0.177166 -0.952264 0.074378 0.490095 -0.066061 0.821614 
-1.227858 0.684275 3.408492 0.921984 0.366039 -0.106006 
0.887358 0.855083 1.724285 -0.814164 -0.371253 0.381261 
0.883719 0.020463 2.999387 -0.891602 0.357145 -0.223087 
-0.191826 -1.030357 0.056029 -0.228930 -0.202609 -0.949035 
-0.439185 -0.704506 0.353771 0.664080 0.049968 0.619312 
-0.489597 -0.575592 1.867170 0.830033 0.517258 0.042773 
1.025436 0.549649 2.073105 0.929833 -0.197645 -0.241529 
0.739419 -0.385808 2.150306 0.835662 -0.533621 0.031476 
0.002265 1.185127 0.339691 0.005015 0.642124 0.763750 
0.329507 -0.957291 0.174404 -0.470135 0.023389 0.837859 
-0.818902 0.856463 1.147956 0.764741 0.429502 0.003243 
-0.351251 -0.074725 -0.132012 -0.657267 -0.166207 -0.689838 
-0.743240 -0.108632 1.631193 0.932553 0.332622 0.088728 
-0.545931 -0.449840 1.757729 -0.775710 -0.541759 -0.141630 
0.435682 -0.949470 0.375516 -0.599820 -0.025889 0.674968 
-1.033549 0.012098 2.527736 0.924645 0.317394 -0.008012 
0.360440 0.156687 0.186553 0.054243 -0.195665 0.851401 
0.429945 -0.116062 0.021747 0.872841 -0.111829 -0.465875 
0.438540 -0.703278 2.049985 -0.770294 0.630599 0.086987 
0.772573 -0.059007 1.234586 0.955321 -0.209768 -0.174598 
-0.124810 1.242688 0.064609 -0.696089 0.559290 -0.413734 
-0.857193 0.887457 1.246161 -0.573333 0.462510 -0.570295 
1.018177 0.023223 2.447636 0.889852 -0.429798 -0.083884 
-0.954749 -0.108856 2.732335 -0.847113 -0.510504 -0.050918 
0.886397 -0.015188 1.860930 -0.903467 0.268691 0.143287 
-0.009853 1.334156 0.015004 -0.420104 -0.013129 -0.860791 
0.533698 0.612461 0.506766 0.920433 0.259332 -0.174051 
1.017174 0.936252 2.126274 0.987013 0.114087 -0.085093 
0.978086 -0.038779 2.454683 -0.914086 0.318909 -0.052952 
1.067433 0.156016 2.418157 -0.950099 0.205312 -0.043894 
-0.774026 0.319266 1.392313 0.917596 0.079753 0.272569 
-0.023571 -0.112978 -0.321057 -0.383781 -0.193006 -0.873694 
-0.513835 0.335523 0.098522 -0.896359 0.021713 -0.397833 
-0.840322 0.543588 1.338645 -0.918241 -0.372742 -0.099378 
0.348325 -0.619604 0.024230 0.762333 -0.169126 -0.589607 
-0.605579 -0.630874 0.703771 -0.922291 -0.072077 -0.249012 
0.207751 1.105793 0.453621 -0.178524 -0.208534 0.866054 
-0.786776 0.444091 1.165291 -0.939424 -0.325823 -0.078595 
0.764649 -0.419181 2.427394 -0.839246 0.540884 0.015342 
-0.673114 -0.090892 0.866511 0.956733 0.061126 0.242133 
-1.230621 0.528400 3.076191 0.942715 0.287259 -0.080923 
0.633949 -0.450031 0.905040 -0.968260 0.046526 0.128641 
-0.033383 -0.868497 0.066768 -0.322712 -0.263446 0.888767 
-0.006139 1.249596 -0.007244 -0.624906 0.244199 -0.710092 
-0.052812 0.895093 -0.175427 -0.458254 0.426236 -0.762946 
0.584326 0.386591 0.351305 0.959285 0.076422 -0.217792 
0.232069 -0.003281 -0.234626 0.540462 -0.120486 -0.818292 
0.058779 0.538776 -0.304575 0.423064 0.190797 -0.876428 
-1.074067 0.184316 2.238622 0.908289 0.319403 0.260663 
0.130105 -1.167499 -0.032884 -0.606603 -0.099874 0.757168 
-0.691404 0.674731 0.801755 -0.881424 0.125494 -0.442899 
-1.260482 0.599373 2.456146 -0.957372 -0.204196 -0.186728 
0.183246 -0.876564 0.082558 -0.331725 -0.089899 0.837180 
0.901131 0.850649 1.624356 0.954002 -0.135689 -0.042155 
-0.622749 -0.408776 0.656901 -0.930464 -0.104977 -0.261211 
0.682705 0.707311 0.992905 0.791122 0.319674 -0.434405 
-0.531633 0.144163 0.203834 -0.900574 -0.072452 -0.402813 
0.318604 -0.632082 -0.040353 0.707642 -0.192561 -0.647538 
-0.558802 -0.436706 1.520600 0.896867 0.383496 -0.045722 
-0.835709 0.046359 1.768348 0.959320 0.241226 0.000990 
-0.017996 0.537049 0.387516 -0.070080 -0.099794 0.987127 
-1.313583 0.765086 3.138203 -0.964187 0.021998 0.136023 
-1.112188 0.548476 2.117185 -0.836797 -0.393368 -0.340002 
0.477438 -1.029655 0.361280 -0.648037 -0.218656 0.616263 
0.958487 0.652151 1.862921 0.943460 -0.171195 -0.177372 
0.656003 0.667794 0.900483 0.874427 0.242294 -0.397804 
-0.637310 0.329708 0.482103 -0.957091 0.031276 -0.245742 
0.995468 0.773022 1.986900 0.994446 -0.041788 -0.041741 
0.150567 1.151716 0.002710 0.563837 0.469912 -0.649010 
0.011107 0.946239 -0.162784 0.368735 0.506823 -0.775433 
-1.172886 0.363351 2.453681 -0.843168 -0.440988 -0.261188 
0.552162 -0.169970 0.549243 -0.821801 -0.047300 0.438027 
1.079269 0.778954 2.321527 0.997973 0.014656 -0.032507 
0.556335 0.371949 0.262749 0.942751 0.054558 -0.268055 
0.933425 0.862238 1.820403 0.916312 -0.351478 -0.143214 
0.702105 -0.457501 1.403014 0.917516 -0.310124 0.034950 
0.313776 -0.919726 0.085758 -0.384130 0.017175 0.916823 
-0.925187 0.146796 1.946826 0.759922 0.319946 0.530652 
-0.737294 0.081895 1.150892 -0.948655 -0.268044 -0.123868 
0.229668 1.094511 0.076460 0.843699 0.440503 -0.272433 
-1.334216 0.753306 2.960410 0.981221 0.149400 -0.078314 
-0.108269 -0.886868 0.045812 0.077036 -0.264724 0.925725 
1.068014 0.276155 2.201716 0.943046 -0.167538 -0.231283 
0.708764 -0.365129 1.968614 -0.704566 0.524710 0.397699 
-0.770461 -0.366821 2.253988 0.758727 0.481417 0.326133 
-0.728936 0.228474 0.858347 -0.961741 -0.219074 -0.113474 
-0.039959 -0.734380 0.124599 -0.280387 -0.260654 0.888215 
-0.855708 0.059404 1.834491 0.960532 0.237108 -0.045356 
0.275388 0.863877 0.260196 0.793442 0.169894 0.532347 
0.670132 0.311363 1.009682 -0.887233 -0.141550 0.383090 
1.010317 0.852797 2.073948 0.998194 -0.007487 -0.016793 
-0.971464 0.047483 3.154694 -0.886618 -0.439454 0.131089 
-1.192557 0.653078 2.446182 0.889829 0.261351 0.227377 
0.487169 -0.989369 0.432256 0.752667 0.054126 -0.526001 
0.522237 -0.158700 0.334380 0.913765 -0.083025 -0.376154 
-0.104791 0.934980 -0.120789 -0.503097 0.477246 -0.694037 
1.074474 0.317074 2.261949 -0.964418 0.107756 0.208958 
0.882309 0.966225 1.783579 -0.849480 -0.125984 0.467803 
-0.862860 0.685131 1.302951 -0.914242 -0.382301 -0.094067 
-0.443911 -0.371940 0.134277 -0.869432 -0.148547 -0.440734 
0.294244 0.944276 0.149568 0.925982 0.338557 -0.001339 
0.075613 1.028864 -0.078786 0.412867 0.448368 -0.767615 
0.671930 0.046269 0.980820 -0.923483 -0.032322 0.313357 
0.804943 -0.238168 1.878257 -0.870452 0.417357 -0.224098 
0.902137 1.022057 1.646941 0.984947 -0.052017 -0.162565 
-0.018049 1.414227 0.062155 -0.498952 0.746346 -0.390971 
-0.939104 -0.018276 3.084728 0.870292 0.473414 -0.082276 
-0.932210 -0.043758 3.005095 0.861586 0.488128 -0.057427 
0.165906 0.576014 0.365119 0.313442 -0.108163 0.940686 
0.445696 -0.091749 0.205167 -0.521904 -0.124314 0.764689 
-0.587008 0.040844 0.398490 -0.927723 -0.088010 -0.329720 
0.286957 0.702505 0.309616 0.562684 0.204891 0.790575 
0.661965 0.126383 0.957294 -0.912126 -0.077116 0.340355 
0.608655 -0.512223 0.714298 -0.903933 -0.042641 0.328428 
-0.771767 0.136482 1.523025 0.929392 0.200291 0.199615 
-1.335420 0.766384 2.770531 -0.957198 -0.243874 -0.057214 
-1.215361 0.507309 3.147493 -0.921257 -0.367081 0.094648 
-1.279079 0.571180 2.928802 -0.933195 -0.351462 0.040864 
-0.639885 0.328768 0.762621 0.896398 -0.156616 0.414068 
0.176595 -0.290571 -0.233838 0.458213 -0.238553 -0.840645 
-1.027920 0.876157 1.771790 -0.814666 -0.516037 -0.212231 
-0.129732 0.283932 -0.315450 -0.523523 0.012561 -0.845989 
0.670037 0.467251 1.029748 -0.866209 -0.205546 0.423042 
0.000409 -1.102055 -0.067370 0.524628 0.032256 -0.828499 
-0.024826 0.515660 -0.326322 -0.421827 0.186963 -0.884492 
0.781798 0.780798 1.236960 0.688661 0.369461 -0.456616 
0.594724 0.442082 0.855886 -0.936573 -0.058592 0.301651 
-0.285211 0.802631 0.267969 -0.695184 0.238119 0.611199 
0.634055 -0.539210 1.403406 -0.891893 0.344274 -0.093666 
1.015800 0.052181 2.572131 -0.926142 0.236581 -0.186578 
-0.380652 -0.837824 0.252530 0.578695 0.048152 0.728762 
-0.210054 -0.199948 -0.231103 -0.506621 -0.184224 -0.829271 
-0.293536 -0.381553 0.150110 -0.549401 -0.170185 0.794091 
1.057874 0.120340 2.570145 0.870939 -0.474840 -0.093894 
-0.852872 0.532307 1.571416 0.921128 0.022675 0.266832 
0.490389 -0.611269 0.464460 0.813120 -0.100341 -0.471097 
-0.496366 -0.049204 0.161318 -0.890258 -0.097155 -0.417588 
0.481531 0.453540 0.008244 0.867575 0.104747 -0.399238 
-0.558404 0.353648 0.230338 -0.919741 0.048302 -0.331794 
-1.110699 0.173587 2.630492 -0.805272 -0.566433 -0.157248 
-0.631913 -0.495720 1.267054 -0.943895 -0.233331 0.105319 
-1.011788 1.264659 1.543819 -0.530990 0.044428 -0.740797 
-1.024586 0.118326 3.053806 -0.901696 -0.403698 0.128849 
-1.237164 0.633758 2.370343 -0.960177 -0.197391 -0.185414 
0.790548 -0.077891 3.150346 -0.880453 0.339038 -0.316328 
0.815872 -0.363203 2.498977 0.841581 -0.537836 0.013617 
0.047785 -0.902502 -0.057564 0.226072 -0.101290 -0.944234 
0.564314 0.228033 0.407922 0.941378 -0.094478 -0.287420 
0.371018 0.764267 0.092724 0.862708 0.468581 -0.017894 
-0.651368 -0.431016 1.321455 -0.941295 -0.252749 0.069486 
0.087475 0.331051 -0.327862 0.498956 0.055182 -0.855268 
0.857745 0.361547 1.536866 0.945687 -0.281467 -0.161625 
-1.256826 0.616189 3.113262 0.957688 0.225572 -0.107940 
-0.282856 -0.795745 -0.017650 -0.608255 -0.230565 -0.750071 
0.728898 -0.089822 1.157852 -0.944487 0.093859 0.242317 
1.125763 0.800428 2.596585 -0.988374 0.092552 0.117212 
-1.069689 0.117340 2.446093 0.929067 0.291656 0.039881 
0.225799 0.892482 0.319992 0.672158 0.011310 0.724976 
-0.291868 0.735654 -0.161960 -0.521887 0.523048 -0.669258 
0.692932 0.433305 1.102192 -0.873616 -0.170143 0.396651 
0.884199 0.637004 1.728090 -0.819134 -0.108694 0.496876 
-0.110350 -0.712580 0.112389 -0.120081 -0.238809 0.929661 
-0.791957 0.133568 1.590552 0.937940 0.208398 0.164964 
-0.449160 -0.423451 0.182069 -0.855344 -0.151158 -0.448957 
0.313292 -0.007191 -0.182012 0.588195 -0.143621 -0.777471 
0.355637 0.655226 0.252233 0.492437 0.097415 0.749299 
-0.179461 0.916625 -0.093680 -0.619064 0.423467 -0.643151 
-1.312459 0.687799 2.742887 -0.948946 -0.274868 -0.059776 
1.050205 0.582700 2.526400 -0.941175 0.058354 0.013414 
0.244876 0.191959 0.259617 0.372143 -0.182175 0.907924 
0.684892 -0.537365 1.345702 -0.939276 0.247483 -0.057513 
-0.578427 0.082063 0.559600 0.842039 -0.119773 0.434888 
-0.681194 -0.310786 1.295538 -0.942905 -0.255226 -0.022535 
1.066232 0.088722 2.257111 0.941524 -0.309291 -0.117486 
0.514065 0.605931 0.199342 0.917376 0.337656 -0.119112 
-0.477271 -0.439832 0.277553 0.523384 0.004326 0.693183 
0.401939 0.308845 -0.114581 0.774057 -0.046784 -0.598344 
-1.288695 0.659751 2.491029 -0.947301 -0.232123 -0.212901 
-1.004242 0.072502 2.997068 -0.902604 -0.400615 0.127897 
-0.517776 0.201194 0.155025 -0.893189 -0.070404 -0.423693 
0.929311 0.715621 1.828538 -0.854824 -0.267279 0.351091 
-0.685082 -0.190389 1.628498 0.916052 0.366753 0.056328 
-0.108069 0.189849 -0.323720 -0.508531 -0.018308 -0.852407 
0.784291 0.149674 1.376455 -0.917469 0.053783 0.263576 
-0.592469 -0.448328 0.599339 -0.903624 -0.117542 -0.306587 
-1.062442 0.103702 2.274577 -0.891185 -0.379438 -0.228552 
-0.447165 -0.636262 1.863790 0.817235 0.537161 0.062095 
0.084686 0.215496 0.326735 0.177631 -0.198998 0.954692 
-0.656524 0.307342 0.548842 -0.964991 0.008210 -0.233897 
-0.733891 0.173854 0.991657 -0.955674 -0.243412 -0.115957 
0.632984 -0.448694 1.810107 -0.820283 0.511226 -0.165285 
-0.409967 -0.601951 0.181364 -0.792104 -0.168057 -0.526612 
-1.194399 0.362906 2.775249 -0.937531 -0.329509 0.081390 
1.109631 0.676449 2.742314 -0.966210 0.064843 -0.051378 
0.446501 -0.017883 0.041509 0.879140 -0.097188 -0.456964 
-0.403793 0.707806 0.116703 -0.548678 0.816460 0.022939 
-0.631950 -0.775295 1.101580 -0.971665 -0.090559 0.069711 
-0.036283 0.169913 0.318974 -0.112748 -0.207457 0.966713 
0.637047 -0.594087 1.349633 -0.912481 0.297569 -0.106269 
-0.717390 0.612759 0.842517 -0.810484 0.246487 -0.521855 
0.689992 0.560868 0.903514 0.854089 0.271151 -0.421342 
-0.295542 0.291225 -0.223162 -0.596218 -0.032647 -0.800069 
0.873551 1.082159 1.608522 0.608397 0.199720 -0.701279 
0.296124 -0.576432 0.091350 0.276903 -0.140126 0.893329 
0.688464 -0.093929 0.924622 0.960620 -0.124645 -0.217584 
-0.522459 0.096103 0.407533 0.740335 -0.143462 0.549031 
0.553732 0.532218 0.173091 0.933413 0.258609 -0.233082 
-0.219511 -0.600885 -0.090391 0.032961 -0.372789 -0.909642 
-0.747907 0.286787 1.297987 0.914816 0.068984 0.287856 
-0.895635 -0.261043 2.658365 -0.863029 -0.491206 -0.051132 
0.958554 0.555026 3.176237 -0.921448 0.153075 -0.335288 
-0.976458 -0.124681 2.580595 -0.841357 -0.520614 -0.115234 
-0.998876 0.747904 1.795028 0.846929 -0.078886 0.457380 
-0.143615 -0.962292 -0.013201 -0.272690 -0.137890 -0.932243 
-0.873715 0.133113 1.709731 -0.800352 -0.319127 -0.443772 
0.133713 0.887374 0.378615 0.254378 -0.182050 0.947550 
-0.188890 0.598781 -0.242629 -0.466782 0.212420 -0.838528 
-1.174232 0.986022 2.108681 0.702825 0.552671 0.352299 
-0.721996 0.405922 0.823423 -0.956125 -0.224284 -0.135393 
0.677796 -0.221207 0.975810 -0.958828 0.079047 0.233193 
-0.509127 -0.824152 0.547213 -0.839170 -0.098613 -0.380768 
-1.223169 0.437011 2.866942 -0.928550 -0.359926 0.052416 
-0.238666 1.143006 0.479121 -0.249500 -0.630675 0.716449 
0.414421 0.706783 0.072533 0.515952 0.842659 -0.042864 
0.813513 0.271836 1.485456 -0.910960 0.006656 0.260901 
1.035396 0.498386 2.138836 -0.934003 -0.051810 0.268627 
0.387348 -0.605756 0.085540 -0.355824 -0.018428 0.898469 
0.328769 -0.844875 0.133286 0.674891 -0.179278 -0.675295 
0.610120 -0.699563 1.284503 0.914195 -0.295079 0.163287 
0.981057 0.463023 3.133657 0.916305 -0.147244 0.357390 
-0.193437 1.164794 0.096291 -0.825549 0.510476 -0.225165 
0.988309 0.288999 1.782868 0.983860 -0.107314 -0.087052 
-1.102238 0.204502 2.698276 0.853438 0.500740 0.054658 
0.502379 -0.125950 0.259021 0.904728 -0.087112 -0.397059 
1.059301 0.572095 2.447706 -0.944224 0.044773 0.095320 
-1.106043 0.368141 3.415757 -0.897761 -0.413255 0.143262 
0.111663 -0.778174 -0.072552 0.130028 -0.237327 -0.930022 
0.210053 -0.825853 -0.021591 0.090159 -0.318309 -0.935996 
0.563575 -0.189233 0.478335 0.932208 -0.071147 -0.335191 
-0.605543 -0.600933 1.312099 0.949723 0.214302 -0.177719 
-1.031878 0.760362 1.870119 0.859122 -0.067926 0.424475 
-1.036430 0.171709 3.209750 0.879423 0.455590 -0.090938 
0.820222 0.036881 1.408931 0.953467 -0.262262 -0.142039 
-1.167969 0.408556 3.161105 0.920644 0.358332 -0.086962 
0.964653 0.075606 1.990755 -0.852880 0.263334 0.379378 
-0.417848 -0.452340 0.109588 -0.838834 -0.157309 -0.482915 
-1.103082 0.332069 3.344234 0.903608 0.399507 -0.126064 
-0.442391 -0.865073 0.401935 -0.778383 -0.135575 -0.489558 
-0.643901 0.515040 0.727595 0.910825 0.254724 0.256333 
0.384420 0.729981 0.006740 0.783481 0.564408 -0.233261 
0.536175 -0.983736 0.509235 -0.722851 -0.176827 0.522324 
-1.304183 0.707820 2.674768 0.925090 0.304147 0.161297 
-0.515410 0.068534 0.173174 -0.895294 -0.077753 -0.412121 
-0.434283 -1.096730 0.214991 0.637656 -0.355856 0.643443 
0.662462 -0.700475 1.222470 -0.970907 0.169147 -0.116944 
-0.566060 0.548216 0.520792 -0.858220 0.340081 -0.268058 
-0.000146 0.105995 0.305715 -0.075433 -0.212965 0.973980 
0.340460 0.693821 -0.140816 0.583378 0.437062 -0.635647 
0.484445 0.189797 0.387719 -0.735022 -0.190683 0.586271 
-0.445032 -0.981099 0.409552 -0.769649 -0.039518 -0.488008 
-0.587801 0.237660 0.650557 0.887925 -0.156950 0.424400 
-0.786402 0.585648 0.914724 -0.915707 0.059871 -0.392597 
-0.691414 0.174780 0.743604 -0.961220 -0.164010 -0.189636 
0.960815 0.522951 1.844056 0.958284 -0.134077 -0.077699 
-0.638581 -0.690884 1.041775 -0.971861 -0.093016 0.027785 
-0.457037 0.577948 0.341277 0.842883 0.275823 0.448744 
0.061695 -0.625725 -0.095254 0.133660 -0.324451 -0.925073 
0.604105 0.514093 0.702658 0.880413 0.267071 -0.343361 
-0.474823 0.191551 0.020156 -0.874238 -0.062833 -0.470918 
0.830925 -0.047576 1.449763 0.951310 -0.267597 -0.147170 
-0.350788 -1.022277 0.204970 0.531133 -0.013858 0.778366 
-0.112386 0.374137 -0.305657 -0.493998 0.073749 -0.854281 
0.392184 -0.589008 0.153655 0.782724 -0.151187 -0.548951 
0.014120 0.066564 -0.355016 0.430043 -0.080927 -0.875912 
1.067164 0.465351 2.199811 0.925173 -0.191526 -0.282722 
0.141752 1.157415 0.285661 0.978693 -0.151355 0.012021 
0.411073 0.533910 -0.087999 0.721150 0.153539 -0.584138 
0.723330 0.813016 1.326290 -0.952966 0.107033 0.199473 
0.921433 0.364845 1.804114 -0.857212 0.063960 0.481360 
0.796574 -0.069745 1.392167 -0.944638 0.170411 0.204958 
0.613071 -0.519717 2.131083 -0.769509 0.572907 0.162163 
0.968305 -0.037405 2.127489 -0.837329 0.368899 0.292406 
-0.670442 -0.324250 1.149632 -0.950272 -0.215574 -0.042038 
-0.434892 0.427808 0.389785 0.865572 0.123930 0.454444 
1.034093 0.250444 2.843183 0.932665 -0.162979 0.305914 
-0.429252 0.486415 0.351230 0.856187 0.210173 0.449701 
-0.045059 0.983071 -0.123943 -0.397334 0.485806 -0.763129 
0.915918 0.185413 3.090592 0.903625 -0.240006 0.338075 
-0.850286 0.024980 1.896110 0.715709 0.341436 0.502235 
0.034370 1.003591 0.415315 0.158763 -0.031898 0.982259 
0.520151 0.315566 0.586485 -0.900738 0.142018 0.318005 
-0.537451 -0.194221 0.323212 -0.912138 -0.115342 -0.355487 
-1.082258 0.182898 2.314163 0.919279 0.299075 0.171170 
-1.150288 0.233852 2.628252 -0.863082 -0.492415 -0.066040 
0.566816 0.483152 0.229344 0.953305 0.163949 -0.218592 
0.991602 0.576617 2.007439 -0.902956 -0.135789 0.303662 
-0.105843 0.732020 -0.229363 -0.360628 0.399463 -0.825030 
-0.648579 0.435037 0.757046 0.905008 0.342266 0.225707 
-0.962393 0.544125 1.730490 -0.967696 -0.226390 0.013813 
1.007655 0.498799 3.076886 -0.905041 0.007101 -0.397845 
0.925802 -0.129922 2.224176 -0.840914 0.411982 0.213619 
0.273607 0.380435 0.273455 0.262486 -0.158849 0.943737 
-0.568020 -0.793619 0.687703 0.843087 -0.006904 0.333876 
0.281119 0.060927 -0.211213 0.571257 -0.111449 -0.801306 
-0.664917 -0.284292 0.831071 -0.966528 -0.134386 -0.134705 
0.475204 0.597395 0.017065 0.819761 0.268962 -0.392699 
0.273309 -0.685812 -0.068955 0.548461 -0.244920 -0.794241 
-0.889079 0.017834 1.967269 0.670361 0.380008 0.593099 
-0.971858 0.014484 2.943286 0.852468 0.502293 -0.022353 
1.101954 0.359587 2.718136 0.957281 -0.109123 0.235645 
-0.426644 0.166819 -0.077577 -0.804381 -0.087685 -0.554005 
0.895169 -0.188526 2.254755 -0.827310 0.442296 0.199491 
-0.238170 0.352100 0.302645 -0.303622 -0.155483 0.934504 
0.821424 -0.291728 2.193915 -0.757978 0.501315 0.283815 
-0.335547 0.781912 -0.004929 -0.765362 0.514404 -0.306755 
0.228392 -0.359651 -0.202801 0.480539 -0.259758 -0.829586 
0.350682 -0.012743 0.142790 0.193432 -0.148779 0.905371 
0.400998 0.619709 0.184218 0.120344 0.421420 0.763402 
0.029230 -0.824665 0.085952 0.357849 -0.261672 0.886438 
0.574740 -0.625519 0.625320 0.878158 -0.033139 -0.370697 
0.031088 -0.816793 -0.059662 0.264992 -0.147581 -0.938200 
-0.824341 -0.059617 1.875343 0.937482 0.322039 -0.074238 
0.720039 0.759312 1.279786 -0.922450 -0.060833 0.326287 
1.063462 0.272228 2.771250 -0.929336 0.309591 -0.102999 
-0.642396 -0.393009 1.151699 0.955993 0.176380 0.006298 
-0.641474 -0.416318 2.023057 0.828555 0.471466 0.199517 
0.406338 0.236045 -0.100569 0.788923 -0.076255 -0.574979 
0.150209 0.965138 -0.084898 0.568740 0.439019 -0.674828 
0.551090 -0.550713 1.723137 0.761356 -0.598517 0.022042 
-0.307425 0.597129 0.288582 -0.482529 -0.126782 0.823608 
0.424902 -0.434782 0.146659 0.846584 -0.136468 -0.476674 
1.013683 0.668677 2.335006 -0.920748 0.012348 0.138955 
0.557823 -0.878396 0.607719 0.838280 -0.006312 -0.414045 
0.388609 -0.974406 0.292163 0.694734 -0.121487 -0.626763 
0.579841 0.594715 0.672933 -0.962767 0.051188 0.239296 
0.383235 0.453824 0.288877 -0.837581 0.105246 0.483263 
0.895500 -0.177519 2.599765 0.851166 -0.511986 0.002139 
0.422505 -0.060061 -0.021497 0.869024 -0.109446 -0.476676 
-0.214945 0.799635 -0.150453 -0.540574 0.495685 -0.664202 
-0.860306 0.277096 1.620650 -0.858666 -0.362141 -0.269357 
-0.318507 -0.840412 0.067100 -0.697793 -0.195981 -0.663850 
0.806230 -0.185415 1.577930 -0.926979 0.301914 0.067490 
-0.880213 0.685432 1.393958 -0.905801 -0.400773 -0.105309 
-0.942886 0.704676 1.707841 0.798096 -0.055732 0.527948 
0.477352 0.256078 0.067591 0.893044 -0.080338 -0.428081 
-1.141124 0.841254 2.043975 -0.959694 -0.227604 -0.145995 
-1.041924 0.693125 1.920174 0.867832 -0.017565 0.412284 
-0.769792 -0.101603 1.708142 0.932694 0.337984 0.041861 
-0.713609 -0.138994 1.315461 0.949306 0.236336 0.152857 
-1.116365 0.299580 3.160370 -0.904345 -0.404305 0.113821 
-0.390078 0.509245 -0.122468 -0.683682 0.133973 -0.645534 
-0.980656 -0.041843 2.765542 -0.840137 -0.518948 -0.050540 
0.134937 0.136042 -0.303186 0.517260 -0.044502 -0.842900 
0.429958 -0.301730 0.085509 0.874676 -0.128445 -0.453261 
0.517390 -0.600285 1.919438 0.760670 -0.618596 -0.077597 
-0.122018 0.214212 0.324927 -0.242826 -0.190008 0.944015 
0.444719 -0.689702 1.975142 -0.771615 0.622302 0.039574 
0.562735 -0.517844 1.555129 -0.805460 0.522790 -0.189489 
-0.622803 -0.667491 0.782067 0.923034 -0.004988 0.231595 
-0.558626 -0.242860 0.465126 0.718025 -0.001171 0.492251 
0.857330 -0.131036 1.577244 0.924337 -0.307257 -0.185258 
-1.026134 0.107280 2.935571 0.848743 0.507069 -0.000667 
-1.246357 0.599624 3.191348 -0.929848 -0.343685 0.102051 
-0.919671 0.801308 1.637448 0.829788 0.014191 0.447762 
-1.194445 0.826377 2.311789 0.871595 0.229477 0.332495 
-1.136065 0.447545 3.433443 -0.905615 -0.393256 0.144759 
0.823922 0.423529 3.394206 0.844715 -0.033743 0.471744 
-0.178281 1.196689 0.158593 -0.756092 0.611496 -0.107092 
1.047299 0.198433 2.765502 0.931742 -0.134913 0.327869 
0.640877 -0.450274 1.884092 0.766290 -0.585284 -0.158605 
0.803086 -0.279302 2.766856 -0.870788 0.438930 -0.141828 
0.275162 -0.514160 0.125407 0.467417 -0.175940 0.858363 
-0.663364 0.048229 0.666422 -0.962313 -0.118327 -0.241384 
0.869333 -0.254168 2.299062 0.868715 -0.478646 0.018823 
-0.833670 -0.390687 2.462622 0.861867 0.482868 0.136411 
0.714330 0.561732 1.185902 -0.865091 -0.226392 0.401994 
0.035523 0.621119 -0.289419 0.352993 0.253444 -0.891586 
0.905310 0.450904 1.636923 0.901719 -0.241279 -0.299573 
0.832801 -0.208661 1.793679 0.800177 -0.497672 -0.268326 
-0.107226 1.167701 0.368965 0.316324 0.502948 0.766614 
-0.191027 1.230819 0.361190 -0.857745 -0.435033 -0.231866 
0.774837 -0.360970 1.377621 0.958631 -0.232358 -0.047330 
-0.646288 -0.347340 1.058740 0.959673 0.150994 0.059273 
-0.619051 -0.485475 2.050941 -0.816965 -0.520045 -0.218693 
0.302589 -0.682562 0.086221 0.064959 -0.089757 0.903772 
0.185544 -0.488349 0.164323 0.263009 -0.210383 0.939266 
-1.028489 0.035768 2.684212 0.929556 0.309940 -0.091362 
-0.470710 0.381079 0.461572 0.873682 0.030162 0.454034 
0.661668 0.171909 0.821184 0.969465 -0.128734 -0.179668 
1.071581 0.221680 2.697103 -0.916837 0.383921 -0.039786 
0.266343 0.545922 -0.223314 0.535872 0.143740 -0.813497 
-0.429915 0.271232 0.203524 0.497539 -0.259669 0.773103 
-1.116400 0.205568 2.554210 0.954677 0.228963 -0.091038 
-0.759170 0.519642 0.925390 -0.955349 -0.282587 -0.061467 
-0.242625 0.190775 -0.245425 -0.563457 -0.054127 -0.815704 
1.137566 0.581860 2.585070 0.988335 -0.017505 0.003932 
-0.528233 0.281300 0.160832 -0.899573 -0.038429 -0.409595 
0.852803 1.149847 1.649216 -0.707729 0.157629 0.606163 
0.758249 0.210700 1.178863 0.963437 -0.221695 -0.130331 
0.233531 1.022678 0.316812 0.782458 -0.070701 0.569326 
-1.264767 0.580038 3.041091 -0.931872 -0.346849 0.070652 
0.391714 0.571105 0.242650 -0.597224 0.339780 0.510392 
-0.643583 0.111416 0.596802 -0.952116 -0.114324 -0.269678 
-0.739568 0.735358 0.910781 -0.863508 0.140614 -0.441871 
0.099357 -0.809050 0.076975 0.025257 -0.262570 0.922279 
0.380262 -0.359809 -0.055024 0.853437 -0.151210 -0.496073 
0.587703 -0.235499 0.572119 0.943253 -0.066760 -0.309351 
1.107053 0.323110 2.562531 0.963190 -0.007765 0.197694 
-1.212222 0.684792 2.287035 -0.960316 -0.204291 -0.174800 
0.649796 -0.515300 0.883148 -0.965899 -0.003403 0.170109 
-1.249625 0.506328 2.933725 -0.925609 -0.371045 0.038767 
-1.159750 0.367414 3.096461 -0.909158 -0.399997 0.084853 
-0.952897 -0.045224 2.900657 -0.847527 -0.507016 0.010495 
-0.602491 -0.923466 0.745972 -0.907017 0.090002 -0.236125 
-0.302818 -0.063102 -0.188462 -0.560450 -0.160403 -0.801360 
-0.625688 0.556269 0.655420 -0.869732 0.184267 -0.429174 
0.542205 -0.393693 0.586547 -0.843320 0.005017 0.412102 
-0.637619 -0.390203 1.935628 0.867118 0.453092 0.023681 
-0.174420 -0.427948 0.185480 -0.240208 -0.200110 0.946179 
-0.649154 -0.510517 0.761344 -0.958677 -0.066712 -0.195764 
0.673733 -0.915360 0.798418 -0.899019 -0.184108 0.303290 
-0.267743 0.874995 0.265891 -0.793659 0.140615 0.545555 
-0.730062 0.530289 1.028530 0.895148 -0.117696 0.407953 
-0.785574 0.248610 1.372082 -0.930366 -0.344526 -0.105388 
0.474124 -1.094366 0.261934 0.673484 0.369584 -0.604264 
0.398219 0.075155 -0.089249 0.769818 -0.130134 -0.573308 
-0.697202 0.225342 0.933297 0.923908 -0.033064 0.331442 
-0.411023 0.635678 -0.066136 -0.706259 0.337365 -0.522357 
1.006312 0.506595 1.997832 0.947310 -0.109976 -0.227474 
-0.976076 0.785570 1.685409 -0.859746 -0.439611 -0.127028 
-0.770436 0.303288 1.232798 -0.940440 -0.322796 -0.087832 
-0.638389 -0.611124 0.984583 0.974299 0.059058 0.030467 
-0.095693 0.807933 0.368343 -0.205688 -0.177114 0.953890 
-0.606824 -0.857108 0.796872 -0.931435 -0.025886 -0.203863 
-0.480768 0.478675 0.007097 -0.845549 0.161096 -0.411408 
-0.668752 -0.355127 0.789443 -0.974497 -0.094638 -0.153326 
-1.174810 0.603714 2.334518 0.875668 0.269486 0.319135 
-1.052107 0.186847 3.138858 0.870529 0.470019 -0.061163 
-0.305877 -0.626673 0.084913 -0.106844 -0.094293 0.907181 
-1.052435 0.564190 1.966360 -0.867560 -0.320859 -0.316211 
0.198703 1.166172 0.181862 0.816143 0.545304 -0.035862 
0.930697 0.605978 1.684972 0.907137 -0.141697 -0.220534 
1.064463 0.373687 2.205074 -0.965034 0.035529 0.251678 
0.045265 -0.518430 0.183984 0.199516 -0.207524 0.945028 
-0.582465 -0.392865 0.549072 -0.897994 -0.130946 -0.327206 
-0.866151 -0.061325 1.978304 0.614478 0.416800 0.633031 
-1.268382 0.792438 2.482877 0.896867 0.283179 0.281251 
-1.339709 0.840839 2.767838 0.824721 0.509793 0.152493 
-0.726651 0.337400 0.838613 -0.958714 -0.224142 -0.122184 
0.484732 -0.629820 1.742805 -0.776807 0.591857 -0.119591 
-0.752501 0.093376 1.468225 0.928622 0.205272 0.202988 
1.081840 0.397917 2.273139 -0.969436 0.044852 0.232989 
0.817526 0.241852 1.394000 0.953665 -0.260061 -0.143229 
-0.652517 -0.509294 2.208326 0.774669 0.508188 0.299852 
0.349859 0.514841 0.222426 0.171460 -0.015305 0.924463 
1.041357 0.619887 2.288776 -0.933141 0.009311 0.215122 
-0.450729 0.587668 -0.019163 -0.777591 0.265314 -0.463739 
0.026672 1.425600 0.117777 0.456318 0.800353 0.339384 
-0.405989 -0.523020 0.090887 0.331743 -0.018848 0.891235 
-0.368480 0.230287 -0.151747 -0.687423 -0.064019 -0.695140 
1.073739 0.177416 2.513505 -0.950385 0.171333 -0.143108 
0.390143 0.706369 0.171542 0.465407 0.555807 0.582472 
-0.361050 -0.176152 -0.108845 -0.719102 -0.170275 -0.626803 
0.624537 0.672523 0.827334 -0.965122 0.071517 0.233932 
-1.123908 0.617943 2.115258 -0.815206 -0.461000 -0.322294 
0.251943 -0.874944 0.007511 0.215620 -0.278612 -0.857715 
0.651271 -0.347285 0.872014 0.963829 -0.094941 -0.167203 
0.900265 0.117527 3.072658 0.895888 -0.232272 0.365616 
-0.473597 0.258104 0.294041 0.655311 -0.239037 0.678594 
-0.701409 0.108302 0.773720 -0.964190 -0.170735 -0.165136 
0.703771 -0.431212 2.199645 -0.777336 0.545041 0.176423 
-1.306799 0.731561 2.529431 -0.955683 -0.207307 -0.194574 
-0.845588 0.386452 1.537673 -0.907923 -0.394421 -0.124968 
-0.653348 -0.452405 2.105956 0.712280 0.499190 0.413683 
-0.598650 -0.576398 1.138773 0.956621 0.164208 -0.122419 
-0.289434 0.526023 -0.218582 -0.554792 0.123223 -0.808557 
0.661340 0.340541 0.724437 0.970202 -0.016802 -0.199611 
-1.286179 0.673491 3.145630 -0.939225 -0.322542 0.093177 
-0.068712 1.334861 0.102198 -0.644331 0.656066 -0.070113 
0.213834 1.008433 -0.018290 0.674499 0.388179 -0.595082 
0.490114 -0.627376 1.839343 -0.780843 0.592191 -0.066096 
-1.094325 0.592726 2.054919 -0.837512 -0.400811 -0.320692 
-0.900350 0.816722 1.240810 -0.938414 0.010681 -0.324648 
0.721243 0.826145 1.157245 0.670446 0.402094 -0.452005 
-1.021089 0.408851 1.984171 0.874366 0.163276 0.427305 
-1.077171 0.866673 2.011065 0.828037 0.150348 0.445020 
1.025591 0.446473 2.089408 -0.936996 -0.040466 0.282486 
0.711033 -0.466039 1.227483 -0.970324 0.154438 0.028274 
0.931447 0.669425 1.773173 0.947020 -0.212694 -0.067575 
-0.836404 0.734165 1.357285 0.901675 -0.122206 0.375281 
-0.614345 -0.305363 1.636420 -0.851242 -0.455278 -0.094771 
0.065802 -0.146938 0.250668 0.127017 -0.175768 0.973406 
-0.172686 1.221433 0.232015 -0.604687 0.788217 0.017755 
0.480811 -0.646811 2.018989 -0.782917 0.603623 0.044547 
0.593129 0.277086 0.751368 -0.909101 -0.194763 0.361631 
1.042677 0.244800 2.109451 0.960089 -0.094144 -0.202791 
0.264697 -0.741716 0.104790 0.172656 -0.080015 0.902273 
1.063269 0.874654 2.386535 -0.944969 0.148280 0.166100 
-0.428838 -0.529621 0.177418 0.430150 -0.002558 0.800447 
-0.326339 -0.586450 -0.048978 -0.731917 -0.193695 -0.625535 
0.937659 -0.078407 2.072699 -0.788377 0.397618 0.371402 
-1.000903 1.062129 1.558040 -0.771853 0.036024 -0.509797 
-0.814715 0.643272 1.003725 -0.925312 0.014770 -0.343410 
-1.156212 0.280904 2.728857 -0.942614 -0.307827 0.114363 
-1.036510 0.036337 2.451244 0.918507 0.324900 0.058912 
-0.079430 -0.779820 -0.075109 -0.106266 -0.221659 -0.942121 
-0.649044 0.232178 0.585012 -0.954987 -0.089059 -0.269149 
-0.495289 -0.462030 0.359424 0.619873 0.021697 0.607644 
0.399897 -0.305218 -0.010360 0.861517 -0.139382 -0.481306 
-0.870339 -0.217813 2.897029 -0.869706 -0.478380 0.046074 
-0.253218 -0.468175 0.147300 -0.414383 -0.179552 0.882440 
-0.329589 0.126842 0.193892 -0.405856 -0.189953 0.889544 
-1.196236 0.548324 3.340537 -0.919425 -0.363164 0.127608 
-0.217587 1.084292 0.430763 -0.268303 -0.610827 0.705530 
-0.828599 0.864733 1.332939 0.947073 0.161817 0.236211 
0.970585 0.577000 1.889024 0.950260 -0.129984 -0.174223 
1.042145 0.046193 2.195283 0.941088 -0.311022 -0.092194 
0.807969 -0.200000 1.664330 -0.907893 0.339515 -0.042618 
0.354029 -1.007996 0.220585 0.660920 -0.126738 -0.674261 
0.688829 -0.709373 0.911457 -0.964706 -0.077308 0.190687 
-0.686765 -0.084106 0.996499 0.952973 0.105963 0.224588 
-0.383486 0.586747 -0.118009 -0.669236 0.227257 -0.636673 
-0.600491 -0.584031 2.206172 -0.811110 -0.535541 -0.210049 
0.635625 -0.473347 0.766353 -0.944944 -0.049638 0.279997 
0.442020 0.046617 0.004906 0.876538 -0.092998 -0.465557 
0.642090 -0.852478 0.768632 -0.869819 -0.109447 0.342664 
0.903282 0.043116 1.632407 0.899102 -0.234709 -0.306408 
-0.172477 -0.358679 -0.223698 -0.439414 -0.284824 -0.838165 
0.937579 1.014916 1.815283 0.985521 0.092673 -0.131480 
1.089289 0.807978 2.393255 0.998254 0.030390 -0.020046 
-0.145212 0.610721 0.382427 -0.136300 0.249966 0.953154 
0.123509 -0.479392 -0.181309 0.233022 -0.470002 -0.844157 
0.869087 1.088173 1.685282 -0.717584 0.500166 0.466191 
-0.477764 -0.273932 0.187222 -0.888367 -0.132619 -0.409095 
-0.736092 -0.242198 1.927919 0.898891 0.405460 -0.034422 
-0.101798 -0.690494 -0.087386 -0.026602 -0.307635 -0.939864 
-0.705996 0.255393 1.003311 0.919276 -0.018809 0.330291 
0.558464 0.291697 0.679804 -0.913334 0.097418 0.291169 
0.639718 0.444560 0.924435 -0.871218 -0.228758 0.426364 
-0.662145 -0.206359 0.824564 0.968927 0.088225 0.211325 
0.996182 0.364093 3.033041 0.925192 -0.190338 0.307312 
0.884270 -0.017848 1.673766 -0.960714 0.167759 0.012257 
-0.242082 -1.123267 0.089131 -0.659893 -0.180062 -0.700820 
-0.441760 -0.257625 0.083193 -0.872251 -0.133351 -0.449550 
0.069380 0.854355 -0.191310 0.450435 0.419262 -0.777434 
0.180404 -0.797317 0.096420 -0.164761 -0.130293 0.865938 
-0.174652 0.173647 -0.283557 -0.533853 -0.041953 -0.834445 
1.068135 0.441884 2.912875 -0.951846 0.108779 -0.250052 
0.942660 -0.026754 2.762456 0.863045 -0.473125 0.034254 
-1.005718 -0.046001 2.488045 0.911689 0.351342 0.047674 
0.239902 0.122765 -0.240533 0.561797 -0.078248 -0.811656 
-1.134417 0.309147 2.290690 -0.852741 -0.394188 -0.327199 
0.532156 0.235748 0.591012 -0.872056 -0.174046 0.414575 
-1.231936 0.520625 2.484857 -0.964954 -0.199206 -0.118247 
-0.347008 -0.509797 -0.054887 -0.794822 -0.173844 -0.564198 
0.615484 0.571969 0.750027 0.876619 0.240548 -0.376425 
0.238927 -0.292454 0.186313 0.428216 -0.163324 0.854159 
-1.294878 0.741391 3.206169 -0.961500 -0.057291 0.139407 
-0.632117 -0.454252 1.206847 0.953831 0.189885 -0.049622 
-0.714217 0.263476 1.079459 0.916667 0.005917 0.321304 
-0.473310 -0.829356 0.471624 0.709131 0.018794 0.531921 
0.331772 0.076933 0.177182 0.369647 -0.174540 0.887197 
-0.459621 -0.584215 1.528695 0.867671 0.444416 -0.114456 
-1.162641 0.325294 2.829942 0.858032 0.485640 0.056624 
-0.132231 -0.436275 -0.211524 -0.337058 -0.381779 -0.845930 
0.442756 0.480274 -0.048264 0.787382 0.108037 -0.507677 
-0.763537 -0.135322 1.770146 0.924837 0.358887 -0.012350 
-0.305153 0.878757 0.199338 -0.894090 0.250007 0.284488 
0.278594 -0.460276 -0.154708 0.524108 -0.268681 -0.800400 
-0.888342 0.109097 1.794084 -0.744795 -0.356577 -0.536969 
1.080924 0.678069 2.287917 0.995825 0.039494 -0.015668 
-0.938735 0.437455 1.707090 -0.779471 -0.350546 -0.456831 
-0.293238 0.858581 0.014097 -0.792693 0.445949 -0.338981 
0.807168 0.220014 3.339282 0.875544 -0.234811 0.413109 
0.002625 -0.308769 0.221076 0.043078 -0.143468 0.988100 
-0.940007 -0.005321 2.096025 0.735828 0.393119 0.466372 
-1.171152 0.487660 3.312065 0.926703 0.327118 -0.124508 
0.573428 -0.553125 0.646567 -0.852529 -0.032024 0.389797 
0.733037 -0.105052 1.089199 0.957036 -0.166915 -0.200348 
-0.600123 -0.538118 2.111403 -0.819414 -0.522673 -0.195953 
0.716362 -0.854774 0.952430 -0.965045 -0.116904 0.184369 
0.423829 0.541215 0.320618 -0.855162 0.284001 0.419221 
0.838500 0.727722 1.598228 -0.877000 -0.248672 0.299666 
0.995037 -0.045165 2.283164 0.919728 -0.359520 -0.080612 
-0.079140 1.053041 -0.061735 -0.398985 0.444009 -0.776321 
-0.247676 -0.230642 0.193571 -0.465268 -0.177527 0.837084 
0.498850 0.267780 0.502587 -0.811936 -0.183410 0.498409 
0.020612 -0.189663 -0.309132 0.359054 -0.244187 -0.873504 
-0.616220 -0.481695 0.670131 -0.926950 -0.094779 -0.258763 
0.593624 -0.984444 0.587179 -0.797143 -0.258512 0.431568 
-0.395670 0.118355 0.170110 0.190009 -0.204101 0.841704 
-0.721724 0.157384 1.209623 0.924053 0.093127 0.268246 
1.114797 0.386918 2.379653 0.906842 -0.279150 -0.301922 
0.465022 -0.505410 0.343563 -0.607682 -0.005349 0.648510 
0.181933 0.203633 0.304165 0.330223 -0.180297 0.924790 
-0.628702 0.259568 0.486865 -0.947552 -0.052579 -0.291458 
-0.668709 0.593237 0.788083 0.924796 0.236636 0.216650 
0.418596 -1.061455 0.232633 0.662896 0.162783 -0.640967 
0.729885 -0.208382 1.163382 -0.958266 0.136141 0.198393 
0.668900 0.240090 0.847435 0.970731 -0.141516 -0.163737 
-0.701958 -0.277384 1.864148 -0.735470 -0.524841 -0.354164 
-0.197998 0.116796 0.267078 -0.314513 -0.202384 0.925625 
0.871502 0.048476 1.568648 0.930707 -0.265750 -0.207114 
0.841738 1.300774 1.641811 -0.778219 0.082464 0.487412 
-0.654681 0.170062 0.635564 -0.956051 -0.122137 -0.261621 
-0.713781 0.421726 0.990626 0.903147 -0.085779 0.384504 
-0.734710 -0.275349 1.992704 0.613500 0.468304 0.592003 
-1.101263 0.262144 2.224969 -0.877978 -0.345511 -0.311394 
0.562892 0.478000 0.614762 -0.921642 0.204629 0.262231 
-0.591946 -0.364406 1.540539 -0.892503 -0.404666 0.007540 
0.706973 0.211730 1.122635 -0.902402 -0.055258 0.334140 
-0.949995 0.660186 1.632925 -0.820271 -0.396689 -0.317869 
-0.382618 -0.944867 0.288991 -0.725460 -0.160035 -0.578805 
-0.807301 0.517855 1.192902 -0.933062 -0.340166 -0.081537 
-0.866783 -0.251173 2.296215 0.756374 0.458243 0.333930 
-0.155950 1.069625 0.259351 -0.590673 0.622101 0.223108 
-0.607215 0.444090 0.589015 -0.838280 0.368765 -0.335276 
0.586430 -0.094706 0.527228 0.942434 -0.061443 -0.313315 
0.976501 0.108698 2.857182 0.916355 -0.195087 0.323279 
-0.014305 -0.108166 0.260575 -0.076311 -0.180471 0.978873 
-0.091807 -0.871271 -0.065508 -0.201332 -0.144105 -0.933926 
-0.679770 -0.511293 2.278997 -0.827834 -0.520769 -0.176789 
-0.226236 1.029757 0.024215 -0.742255 0.389981 -0.466904 
