0.599377 0.387460 0.228193 0.772430 -0.371902 0.508852 
-0.294444 0.636408 0.512032 -0.460311 0.351972 0.779113 
-0.066060 -0.474619 0.335486 -0.051401 -0.271159 0.953877 
0.578691 0.286397 0.200968 0.770523 -0.344324 0.526621 
-0.745922 2.053738 0.823451 -0.855703 0.048502 0.485249 
-0.787420 2.103646 0.778391 -0.841792 0.036550 0.516366 
-0.540363 0.425820 0.257361 -0.885630 -0.349524 0.302756 
0.475642 1.054500 0.841656 0.452888 -0.580879 0.527102 
0.309671 0.463496 0.025040 0.561513 0.097348 -0.784419 
1.347316 2.202375 0.674186 -0.847030 0.456529 -0.210192 
-1.127407 1.725489 -0.274301 -0.892108 0.360603 0.015536 
1.425873 2.804963 0.954001 0.924056 -0.110903 0.347899 
-0.757699 2.941445 0.602330 0.833489 -0.363266 -0.365141 
-1.100175 1.836836 -0.020156 -0.932825 0.112838 0.080656 
0.510507 -0.494236 -0.015129 -0.312892 0.133123 -0.879286 
-0.267899 0.501874 -0.011892 -0.634085 0.019838 -0.760736 
0.499753 0.087468 0.054216 0.057029 0.146157 -0.869990 
-0.961611 1.875504 0.507375 -0.897368 -0.268325 0.311905 
1.009653 0.833213 -0.093719 -0.682010 0.296277 -0.651249 
0.916484 0.210868 -0.193741 -0.483898 0.126628 -0.837702 
0.483033 1.598217 1.315426 -0.450949 0.779079 -0.415215 
-0.630634 0.951503 0.354746 -0.731886 -0.292778 0.561506 
-0.738609 3.134650 0.203876 -0.798593 0.518012 0.254221 
-1.124316 1.285886 -0.462526 0.840021 0.291130 -0.441199 
1.144970 1.705052 0.388778 -0.847118 0.363546 -0.359709 
0.061778 0.605639 0.567004 0.030560 0.306246 0.941781 
-0.630560 0.679235 0.188149 -0.911999 -0.258661 0.302228 
0.467286 1.462717 1.251306 0.882634 -0.259579 0.348721 
0.267757 -0.347400 0.024369 0.479621 -0.046826 -0.861198 
0.904465 -0.144907 -0.227224 -0.522902 0.099835 -0.840819 
-0.102858 0.077400 0.531502 -0.230413 -0.271013 0.928922 
-0.680534 0.828221 0.222299 -0.940388 -0.150724 0.279540 
-0.471690 1.263497 0.757271 0.945843 -0.168867 -0.080078 
1.045261 2.319082 1.485187 0.788073 -0.487837 0.362593 
-0.196333 0.314003 0.561826 -0.361731 -0.097195 0.906860 
-0.584878 0.551896 0.253109 -0.891905 -0.296561 0.305921 
-0.541721 2.386652 1.006785 -0.799930 0.275685 0.516554 
0.234659 0.478983 -0.030852 0.572808 0.043049 -0.811498 
0.224380 -0.276719 -0.027121 0.545167 -0.088118 -0.830914 
-0.522438 0.279256 -0.020966 0.182220 0.174576 -0.804030 
-0.577782 0.870538 0.310578 0.972057 0.114539 -0.072615 
-0.422159 2.092357 1.164078 0.948294 0.062436 -0.177121 
-0.830566 2.513628 0.747432 -0.717759 0.202242 0.660786 
-0.356166 0.372957 0.091445 -0.174895 0.196091 -0.928179 
0.258465 0.956643 0.461789 0.821684 0.012141 0.528321 
-0.053346 0.819421 -0.030570 -0.440040 0.349486 -0.812766 
0.912216 0.055396 -0.213079 0.597116 -0.118240 0.786182 
-0.572907 1.067928 0.392536 0.673235 0.511494 -0.523246 
-0.084821 -0.109609 0.467125 -0.135789 -0.287584 0.945167 
-0.606487 1.134218 0.385604 0.659366 0.501855 -0.540827 
1.455603 2.453317 0.677211 -0.897948 0.181872 -0.348791 
-0.404544 1.949777 1.175315 0.930707 0.088171 -0.197669 
1.097995 2.530308 1.541832 -0.856835 0.427816 -0.249017 
0.621389 1.411188 0.963048 0.894229 -0.302904 0.312848 
-0.899133 1.494117 0.340967 -0.942854 -0.108319 0.311001 
0.836195 2.110431 1.496015 -0.762215 0.544852 -0.282799 
-1.102637 1.826962 -0.125639 -0.920907 0.204809 0.021909 
0.877674 0.381568 -0.074127 0.713006 -0.238145 0.641453 
0.416907 -0.193725 0.173129 0.736753 -0.216848 0.638000 
1.332533 2.763569 1.207727 -0.878377 0.188445 -0.412608 
-0.417942 0.526718 0.169145 0.022700 0.358185 -0.778950 
0.276227 0.955333 0.245800 0.860710 0.370869 -0.256929 
0.373137 -0.466391 0.131119 0.707244 -0.243071 0.657265 
0.537581 1.392882 1.072533 0.904559 -0.287490 0.302298 
1.368282 2.158458 0.426101 -0.823620 0.504360 -0.123982 
-0.745900 0.324889 -0.189238 -0.784329 -0.209142 0.556172 
-1.062562 1.118205 -0.457447 0.791227 0.312352 -0.507200 
0.924388 1.090833 0.247125 0.821455 -0.276756 0.480300 
-0.519969 0.147067 -0.017456 0.178911 0.162166 -0.794233 
-0.413218 -0.007720 0.047481 -0.025712 0.127458 -0.890746 
0.654801 -0.493896 -0.124107 0.584405 -0.118967 0.798352 
-0.046950 -0.113095 -0.112360 -0.427573 -0.103477 -0.874869 
-0.426022 -0.113014 0.158813 -0.840419 -0.203106 0.485505 
1.099095 2.315211 1.382047 -0.728330 0.446269 -0.505418 
0.151626 0.690621 0.531714 0.169336 0.189023 0.943238 
1.196223 1.468907 0.013136 -0.810523 0.229639 -0.491088 
-0.191789 -0.866184 0.011177 0.116410 0.001968 -0.984298 
-0.892518 0.972743 -0.271677 0.789643 0.299046 -0.525167 
-0.202945 0.758517 0.501595 -0.351771 0.160731 0.893438 
0.493499 0.064109 0.195995 0.760957 -0.297502 0.563254 
1.173368 0.796790 -0.273372 -0.576951 0.152910 -0.777244 
-0.268526 -1.004668 0.023319 -0.109591 -0.310865 0.941893 
1.172534 1.981595 0.830727 -0.726606 0.630865 -0.185212 
0.193098 0.240720 -0.052100 0.468249 -0.002020 -0.881139 
1.001194 1.215402 0.235984 0.815923 -0.323205 0.457271 
-1.194950 1.366720 -0.525112 0.850889 0.288482 -0.420180 
1.497638 2.880275 0.587627 0.964786 -0.090449 0.241572 
-0.578216 -0.441866 -0.146844 -0.715720 -0.130062 0.668086 
0.898257 0.862328 0.100762 0.797350 -0.328914 0.500589 
-0.011691 0.194288 0.569428 -0.098879 -0.191040 0.969183 
0.654997 0.437747 0.182579 0.771643 -0.355713 0.520311 
0.071250 -0.262741 -0.089084 0.396252 -0.170331 -0.881769 
-0.794224 2.796761 0.670135 0.834248 -0.277746 -0.422973 
-0.669434 0.634369 0.077775 -0.870798 -0.321856 0.360678 
-0.615577 1.315620 0.638727 -0.942615 -0.126685 0.308529 
-0.282754 -0.077479 0.012029 -0.423571 -0.011899 -0.868761 
1.319207 2.024328 0.222073 -0.901795 0.312595 -0.257777 
0.775707 1.007371 0.398937 0.850571 -0.224579 0.463835 
-1.019334 1.048175 -0.394640 -0.832312 -0.287687 0.464718 
0.673634 1.224912 0.731280 0.886626 -0.243564 0.375968 
0.106459 0.289829 0.582870 0.218472 -0.111484 0.960642 
-1.027420 0.815670 -0.466363 -0.802949 -0.265727 0.505872 
0.580166 1.378256 0.909972 -0.497255 0.630872 -0.561864 
-0.092550 0.320737 -0.103228 -0.497719 0.046994 -0.864033 
-0.369041 -0.800101 0.052605 -0.645054 -0.187559 0.729193 
-0.534785 2.149034 1.025427 -0.773923 0.313560 0.542947 
0.878572 2.056503 1.376850 -0.617112 0.580182 -0.494253 
-0.970702 2.321653 0.319059 0.982776 0.001656 -0.126664 
0.822480 0.988927 0.236139 -0.627011 0.487153 -0.583331 
-0.658477 0.895120 0.262816 -0.773101 -0.224594 0.511679 
-0.148159 0.567794 -0.046993 -0.478272 0.075955 -0.844687 
-0.466162 3.258790 0.691055 0.640617 -0.543910 -0.509980 
1.289654 1.943100 0.251742 0.776275 -0.547404 0.035262 
1.317598 1.965372 0.119110 0.827305 -0.441754 0.074459 
1.061602 1.156187 0.053070 -0.744298 0.353397 -0.549012 
-0.457455 1.517257 1.025373 -0.194647 -0.623742 0.619978 
-1.087530 1.848065 0.132846 0.908766 -0.151244 -0.232870 
-0.378917 3.370194 0.664964 0.641022 -0.566478 -0.490480 
1.321665 2.388885 1.064406 0.850090 -0.138355 0.488136 
-0.502060 1.204680 0.598956 0.760990 0.386049 -0.463436 
0.783551 1.835976 1.220123 -0.638099 0.591441 -0.471976 
-0.119205 0.825736 0.001117 -0.497539 0.393808 -0.751267 
-0.672065 1.211440 0.359804 0.695922 0.448720 -0.514442 
0.525784 -0.792390 -0.079004 -0.373947 0.087768 -0.917150 
1.510896 2.679087 0.507448 0.955371 -0.169160 0.220116 
0.273895 0.852811 0.144921 0.748381 0.400395 -0.460525 
1.021273 0.764655 -0.127220 -0.648095 0.260327 -0.686676 
1.348705 2.450551 1.040283 0.876031 -0.104364 0.461981 
-0.340826 0.627111 0.107987 -0.610023 0.276396 -0.675772 
0.687182 1.498983 0.866702 -0.555223 0.591065 -0.522638 
-0.891857 2.315229 0.643063 -0.877369 -0.004656 0.443114 
-0.331747 -0.371686 0.289291 -0.730996 -0.280042 0.619642 
-0.606315 0.289797 -0.007193 -0.856500 -0.233502 0.450236 
-0.567523 1.228366 0.546570 0.632097 0.518093 -0.552565 
1.348515 2.041447 0.083708 -0.908613 0.301936 -0.220382 
-0.940135 2.467885 -0.212074 0.979281 -0.187206 0.042389 
-0.824825 2.721314 0.658303 0.847727 -0.220117 -0.426659 
-0.668374 0.029618 -0.154324 -0.759789 -0.178245 0.597683 
-0.905676 1.636991 0.413531 0.816173 0.230827 -0.432691 
-0.716521 1.984783 0.832593 0.689004 0.175343 -0.623195 
-0.870436 2.942910 -0.004658 -0.934922 0.319966 0.067635 
1.056215 0.505956 -0.244486 -0.525040 0.131695 -0.814299 
0.490448 -0.277654 0.046547 0.735260 -0.200186 0.639945 
0.676498 1.755968 1.298918 0.794222 -0.322466 0.505768 
0.859316 0.716614 0.065526 0.771268 -0.334649 0.537220 
0.063910 0.446161 -0.096674 0.424454 0.088964 -0.898189 
0.994784 1.345974 0.353687 0.832648 -0.343848 0.410144 
0.177639 0.967548 0.540606 0.413784 -0.129742 0.849401 
-1.096671 1.827762 -0.240203 0.877599 -0.467676 -0.024299 
0.544514 1.572636 1.206742 -0.308760 0.707276 -0.576228 
1.244717 2.596788 1.380818 0.879635 -0.273532 0.379243 
0.550723 0.690401 0.444541 0.243343 -0.538373 0.794029 
0.129676 1.213990 0.220832 0.660177 0.523151 -0.490156 
0.443365 1.244753 1.048659 -0.871599 -0.162493 -0.132875 
-0.081932 -0.250193 -0.085837 -0.424324 -0.148577 -0.871073 
0.472496 -0.449141 0.023015 0.699220 -0.179889 0.680457 
0.287121 -1.056211 0.021810 0.007843 -0.318148 0.895814 
0.642362 1.014367 0.639194 0.751416 -0.396155 0.487579 
-0.623262 1.407701 0.702911 -0.942988 -0.125068 0.307921 
-0.697964 3.231643 0.108478 0.832111 -0.497204 -0.194755 
-0.414400 2.013665 1.145617 0.843353 0.043360 -0.460450 
1.416989 2.470818 0.799264 0.925410 -0.305507 0.191862 
0.025778 0.093698 0.543522 0.118777 -0.270211 0.950487 
1.105543 1.473930 0.246031 -0.795253 0.386810 -0.437382 
-0.789329 0.921950 -0.040173 -0.886370 -0.233465 0.383905 
0.235969 0.898151 0.105208 0.670741 0.437537 -0.589981 
-1.253358 1.458835 -0.545294 -0.893942 -0.246213 0.350480 
0.291994 0.089985 0.450290 0.512146 -0.251608 0.789032 
0.100894 -0.870184 0.119118 0.091683 -0.374400 0.910503 
-1.084117 1.556801 0.003555 0.909961 0.156715 -0.361424 
1.265038 2.556149 1.317857 -0.852454 0.246934 -0.453144 
0.762991 0.428835 0.036844 0.767271 -0.280814 0.571058 
-0.751249 1.659903 0.654585 0.709875 0.296994 -0.538683 
1.065037 0.912585 -0.125655 -0.683242 0.283600 -0.657063 
1.418259 3.270971 1.161656 -0.932259 0.134802 -0.331852 
-0.932447 2.680829 0.039281 -0.982104 0.168903 -0.012106 
-0.862057 2.861550 0.418482 0.922532 -0.269150 -0.225902 
1.188174 1.256202 -0.131845 0.813553 -0.167104 0.531102 
-0.319936 0.829130 0.222128 -0.879634 0.346233 -0.275035 
-0.973369 2.363969 -0.029043 -0.890599 0.366561 0.022523 
0.155949 0.491634 0.579108 0.267963 0.002824 0.960630 
-0.955839 2.376223 -0.145812 0.981130 -0.131071 0.024658 
-0.923778 1.061194 -0.279037 0.812683 0.294321 -0.495658 
0.755143 0.688408 0.192644 0.793392 -0.360392 0.486072 
1.107583 2.270185 1.271491 0.814047 -0.303958 0.480660 
-1.061425 1.950042 -0.160653 -0.939060 0.171886 -0.031605 
-0.334982 -0.000665 0.088669 -0.156026 0.114631 -0.976887 
0.425624 -0.058400 0.235043 0.724313 -0.227817 0.645622 
1.449962 2.877552 0.877068 -0.944464 0.186952 -0.233179 
0.703822 1.096609 0.580233 0.879278 -0.206591 0.419953 
1.456203 3.093970 0.986079 0.948722 -0.135921 0.283926 
-0.053573 -0.394662 0.358101 -0.006413 -0.191155 0.977115 
0.124217 1.259634 0.328621 0.678891 0.660075 0.087323 
-0.806425 2.344477 0.770488 0.764284 -0.029415 -0.611299 
-0.373492 -0.038552 0.357147 -0.728928 -0.248441 0.636629 
1.436212 2.651762 0.715747 -0.937185 0.126096 -0.300568 
-0.921533 2.738414 0.094960 -0.973198 0.190824 0.023532 
0.253233 -0.747811 0.163225 0.341883 -0.350855 0.831147 
0.157397 0.462701 -0.054420 0.476491 0.063084 -0.867756 
-0.587367 0.557951 0.394022 -0.647118 -0.436871 0.584875 
1.116005 0.518162 -0.280954 0.618531 -0.121598 0.768370 
-0.045718 1.054875 0.106120 -0.330859 0.467796 -0.803646 
0.971149 0.918288 0.033564 0.789788 -0.314087 0.522258 
0.101250 -0.302266 0.391219 0.087917 -0.296271 0.947773 
-0.749667 -0.144655 -0.279920 -0.683003 -0.123891 0.676487 
-0.034984 -0.195436 -0.108390 -0.384245 -0.157250 -0.887280 
0.222900 -0.348308 0.350237 0.377171 -0.291190 0.822698 
0.157694 1.121326 0.161700 0.540219 0.444327 -0.710939 
-1.008427 2.091401 -0.093837 0.903036 -0.392005 -0.069206 
-0.501068 3.020296 0.924166 -0.782438 0.389973 0.451267 
1.139086 1.718225 0.480179 0.751508 -0.570496 0.198760 
1.399486 2.533854 0.853743 0.902320 -0.073088 0.406256 
-0.982033 2.358686 0.045556 -0.868962 0.405870 0.046703 
0.807109 -0.241728 -0.183437 0.562292 -0.108266 0.812498 
0.033050 1.232099 0.464789 0.008974 0.742010 0.649602 
0.284068 -0.885775 0.078977 0.248471 -0.315745 0.871573 
0.232354 -0.522375 0.289605 0.392769 -0.334053 0.838345 
1.222627 1.805616 0.255962 -0.909835 0.182726 -0.325877 
-0.667253 3.170201 0.423185 0.799300 -0.476644 -0.319085 
-0.910945 2.822298 0.315676 -0.858587 0.402103 0.271156 
0.997581 1.418622 0.366724 -0.748451 0.462052 -0.442740 
-1.034658 1.980288 -0.342782 0.913551 -0.378710 0.012694 
1.009069 2.024033 1.208606 0.721422 -0.365771 0.577276 
-0.340306 1.666649 1.213138 0.772931 -0.269177 -0.527993 
-0.239084 0.931328 0.143706 -0.717110 0.411341 -0.527058 
-0.340222 -0.970854 -0.014865 0.295608 0.070115 -0.951605 
-0.606777 1.919860 0.976629 -0.908561 0.064370 0.370222 
0.335056 -0.929371 0.047059 0.451990 -0.241317 0.841154 
1.424385 2.148199 -0.121310 -0.908921 0.359080 -0.140045 
-0.382346 -0.287299 0.057067 -0.022641 0.101163 -0.908458 
0.807920 0.886891 0.151371 -0.597751 0.527495 -0.575058 
1.253792 1.885440 0.342467 0.743345 -0.588639 0.016093 
-0.930408 1.142478 -0.122101 -0.866407 -0.235563 0.426269 
0.031736 0.919450 0.577842 0.173107 -0.087682 0.970951 
-0.592567 3.322715 0.339245 -0.769418 0.557185 0.301948 
-0.336048 3.389308 0.718206 -0.633448 0.573563 0.497609 
1.232050 0.958631 -0.282757 -0.609435 0.169851 -0.752194 
-1.033634 2.025861 -0.074362 0.890377 -0.424297 -0.076828 
-0.698454 1.461544 0.559562 0.695416 0.383602 -0.524485 
0.668489 0.905370 0.453458 0.420865 -0.546103 0.702332 
-0.483718 0.373261 -0.003920 0.125657 0.177134 -0.856890 
0.347207 0.070997 0.049072 0.285768 0.091257 -0.932999 
0.239074 1.122468 0.640197 0.623380 0.360089 -0.647052 
0.273137 0.994332 0.398860 0.921898 0.317715 0.198139 
0.370385 0.425113 0.473254 0.423910 -0.136894 0.889951 
1.191189 1.680523 0.083569 -0.896205 0.185707 -0.307445 
1.232938 2.844592 1.480801 0.683770 -0.088182 0.690061 
-0.852803 2.013157 0.658808 0.819747 0.263435 -0.430867 
-0.469603 -0.241803 0.019699 -0.827389 -0.164511 0.523290 
0.301200 0.881243 0.375093 0.897823 0.233896 0.280721 
0.948668 0.989855 0.127339 0.803514 -0.267026 0.521856 
-0.294785 1.653227 1.323179 -0.526912 0.162858 0.697136 
0.887109 0.954058 0.187931 0.816144 -0.279602 0.494859 
-0.385195 0.427929 0.127606 -0.063883 0.272559 -0.880595 
-0.034085 0.990325 0.057130 -0.365397 0.494973 -0.773496 
-0.984454 2.213703 -0.106319 -0.863296 0.430911 0.030865 
-0.478025 -0.080421 -0.004905 0.172557 0.139460 -0.830806 
0.674137 -0.425823 -0.128329 0.596269 -0.122693 0.789580 
0.127961 1.047497 0.568702 0.028899 -0.054595 0.943772 
1.477211 2.682081 0.606346 -0.933695 0.116830 -0.297208 
-0.289946 -0.052211 0.408124 -0.581660 -0.259628 0.731516 
-0.447879 1.319675 0.870965 -0.321110 -0.559237 0.606967 
0.008199 0.948835 0.016004 0.358917 0.519033 -0.772234 
1.198861 2.024652 0.901504 0.790999 -0.498254 0.336426 
0.466833 -0.895282 -0.056003 -0.359481 0.085946 -0.924821 
-0.655427 1.384424 0.633749 -0.943244 -0.122863 0.307919 
0.379456 -0.877002 0.025298 0.549751 -0.198558 0.803719 
-0.494265 0.190164 0.205773 -0.872013 -0.287918 0.370983 
-0.560181 1.206811 0.687658 -0.772583 -0.372826 0.491699 
-0.590722 2.913733 0.886193 -0.799511 0.314469 0.479584 
0.810194 0.371057 -0.049326 -0.504702 0.238312 -0.732598 
0.862192 0.466382 -0.063315 -0.577858 0.256184 -0.710071 
0.790814 0.869885 0.277840 0.848397 -0.311448 0.424508 
-0.575711 0.616330 -0.054817 0.309522 0.221128 -0.777249 
-0.353023 0.757227 0.258052 -0.917849 0.328611 -0.167782 
1.150021 1.683527 0.304915 -0.855109 0.328429 -0.346822 
-0.482234 2.417989 1.107738 -0.513958 0.173678 0.794780 
0.796856 1.780983 1.165176 -0.491148 0.621825 -0.542530 
-0.681535 2.890556 0.789998 0.753031 -0.352697 -0.532249 
-1.100339 1.379355 -0.256071 -0.912925 -0.191058 0.338505 
-0.224032 1.072848 0.417500 -0.838925 0.489197 0.194661 
0.718321 0.505851 -0.007564 -0.258638 0.224594 -0.778970 
1.062841 1.195323 0.127588 0.797632 -0.339604 0.480562 
1.255391 2.694836 1.390787 0.905267 -0.244982 0.339906 
-0.118898 -0.921888 -0.007875 -0.007436 -0.012886 -0.996430 
0.835462 1.905077 1.267027 0.773791 -0.333775 0.525128 
1.037320 2.242855 1.404923 -0.688502 0.500222 -0.519683 
1.234061 2.226937 1.100601 0.745323 -0.279356 0.573087 
-0.502422 1.770687 1.059484 0.475474 0.233334 -0.807583 
1.269360 2.919712 1.417820 -0.849449 0.172632 -0.480205 
-0.598436 0.798615 0.115154 0.602339 0.358774 -0.585672 
-0.345108 0.564652 0.489115 -0.507840 -0.023065 0.841648 
0.427737 -1.015359 -0.046566 0.688550 0.023874 0.688537 
0.714615 -0.355178 -0.143764 0.591868 -0.120361 0.792276 
-0.325372 -0.703510 -0.010985 -0.026073 0.006992 -0.877764 
0.293179 -0.647725 -0.004846 0.066092 -0.048969 -0.895951 
-0.632136 2.924014 0.829773 0.739986 -0.369737 -0.538882 
0.126177 -1.094099 -0.015549 0.055067 -0.006706 -0.997920 
-0.517370 1.073218 0.452143 0.891974 0.227038 -0.362813 
-0.426582 3.267292 0.750930 -0.742431 0.529227 0.402853 
0.948017 1.514495 0.517531 -0.725586 0.501262 -0.426259 
-0.972842 2.443194 0.061381 -0.891707 0.356439 0.033474 
0.745194 1.194391 0.520399 -0.618302 0.570413 -0.512639 
-1.024882 1.688519 0.287015 0.890883 0.158271 -0.367802 
-0.328261 -0.686183 0.139789 -0.669324 -0.246431 0.691493 
0.294997 0.875266 0.213012 0.853444 0.356036 -0.306596 
-0.718442 0.890849 -0.033214 0.708271 0.338662 -0.545992 
-0.402215 -0.190563 0.163755 -0.821454 -0.183345 0.531359 
1.007398 1.481719 0.407119 -0.759759 0.471287 -0.419080 
0.040578 -0.242932 0.411979 0.026291 -0.304374 0.947677 
0.765236 1.516415 0.773396 -0.604869 0.563861 -0.493833 
-0.405572 0.008287 0.281319 -0.777842 -0.207354 0.582604 
0.334749 0.493128 0.115305 0.523755 0.289995 -0.720016 
-0.699950 0.630734 -0.002529 -0.861920 -0.292527 0.401639 
1.447897 2.820076 0.834327 -0.943404 0.197667 -0.219316 
-0.600299 0.406127 0.091081 -0.868975 -0.288216 0.384932 
-0.710333 3.192927 0.168172 0.838721 -0.472645 -0.207505 
1.019247 1.630107 0.586877 0.779865 -0.502167 0.275655 
-0.882082 2.104852 0.644762 0.851943 0.183197 -0.449009 
-0.580179 0.351815 -0.054232 0.285210 0.191695 -0.749242 
-0.281411 0.909600 0.217626 -0.839323 0.371520 -0.303724 
1.102295 1.054329 -0.086914 0.784222 -0.257145 0.552249 
-0.390930 -0.074976 0.274916 -0.771335 -0.215273 0.589857 
0.704132 -0.588093 -0.158756 -0.461262 0.087887 -0.878380 
-0.770705 0.843221 -0.039478 -0.872342 -0.270764 0.392747 
0.270960 -0.807213 0.123787 0.309914 -0.331484 0.842864 
-1.011749 0.981178 -0.420504 0.766617 0.296870 -0.533453 
1.433318 2.308671 0.577416 0.909702 -0.296351 0.249484 
-1.241653 1.401030 -0.585880 -0.864023 -0.287955 0.397678 
0.638526 1.610862 1.175030 0.861259 -0.390906 0.264852 
-0.556940 0.461532 0.359054 -0.725716 -0.434455 0.481369 
-1.024468 2.071486 0.055281 0.882950 -0.436374 -0.119679 
0.901493 2.171094 1.521859 0.606724 -0.435543 0.629367 
0.608305 0.770919 0.240089 -0.281465 0.615445 -0.540680 
1.398431 2.079429 -0.128865 0.919340 -0.297197 0.134698 
-0.787691 1.117060 0.051839 0.761097 0.354871 -0.508908 
-0.903663 1.741327 0.536984 -0.941181 -0.119694 0.305526 
-0.324111 0.423608 0.054853 -0.414950 0.111572 -0.835636 
0.838326 1.442400 0.666269 0.867392 -0.337165 0.344785 
-0.317233 0.012778 0.407689 -0.615773 -0.250532 0.712121 
0.116773 -0.937528 -0.009911 0.030767 -0.010648 -0.996026 
0.469225 0.248647 0.048572 0.085331 0.163377 -0.909473 
1.038460 1.781835 0.863142 0.776561 -0.423019 0.455747 
0.481634 0.650344 0.263881 0.131080 0.633487 -0.569963 
0.543714 1.591998 1.277957 0.894108 -0.387230 0.181236 
-1.133857 1.231316 -0.511643 -0.837885 -0.309127 0.447107 
0.263056 0.806726 0.065107 0.648251 0.484369 -0.561415 
-0.481394 0.566956 0.089569 0.264520 0.256773 -0.782619 
1.506739 2.797381 0.515682 -0.961154 0.113118 -0.235667 
-0.601811 2.614398 0.901391 -0.783761 0.343338 0.504968 
0.267094 -0.037099 -0.004341 0.503340 -0.066271 -0.857659 
0.532585 0.198892 0.214196 0.769952 -0.339052 0.529379 
1.398729 2.108447 -0.060939 -0.909832 0.334800 -0.166249 
1.119438 2.013108 1.036285 -0.712408 0.557454 -0.408789 
-0.398121 -0.456014 0.068923 -0.799716 -0.166838 0.558984 
0.045419 0.344709 0.599613 0.135990 -0.072516 0.982612 
-0.840201 1.189446 0.106761 -0.895207 -0.192286 0.382346 
-0.687885 3.205483 0.253596 0.825628 -0.477912 -0.239853 
0.732642 1.443604 0.824422 0.880562 -0.326198 0.324533 
1.316053 2.673864 1.226768 -0.877835 0.217456 -0.410737 
0.955651 1.683075 0.808658 0.627788 -0.707920 0.128415 
-0.463977 1.188756 0.731920 0.934530 -0.052114 -0.176573 
-0.322917 0.759982 0.181960 -0.828518 0.365321 -0.347907 
-0.323608 0.548933 0.092130 -0.575405 0.220117 -0.730071 
-0.708367 1.897679 0.858526 -0.888199 0.163747 0.396811 
-0.639025 3.052783 0.713480 0.736125 -0.461730 -0.478065 
-0.310878 -0.274477 0.107874 -0.225307 0.080138 -0.967348 
-0.766175 -0.349010 -0.279291 0.565239 0.025140 -0.797297 
0.027726 -0.756058 0.028543 0.269660 -0.031489 -0.958633 
1.143102 2.064967 1.081266 -0.717331 0.518288 -0.453404 
-0.732003 3.044446 0.477879 -0.748002 0.523573 0.390713 
-0.110802 0.977790 0.078364 -0.510689 0.465154 -0.701326 
-0.680190 1.849153 0.807790 0.738431 0.281883 -0.531909 
0.602844 0.488623 0.305004 0.739422 -0.403096 0.508230 
0.492983 0.201319 0.280788 0.741306 -0.311977 0.578214 
-1.231808 1.573500 -0.432684 -0.937536 -0.051286 0.208812 
-0.059020 0.821360 0.552326 -0.183492 -0.230126 0.948725 
-0.525163 1.876407 1.046315 0.494225 0.169294 -0.810360 
0.849138 1.218840 0.399204 -0.664103 0.508991 -0.510000 
-0.921511 0.639745 -0.359855 -0.797000 -0.245272 0.523290 
-0.083520 0.620462 -0.067409 -0.394910 0.120276 -0.886708 
1.363675 2.519756 1.026492 -0.905888 0.352030 -0.178974 
-0.416165 1.601094 1.105148 0.888846 -0.351360 0.137654 
-0.638028 1.973649 0.928692 0.610276 0.136342 -0.721195 
0.376155 0.004022 0.079199 0.224527 0.121449 -0.940128 
-1.003447 1.460455 0.068656 0.881094 0.180114 -0.406217 
0.756084 0.784273 0.098630 -0.456133 0.425131 -0.661884 
-0.390579 0.042082 0.349826 -0.741816 -0.229168 0.626485 
0.741616 1.694201 1.145045 0.810493 -0.452320 0.302486 
0.372534 0.568397 0.257772 0.495937 0.609738 -0.595148 
0.334856 0.630636 0.069734 0.639930 0.304199 -0.660052 
-0.344926 0.489816 0.179096 -0.403298 0.333749 -0.780233 
-0.977440 0.809807 -0.411209 0.729661 0.276719 -0.568781 
0.001678 0.726248 -0.074604 0.254896 0.262094 -0.926936 
-1.089249 1.881605 0.040626 -0.945049 0.048159 0.080398 
1.378781 2.736625 1.071434 -0.912186 0.236120 -0.294071 
0.117897 -0.700980 0.232675 0.163000 -0.430614 0.884682 
-0.290916 -1.238837 -0.033818 0.632073 -0.491216 0.336360 
-0.278734 -0.237477 0.029467 -0.402969 -0.008622 -0.880938 
-1.092347 0.819852 -0.529524 0.731304 0.245053 -0.573187 
0.627375 0.634892 0.393889 0.389913 -0.502112 0.768749 
-1.001156 0.734675 -0.456056 0.705266 0.266840 -0.587575 
-0.851764 2.833739 0.526029 0.906905 -0.265984 -0.276015 
0.124063 -0.457537 0.341622 0.065242 -0.317593 0.943619 
-0.955632 0.584721 -0.428355 0.676205 0.249626 -0.617165 
-0.204350 0.675817 -0.039671 -0.552691 0.169701 -0.778234 
1.378167 2.654672 1.039273 -0.912186 0.285059 -0.236332 
0.533400 1.051344 0.724519 -0.920277 0.040597 -0.302026 
-0.563775 3.204172 0.599871 -0.764659 0.512645 0.375511 
0.695858 1.639113 1.135124 0.846360 -0.400573 0.291115 
-0.934903 2.657831 -0.027153 0.984518 -0.160278 0.021516 
1.372056 3.188478 1.255265 0.928796 -0.157431 0.331029 
0.040897 0.488804 0.585889 0.103731 0.029470 0.985262 
0.155648 -0.118927 -0.070283 0.528134 -0.043212 -0.842623 
-0.683362 2.994059 0.728184 0.766021 -0.434994 -0.469780 
0.399773 0.126205 0.398159 0.678332 -0.238361 0.694676 
-0.952556 2.295286 0.461410 0.962667 0.040151 -0.215585 
-0.598912 1.148147 0.524443 -0.940835 -0.131604 0.311259 
0.121003 -1.182753 -0.001098 0.142002 -0.244843 0.878109 
0.013584 -0.837293 0.004691 0.433548 -0.002962 -0.875878 
1.126794 1.286360 0.060908 0.807299 -0.291059 0.480472 
1.105243 1.502954 0.318291 0.822474 -0.404965 0.385054 
1.242249 2.756349 1.437456 0.919863 -0.236558 0.310504 
-0.940378 2.587881 -0.067825 -0.972451 0.196914 -0.037465 
0.138946 1.038935 0.125565 0.533484 0.419636 -0.713617 
-0.525401 -0.020419 -0.001911 -0.843986 -0.187028 0.494778 
-0.077433 0.153719 0.552963 -0.193369 -0.215678 0.946530 
0.650793 0.136862 0.027376 0.763237 -0.236369 0.598955 
-0.824124 0.065334 -0.334233 -0.699776 -0.148488 0.647454 
-1.071898 1.219816 -0.423415 0.827510 0.298566 -0.463392 
1.320996 2.086033 0.561499 0.904951 -0.157335 0.339769 
-1.153921 1.532937 -0.206867 0.920510 0.174876 -0.330638 
-0.313272 -0.170561 0.086398 -0.234322 0.075660 -0.954605 
-0.724447 0.237663 -0.205420 0.635538 0.213175 -0.674918 
1.291458 2.533788 1.247446 -0.872103 0.270728 -0.391067 
1.157230 1.116321 -0.161002 -0.719822 0.255313 -0.632111 
1.339183 1.482882 -0.251185 0.815913 -0.061589 0.554292 
-1.008076 2.083325 0.237918 0.918987 -0.281767 -0.181020 
-0.122551 0.100853 -0.090525 -0.525504 0.005238 -0.847105 
0.412066 0.581812 0.488473 -0.439897 0.679064 -0.271238 
-0.653874 1.037598 0.216213 0.709767 0.448800 -0.525292 
-0.472408 -0.519958 -0.046928 0.408590 0.118722 -0.843273 
0.796540 0.476737 -0.026442 -0.390401 0.234526 -0.731538 
1.265773 1.369223 -0.200108 0.816325 -0.107043 0.543744 
0.202270 1.099545 0.393117 0.407951 0.356955 0.678216 
-0.742007 2.586691 0.829508 0.755250 -0.119886 -0.638934 
-1.069585 1.962030 0.214020 -0.973440 -0.122215 0.120938 
-0.418132 1.578981 1.018085 0.762084 0.391848 -0.476775 
0.158760 -0.755255 0.195295 0.154328 -0.409541 0.895749 
0.585168 -0.843107 -0.116415 -0.477533 0.082359 -0.873965 
-0.697141 2.390020 0.864790 -0.744639 0.262595 0.600127 
1.099251 1.724875 0.595068 0.667296 -0.673182 0.150159 
1.106843 0.596354 -0.265048 0.655966 -0.138051 0.738940 
-0.188374 -0.167124 -0.047981 -0.552826 -0.049922 -0.828105 
1.383072 2.973921 1.138479 -0.897832 0.141676 -0.381829 
-0.996723 2.063904 -0.466305 0.940891 -0.313700 0.055602 
0.546389 -0.060561 0.056971 0.762495 -0.224098 0.604962 
-0.943737 2.255002 -0.435937 0.969009 -0.234543 0.062209 
-0.466173 1.366975 0.778179 0.764927 0.407556 -0.458995 
1.417133 2.268013 0.520268 -0.862668 0.422468 -0.174832 
0.400459 0.377775 0.089142 0.191531 0.240035 -0.908245 
-0.571700 2.311695 0.967667 -0.771341 0.328738 0.536140 
0.348440 0.557861 0.166280 0.547631 0.428349 -0.648163 
0.123400 -0.308286 -0.065876 0.444530 -0.155454 -0.863495 
0.635958 0.616904 0.061817 -0.221529 0.307848 -0.784302 
-0.936308 2.285889 0.561738 -0.901297 0.093601 0.379921 
-0.687805 0.824475 -0.046803 0.610354 0.307041 -0.603950 
-0.993763 1.169801 -0.255904 -0.878458 -0.236174 0.397988 
-0.863739 1.214349 0.030728 0.803467 0.293257 -0.476934 
-0.625790 0.515962 -0.084450 0.375928 0.215732 -0.718034 
-0.725467 -0.462824 -0.249453 0.545467 0.010983 -0.819098 
-0.868369 2.936430 -0.090103 0.935143 -0.326227 -0.048445 
1.072464 1.958296 1.046818 0.707272 -0.594309 0.360586 
1.390723 3.055214 1.150257 -0.906039 0.139860 -0.370702 
0.167286 1.122253 0.607300 -0.313570 0.036434 0.887632 
0.139638 0.163576 -0.083278 0.486024 0.003457 -0.870109 
0.394206 -0.561484 0.037612 -0.043081 0.094162 -0.921881 
0.670155 0.263736 0.069430 0.766417 -0.274723 0.573644 
1.410650 3.001768 1.073987 0.943344 -0.158963 0.286308 
-0.175667 0.947880 0.098423 -0.605133 0.445488 -0.640576 
-0.510243 1.575298 1.016855 -0.942360 -0.131862 0.307395 
-1.103983 1.779787 -0.416260 0.889915 -0.445388 0.034123 
0.677851 0.653001 0.348247 0.692448 -0.390795 0.530741 
1.090264 2.376553 1.444060 -0.761344 0.416458 -0.479817 
-0.276664 0.953763 0.414175 -0.893119 0.217480 0.329198 
0.705162 1.330232 0.771510 0.883318 -0.283694 0.351784 
-0.331240 -0.597863 0.048738 -0.026546 0.056069 -0.931210 
-0.654287 2.348372 0.902867 -0.753198 0.281496 0.581002 
-0.769341 1.591705 0.628280 -0.945077 -0.111818 0.306110 
0.580600 1.475397 0.994300 -0.487408 0.628207 -0.561973 
-0.113908 0.470636 -0.066954 -0.484218 0.072275 -0.863324 
-0.298370 0.894533 0.363216 -0.904415 0.243010 0.222279 
-0.500794 2.360985 1.060565 0.702869 0.009206 -0.673398 
0.026210 -0.113236 0.465674 0.055062 -0.299838 0.949410 
-1.020152 0.563352 -0.474234 0.694613 0.197296 -0.622365 
-0.825769 2.102735 0.719185 0.798380 0.135667 -0.535154 
1.295333 2.608453 1.275300 0.876558 -0.254534 0.401248 
-0.197569 0.260102 -0.043870 -0.517959 0.002489 -0.853942 
0.112901 0.090879 -0.098463 0.500208 0.001171 -0.861156 
0.904527 1.359148 0.498951 0.857557 -0.317016 0.381689 
0.004464 1.182579 0.513536 0.001962 0.640921 0.762644 
-0.625494 3.193320 0.502753 -0.768980 0.503618 0.372266 
0.169589 -0.854168 0.012782 -0.080871 -0.009550 -0.987737 
0.158047 -0.164115 0.437406 0.223439 -0.279007 0.923690 
-0.970689 2.134572 -0.471466 -0.952743 0.274352 -0.080240 
-0.426856 3.368811 0.575115 -0.738024 0.559902 0.364865 
0.718737 1.588280 1.071899 0.757869 -0.418398 0.348814 
-0.349784 0.077384 0.403894 -0.659445 -0.240947 0.686568 
-0.127899 0.302307 0.583643 -0.255780 -0.102746 0.953817 
-0.588394 -0.515448 -0.166482 -0.688335 -0.107698 0.697050 
-0.012054 0.160387 -0.152615 -0.477825 0.014719 -0.866899 
-0.286362 0.571342 -0.013318 -0.661610 0.076582 -0.732417 
-0.887121 2.389984 0.654156 -0.911192 -0.051387 0.372894 
-0.886629 2.647533 0.577698 0.825072 -0.294795 -0.435727 
0.002500 0.425501 0.593976 0.064286 -0.017283 0.993678 
-0.323462 -0.453593 0.242373 -0.729801 -0.276813 0.619635 
-0.650940 1.790190 0.949815 -0.824188 0.125157 0.509207 
1.453168 2.329884 0.512303 -0.887252 0.375158 -0.193796 
-0.648270 1.643241 0.787847 0.642378 0.351030 -0.601552 
1.400404 2.165007 0.181841 0.913783 -0.265155 0.217921 
0.739811 -0.071798 -0.101137 -0.468147 0.155553 -0.830988 
-0.190278 -0.759429 0.025300 0.088758 -0.014302 -0.987099 
-0.226550 -0.269272 -0.023517 -0.564237 -0.075021 -0.820352 
0.566772 0.674764 0.192810 -0.205320 0.503941 -0.642914 
-0.533775 -0.649714 -0.124094 0.462744 0.088978 -0.854600 
0.111442 -0.623084 0.276262 0.162064 -0.419143 0.889174 
-0.225019 -0.051462 0.448562 -0.464679 -0.266049 0.806727 
-0.531344 0.055311 -0.037255 0.269495 0.161686 -0.787154 
-0.579868 0.222460 0.012141 -0.857656 -0.229087 0.449627 
0.501966 0.976201 0.729502 -0.863190 0.242569 -0.390766 
0.298664 0.744977 0.030700 0.681929 0.558383 -0.465349 
0.393616 -0.358013 0.134818 0.737552 -0.233451 0.630614 
-0.972537 1.298931 -0.023211 -0.887511 -0.196447 0.395186 
-0.748445 0.751146 -0.040164 -0.859516 -0.299327 0.404272 
0.484333 0.327833 0.041034 0.059897 0.175247 -0.909308 
0.756409 1.524432 0.855936 0.878077 -0.356950 0.305892 
0.670636 1.002330 0.567590 0.860381 -0.238651 0.429311 
0.623492 0.779307 0.310985 -0.692145 0.370229 -0.192651 
-1.037640 1.988816 -0.238325 0.903065 -0.400326 -0.022294 
-1.096624 1.346306 -0.322175 0.887933 0.223845 -0.374119 
0.758410 1.766727 1.241230 0.774022 -0.521072 0.306518 
-0.755896 1.850479 0.804542 -0.835797 -0.153337 0.406352 
0.490566 0.573373 0.495681 0.245235 -0.569373 0.772260 
1.234222 1.898665 0.436787 -0.903141 0.240324 -0.346160 
-0.947143 2.627774 0.470679 -0.980934 0.103480 0.150052 
0.126519 -0.657832 0.033134 -0.033782 -0.065081 -0.994933 
1.072137 0.340924 -0.273469 0.582341 -0.109931 0.794953 
0.889521 0.795187 0.071023 0.780514 -0.332926 0.524437 
0.457038 1.356527 1.041449 -0.616792 0.532030 -0.526487 
0.229142 0.671589 -0.034592 0.585134 0.181536 -0.756278 
0.738134 0.865809 0.352359 0.600426 -0.401046 0.619815 
1.329041 2.238250 0.869930 0.871635 -0.419247 0.234430 
0.924315 2.150383 1.428159 0.804434 -0.418977 0.399349 
0.730756 0.006807 -0.067111 -0.504674 0.193406 -0.793272 
-0.800551 1.601589 0.533741 0.749224 0.291696 -0.492370 
-0.303288 3.537752 0.519445 0.676246 -0.602421 -0.404312 
-1.054065 1.637711 0.182687 0.908946 0.139181 -0.364934 
-0.690124 2.542508 0.881771 0.733562 -0.089765 -0.662067 
0.633869 1.504766 0.945898 -0.519467 0.609188 -0.542362 
-0.277919 0.766851 0.465986 -0.580218 0.289412 0.713042 
0.689656 -0.051533 -0.036572 0.694019 -0.207619 0.671982 
0.096154 0.022690 0.512778 0.192380 -0.278604 0.936040 
1.444360 2.715224 0.754270 0.931517 -0.085307 0.329145 
0.200071 -0.469517 0.328340 0.257637 -0.323515 0.903637 
-0.532335 0.511764 -0.034785 0.219158 0.199167 -0.819506 
1.328279 1.926283 -0.074286 -0.932612 0.169040 -0.218941 
1.298903 1.657620 -0.219081 -0.913382 -0.009030 -0.374044 
-0.544930 2.745039 0.996287 0.721171 -0.192289 -0.654811 
-0.589025 0.512989 0.194545 -0.883878 -0.335466 0.318525 
0.847227 -0.051802 -0.187726 0.606715 -0.122863 0.780028 
1.491480 2.382871 0.455193 -0.909663 0.334587 -0.200596 
-1.101008 1.799367 -0.344247 0.884871 -0.454523 0.010226 
0.181732 1.226942 0.518637 -0.300197 0.901015 0.271166 
-0.086646 0.404431 -0.089556 -0.472276 0.069603 -0.875093 
-0.489108 0.967710 0.564850 0.937259 0.084298 -0.319187 
-1.108066 1.783216 0.250419 -0.945647 -0.098663 0.299890 
-0.678759 1.688802 0.845334 -0.941093 -0.129269 0.306480 
0.136617 1.178625 0.566598 -0.385737 0.545928 0.698118 
-0.657241 0.517961 0.025817 -0.863412 -0.283692 0.402652 
0.800985 1.255417 0.567136 0.870943 -0.267925 0.391231 
1.005624 0.451308 -0.209698 -0.531075 0.150251 -0.801820 
-0.750320 1.048904 0.039049 0.740339 0.385135 -0.528238 
0.684684 0.347875 0.095611 0.768107 -0.299460 0.557645 
0.979437 2.163036 1.304217 0.839456 -0.288999 0.455831 
0.962974 2.176354 1.371487 0.824923 -0.354864 0.421800 
-0.637352 0.589235 -0.093278 0.401698 0.224941 -0.713701 
1.362028 2.019998 -0.039243 0.886925 -0.336122 0.116207 
0.143110 0.625610 0.560168 0.111233 0.296617 0.936074 
-0.121915 -0.716499 0.023571 0.049598 -0.053958 -0.994093 
-0.782226 2.009664 0.751854 0.752576 0.204839 -0.538249 
-0.375691 -0.212173 0.070942 -0.088056 0.102372 -0.912204 
0.577925 0.996781 0.666183 0.454644 -0.686755 0.557880 
-0.042178 0.032180 0.522481 -0.130802 -0.287226 0.945010 
-0.227313 0.963090 0.502556 -0.724737 -0.083568 0.668468 
0.267366 -1.206155 -0.022280 -0.415547 0.016625 -0.867464 
1.437181 2.943406 0.985005 0.936562 -0.148382 0.304390 
-0.637913 1.022953 0.354263 -0.940898 -0.149010 0.303008 
0.036193 0.100750 -0.138118 0.471658 -0.001875 -0.870192 
-0.826310 2.900672 0.470459 0.898026 -0.298296 -0.260364 
1.323839 1.594409 -0.190965 0.863674 -0.026904 0.486841 
-1.159055 1.618888 -0.099842 0.931459 0.149045 -0.320628 
-0.591760 2.127234 0.989996 -0.759627 0.269281 0.582545 
-0.476055 0.696316 0.235597 0.185266 0.497969 -0.605024 
-0.438202 1.519675 0.949109 0.716497 0.422303 -0.512401 
-0.227152 -1.092212 0.007017 -0.011818 -0.247755 0.906605 
-0.433227 -0.460968 -0.006197 0.245438 0.109256 -0.872413 
-0.076399 0.730368 -0.055997 -0.351257 0.259084 -0.869383 
-0.496845 3.087085 0.895783 0.611497 -0.480708 -0.615927 
-1.012606 1.515862 0.147191 -0.921859 -0.136077 0.343732 
-0.477721 0.352164 0.333755 -0.768352 -0.286875 0.507316 
-0.032764 -0.009492 -0.127960 -0.445397 -0.059483 -0.872280 
-0.085988 0.575764 0.577510 -0.167369 0.059755 0.977910 
0.330304 0.723199 0.157926 0.834179 0.374404 -0.324070 
-0.638757 2.281928 0.933359 0.724034 0.034913 -0.654393 
0.533918 0.918235 0.643541 0.623987 -0.538647 0.548379 
0.312832 0.679509 -0.008739 0.698496 0.219962 -0.669218 
1.397020 2.630260 0.963020 -0.920961 0.310096 -0.174685 
-1.067386 1.593732 0.127804 -0.926491 -0.126261 0.336572 
0.516158 0.156998 0.047101 0.030596 0.156936 -0.867806 
-0.044085 -0.758689 0.024397 -0.205746 -0.033335 -0.965839 
-0.940985 2.603878 0.054355 -0.976422 0.165372 0.007631 
1.216129 0.849186 -0.300824 -0.574339 0.139651 -0.785299 
1.046558 0.406751 -0.252341 -0.526160 0.121428 -0.820827 
-0.937978 2.618389 0.195806 0.940837 -0.205665 -0.120549 
-0.850252 0.157064 -0.352681 0.614136 0.166694 -0.700130 
0.748765 1.845639 1.292692 -0.560781 0.668152 -0.438962 
0.179904 -0.579832 0.281712 0.263231 -0.386506 0.874683 
-0.471436 3.358038 0.508655 -0.747242 0.560843 0.344650 
0.026838 1.366785 0.324625 0.419159 0.680291 0.541260 
-1.032232 2.025053 0.277354 -0.957969 -0.190918 0.104752 
-0.939987 2.417729 -0.276266 -0.973879 0.211831 -0.065382 
1.260185 1.696441 -0.162359 0.949370 0.002443 0.264732 
-0.380742 0.361829 0.452437 -0.536479 -0.193471 0.802774 
0.110245 -0.452983 -0.029232 0.247636 -0.316932 -0.905129 
-0.953009 2.481579 0.296049 -0.962422 0.138238 0.139167 
-0.026415 -1.088564 0.004171 -0.426975 -0.350365 0.798085 
1.369098 2.247160 0.730372 0.875955 -0.395516 0.249339 
1.464860 2.776258 0.687762 0.944250 -0.086825 0.295645 
-0.542632 1.286974 0.632680 0.609136 0.511716 -0.583081 
-0.260055 1.024618 0.272440 -0.886661 0.407366 -0.179701 
0.350272 -1.326327 -0.075269 -0.288573 0.129095 -0.940569 
0.603486 0.108678 0.073251 0.764828 -0.255461 0.585263 
-1.044893 1.348287 -0.148809 -0.901758 -0.192541 0.363776 
0.959753 1.912393 1.127694 -0.597202 0.576485 -0.502329 
-0.218215 -0.399541 0.338689 -0.350476 -0.298431 0.838421 
0.353525 0.657494 0.143297 0.873775 0.141030 -0.368138 
-1.173329 1.435363 -0.392389 0.912895 0.208094 -0.330108 
-0.638310 -0.588620 -0.190684 0.506641 0.029528 -0.843094 
-0.475890 -0.852434 -0.079890 0.433413 0.051905 -0.893466 
1.304682 2.020194 0.425345 0.913326 -0.097752 0.349223 
-1.042921 2.118510 0.134385 -0.942769 0.270971 0.067209 
-1.107306 1.782134 -0.065750 0.899308 -0.252696 -0.141656 
0.369506 0.707564 0.330898 0.939514 0.294384 0.032761 
1.268505 0.888991 -0.329062 -0.595944 0.134181 -0.778967 
0.323820 0.795420 0.208897 0.876284 0.331668 -0.282880 
-0.748599 1.909815 0.760436 0.761271 0.359932 -0.457556 
-1.144757 1.715219 -0.009914 -0.935475 0.008886 0.229389 
-0.639950 0.770329 -0.008506 0.539374 0.300157 -0.639165 
0.665992 -0.124752 -0.036216 0.686721 -0.200715 0.681490 
-0.811554 1.969188 0.701782 0.778478 0.277760 -0.464502 
1.433566 2.211575 0.073805 0.913030 -0.331102 0.166118 
1.430555 1.285819 -0.380659 -0.639270 0.145964 -0.749658 
0.209931 0.112332 -0.040456 0.486350 -0.026242 -0.869230 
0.636705 1.298239 0.761385 -0.542881 0.613566 -0.540742 
-0.992995 2.217357 -0.022112 -0.841943 0.468795 0.056098 
-0.288938 -0.430812 0.304665 -0.590547 -0.300875 0.712813 
0.075210 0.286069 -0.123182 0.473820 0.041948 -0.878554 
0.147910 0.701413 -0.045951 0.462527 0.225780 -0.814469 
-0.124056 -0.368332 0.367204 -0.095357 -0.274176 0.953347 
-0.949784 2.356243 -0.240292 0.977333 -0.170076 0.038382 
-0.751817 2.352101 0.825369 0.763646 -0.021034 -0.620755 
0.564891 0.458567 0.388181 0.558327 -0.482074 0.632056 
0.791313 -0.087999 -0.158198 -0.435703 0.110071 -0.870643 
-0.362047 0.513021 0.249600 -0.348230 0.463734 -0.771086 
-0.273771 0.066184 0.448175 -0.525272 -0.249648 0.772363 
0.846603 0.816443 0.144487 0.800879 -0.339651 0.487959 
-0.437294 -0.148693 0.023592 0.077995 0.124013 -0.863497 
-0.954741 1.112875 -0.228619 -0.867557 -0.247108 0.418326 
0.347123 0.775969 0.276845 0.931490 0.302330 -0.120983 
0.377086 -0.947151 -0.011917 -0.275974 0.083836 -0.946363 
-0.847925 3.022722 -0.105417 -0.918600 0.381044 0.067689 
-0.016212 1.409369 0.239091 -0.454103 0.751246 -0.406655 
-0.445410 0.591282 0.180724 0.123876 0.391034 -0.714362 
0.527296 0.013168 0.050406 0.010237 0.142196 -0.846578 
0.937883 1.784589 1.000308 0.764151 -0.476852 0.394257 
-0.576471 0.439674 -0.055508 0.286705 0.199701 -0.763213 
-0.791306 0.996873 -0.084275 0.770710 0.347392 -0.522350 
1.414266 2.862974 1.018123 -0.928322 0.195498 -0.286519 
-0.554266 0.680408 0.068506 0.423910 0.293861 -0.694373 
0.524420 1.111722 0.771695 -0.902563 0.007139 -0.279921 
-0.426328 0.324843 0.407806 -0.633766 -0.229218 0.716509 
-0.388290 -0.313838 0.133471 -0.825137 -0.192505 0.521967 
-0.524230 1.135217 0.516027 0.724735 0.424086 -0.486341 
0.038587 -0.607563 0.296698 0.258850 -0.364001 0.876764 
-1.217142 1.534930 -0.358115 -0.944271 -0.162509 0.278707 
0.918893 1.628790 0.695519 -0.692387 0.481333 -0.481922 
-1.131041 1.710716 -0.344917 -0.883010 0.424613 -0.016668 
0.103588 1.217145 0.477556 -0.033707 0.807629 0.536454 
0.642275 -0.194622 -0.035138 0.680331 -0.194251 0.690011 
1.063262 0.610449 -0.207331 0.680993 -0.176327 0.699013 
-0.550323 3.062198 0.852423 0.653371 -0.471525 -0.576242 
1.485285 2.882830 0.665803 -0.959666 0.124529 -0.233533 
0.841021 -0.149585 -0.193343 0.572013 -0.110959 0.805098 
-0.458384 3.453917 0.368003 -0.740469 0.588562 0.316007 
-0.078217 0.434414 0.589255 -0.168361 -0.009159 0.974077 
-0.912290 0.154564 -0.390573 -0.640605 -0.107267 0.693361 
1.426393 2.636489 0.789117 -0.933607 0.257962 -0.175426 
-0.202331 0.009289 0.478032 -0.409860 -0.262368 0.844322 
0.478458 1.239693 0.970102 -0.902042 -0.195625 -0.138638 
0.553530 1.244808 0.830339 -0.493613 0.643458 -0.571342 
-0.457454 -0.037412 0.138572 -0.867812 -0.230580 0.421163 
0.866942 1.616163 0.833798 0.737300 -0.555311 0.204911 
-0.486047 -0.407869 -0.028143 -0.772248 -0.140524 0.598127 
0.177369 0.297549 0.570190 0.314762 -0.105213 0.932954 
-0.700503 2.641045 0.860112 0.737731 -0.147616 -0.649522 
-1.020909 2.170389 0.202842 -0.773483 0.591437 0.137955 
0.456495 -0.544643 0.006546 -0.201540 0.114896 -0.900091 
1.176745 2.221123 1.200906 -0.758641 0.477560 -0.426609 
0.391069 0.509868 0.466472 0.521943 -0.059632 0.835607 
-0.500188 2.271194 1.085915 -0.820923 0.198717 0.522550 
-0.529600 0.558254 0.458793 -0.568597 -0.459867 0.675007 
0.676740 0.847492 0.381796 0.464952 -0.465560 0.728307 
0.354654 -0.671453 0.121580 0.646183 -0.242263 0.715993 
0.220690 0.306477 -0.036236 0.454988 -0.000978 -0.889455 
1.407621 2.744270 0.987417 0.914057 -0.118438 0.368387 
1.325734 1.883262 -0.164168 -0.943558 0.113596 -0.211231 
1.229520 2.280152 1.150630 -0.802258 0.451369 -0.343926 
1.484358 2.327486 0.201539 0.923164 -0.333634 0.164983 
0.553128 -0.273914 0.006555 0.704548 -0.193769 0.669385 
-0.448620 2.280150 1.137359 -0.366959 0.173329 0.888897 
0.235559 0.731874 0.504589 0.424705 0.269933 0.847480 
1.404719 3.361071 1.235208 0.928421 -0.132279 0.346998 
-0.751056 1.430338 0.523278 -0.944375 -0.115020 0.307197 
1.451233 2.300810 0.439951 0.928940 -0.223932 0.251538 
0.368424 -0.160013 0.321807 0.696387 -0.262483 0.666005 
0.985267 0.757377 -0.062737 0.757360 -0.280132 0.583572 
-0.479943 0.038182 0.135204 -0.868529 -0.242093 0.412606 
-0.942555 2.693361 0.389215 -0.985702 0.119201 0.095441 
0.393639 0.626761 0.404011 0.680102 0.325499 0.590670 
0.583803 0.284961 0.028080 -0.066991 0.181016 -0.839451 
-0.489924 2.100723 1.074065 0.677402 0.133548 -0.686348 
1.326909 1.945755 0.000997 0.874585 -0.318811 0.116473 
-1.059747 1.013139 -0.474746 0.764718 0.299507 -0.530413 
-0.175253 -0.666225 0.033847 -0.008988 -0.027224 -0.995276 
0.620434 0.220831 0.026451 -0.110245 0.176939 -0.807832 
-0.561975 2.597215 0.991292 -0.825788 0.202160 0.506231 
0.025982 0.801678 0.551038 0.125869 -0.248252 0.954766 
0.611665 1.648942 1.230406 -0.365835 0.655213 -0.611067 
-0.464736 -0.326023 0.009945 -0.809095 -0.153954 0.549136 
-0.945493 2.565865 0.264139 -0.977677 0.123238 0.100026 
1.410485 2.611114 0.861027 0.910388 -0.082192 0.384760 
-0.180543 1.010161 0.542951 -0.454789 -0.172914 0.809805 
-1.039209 2.041861 0.180921 0.874406 -0.420087 -0.174806 
0.496764 0.697105 0.507547 -0.761956 0.527961 -0.286275 
0.717139 1.261673 0.617559 -0.599730 0.586944 -0.510907 
-0.406654 0.599272 0.378686 -0.120887 0.248113 -0.282330 
0.635763 1.838147 1.449907 0.390372 -0.378929 0.781927 
-0.115418 0.928384 0.564777 -0.220790 -0.167465 0.955669 
-0.665843 0.990522 0.273875 -0.935550 -0.160527 0.309479 
-0.882481 1.630662 0.484881 -0.946366 -0.102711 0.305351 
0.870755 1.040084 0.217218 -0.652512 0.450744 -0.580250 
0.204781 0.844226 0.044741 0.573987 0.459886 -0.667934 
-0.588566 0.655444 0.362848 -0.594575 -0.404743 0.683314 
-0.481884 1.922687 1.084116 0.673896 0.216764 -0.679552 
-0.916254 2.191303 0.616615 -0.847428 0.097197 0.492931 
-0.500668 -0.708561 -0.101290 0.447666 0.091438 -0.865844 
1.019318 1.909656 1.054163 0.717337 -0.572891 0.365432 
0.439659 -0.829296 -0.024677 0.608597 -0.144551 0.777522 
1.214775 0.682858 -0.319321 -0.594292 0.126152 -0.786596 
0.351390 -1.236733 -0.019594 0.615338 0.096020 0.662303 
0.911077 1.431288 0.496152 -0.709909 0.516078 -0.439684 
-0.832229 0.537629 -0.258127 -0.797585 -0.232447 0.529995 
0.317409 -0.998612 -0.011019 -0.262320 0.078828 -0.960627 
0.804588 1.578195 0.869767 0.793569 -0.476346 0.240532 
0.082741 0.655739 -0.070742 0.386721 0.165759 -0.881468 
1.416847 2.691753 0.900841 -0.929669 0.267824 -0.189057 
-0.454672 0.264929 0.339898 -0.790933 -0.273759 0.511603 
0.528127 1.188827 0.793781 -0.681155 0.488408 -0.503515 
-0.296327 3.579271 0.460769 -0.703172 0.611164 0.357367 
-0.819863 1.918185 0.751590 -0.846207 0.125107 0.486485 
-0.551617 1.014850 0.498769 -0.620527 -0.440577 0.629666 
-0.741848 1.320179 0.362593 0.734741 0.392195 -0.481642 
0.230043 1.024986 0.480966 0.787070 0.096634 0.492780 
-0.995713 0.899116 -0.416550 0.748837 0.287210 -0.550404 
-0.738931 1.363458 0.486816 -0.944036 -0.116696 0.307668 
0.824862 1.156346 0.449543 0.854804 -0.256037 0.431182 
0.949533 1.360764 0.433297 0.846081 -0.331819 0.393029 
1.161180 1.186541 -0.151830 -0.756726 0.213507 -0.595548 
0.787671 1.359598 0.673105 0.873214 -0.302827 0.358926 
0.390817 0.637365 0.328017 0.096147 -0.403268 -0.127715 
0.314376 0.385771 0.504594 0.399810 -0.122952 0.898960 
-0.634642 2.666427 0.853949 -0.769863 0.373821 0.510324 
-0.791285 -0.008266 -0.311229 -0.701805 -0.146031 0.650682 
-0.517687 1.062707 0.589354 -0.635275 -0.481854 0.590984 
-0.961520 1.433680 0.151805 -0.916863 -0.147857 0.350796 
0.976063 2.208442 1.436739 -0.678025 0.519675 -0.502343 
-0.983433 2.292012 -0.021613 -0.865641 0.418667 0.040246 
1.214723 1.160811 -0.203687 -0.702954 0.245178 -0.656345 
-0.508740 0.646594 0.111490 0.391186 0.305088 -0.692578 
0.992865 1.651387 0.677482 0.718361 -0.585358 0.215962 
-0.671810 3.196390 0.356143 0.811988 -0.476908 -0.281716 
0.057808 -1.139830 0.002369 0.349171 -0.361098 0.786524 
-0.485153 2.490479 1.089139 0.876970 -0.064475 -0.405586 
-0.733267 0.818193 0.031077 -0.889300 -0.254699 0.361683 
1.212629 1.697031 0.016731 -0.915088 0.126417 -0.293819 
0.172092 1.095468 0.523182 0.812035 0.362273 -0.284122 
0.085126 -0.193134 0.436116 0.106549 -0.293213 0.949165 
-0.963692 0.674629 -0.411372 -0.795104 -0.250054 0.522431 
0.100575 0.830842 0.549803 0.240579 -0.198168 0.944231 
-1.084422 1.706919 0.226906 -0.943956 -0.094190 0.311058 
-0.008458 -0.939071 0.096035 -0.531241 -0.266388 0.788699 
1.070642 1.027516 -0.026528 0.777425 -0.306591 0.542107 
0.678493 0.746022 0.159556 -0.397408 0.468322 -0.662814 
-0.993908 2.215684 0.258380 0.988175 0.056361 -0.086116 
-0.823975 2.839874 0.600373 0.877748 -0.290653 -0.329374 
-0.365415 0.255609 0.063093 -0.082637 0.145110 -0.972647 
-0.574821 0.957337 0.305343 0.930717 0.194713 -0.159858 
1.183793 1.791430 0.419150 -0.873440 0.303198 -0.356543 
-0.517953 0.266459 0.201186 -0.879067 -0.304093 0.348390 
0.519587 1.306221 0.931236 -0.464827 0.653501 -0.584059 
1.026202 0.969774 -0.055171 -0.708732 0.332453 -0.617461 
