-0.467386 0.573565 0.125327 0.246108 0.329486 -0.722888 
0.465990 0.496062 0.141527 0.050337 0.367857 -0.790012 
-0.973973 2.375144 -0.336327 -0.923709 0.334143 0.087237 
-0.489480 1.728458 1.064382 -0.930650 0.243025 0.252772 
0.654988 -0.616678 -0.130490 0.540392 -0.087560 0.831389 
-0.676263 1.686008 0.755006 0.674984 0.257987 -0.626881 
1.642900 2.695258 0.641203 0.878245 -0.301094 0.354800 
0.778991 0.783117 0.082109 -0.502286 0.432114 -0.656646 
1.498504 2.349720 0.751054 0.830642 -0.497504 0.240151 
1.017810 1.460456 0.328368 -0.721580 0.502222 -0.457823 
0.407078 1.383840 1.034346 -0.833223 0.178959 -0.389989 
-0.324720 0.836331 0.246353 -0.905367 0.337440 -0.236439 
0.027001 0.770285 -0.044918 0.403955 0.295203 -0.855783 
0.841636 -0.184287 -0.202328 0.567618 -0.093258 0.809648 
-0.416555 0.043523 0.041778 -0.012153 0.129413 -0.893641 
-0.773299 2.762661 0.437731 0.910386 -0.236885 -0.318901 
-0.671459 0.382134 -0.092774 -0.854489 -0.223830 0.464314 
-0.066236 0.561893 -0.077855 -0.438565 0.114188 -0.874738 
0.061222 0.915661 0.580127 0.209534 -0.083561 0.965761 
-0.400201 0.014686 0.301216 -0.765426 -0.209040 0.600148 
-0.896055 1.959232 0.461224 0.730794 -0.309255 -0.569158 
-0.776302 2.932099 0.129887 0.907315 -0.318936 -0.247877 
-0.719466 2.693219 0.557027 0.840354 -0.239173 -0.452143 
-0.667658 0.903430 0.283626 -0.831229 -0.227376 0.427320 
-0.876632 2.613245 0.083503 0.919378 -0.262928 -0.217096 
-0.912803 2.060593 0.346653 0.918346 -0.024753 -0.362478 
0.217734 0.402651 -0.023955 0.488238 0.029394 -0.865081 
-1.218745 1.536533 -0.310479 -0.921112 -0.192561 0.319545 
0.324574 -0.523458 0.196636 0.684773 -0.278831 0.670410 
1.295378 1.508855 -0.195873 -0.810254 0.217146 -0.526213 
1.402206 1.856166 -0.048351 0.801919 -0.480749 0.210196 
-0.038349 0.955453 0.590982 -0.180753 -0.048579 0.975913 
-0.623183 0.632212 0.200526 -0.912162 -0.261822 0.296460 
1.115981 1.553914 0.248159 -0.760420 0.461804 -0.437802 
1.503165 2.259068 0.590270 0.815103 -0.490934 0.297306 
-0.588493 2.947520 0.611892 -0.740240 0.440718 0.504574 
-1.138181 1.233993 -0.535772 0.837481 0.339404 -0.417154 
1.047902 1.721984 0.751061 0.593946 -0.752408 0.232837 
0.200222 1.484760 1.423913 -0.680558 0.572552 -0.293091 
-0.031004 1.060648 0.109795 -0.303090 0.471783 -0.818579 
0.328259 0.830002 0.247731 0.917771 0.316132 -0.227104 
0.329474 -1.017118 0.032297 0.308651 -0.234188 0.897106 
0.899172 0.698611 0.001854 0.769502 -0.304357 0.557477 
0.018551 -0.744875 0.236323 0.409159 -0.339163 0.841559 
-0.233357 1.008914 0.208870 -0.749915 0.383482 -0.453278 
-0.727145 0.586224 -0.166909 0.572669 0.234750 -0.625539 
0.714931 -0.508439 -0.154511 -0.447439 0.073528 -0.882662 
-0.444991 1.541389 1.018449 0.903333 -0.356993 0.148947 
1.077252 0.714959 -0.217348 -0.616345 0.198976 -0.731300 
0.271132 0.509899 -0.012674 0.608759 0.055025 -0.779777 
0.059555 0.121894 -0.128152 0.504978 0.022369 -0.858750 
0.877179 0.888887 0.144182 0.815422 -0.278851 0.499274 
0.176058 -0.879300 0.021722 -0.097266 -0.023118 -0.985240 
-1.157890 0.992622 -0.624341 -0.795926 -0.304345 0.443835 
-0.875544 0.004926 -0.379636 0.628807 0.091900 -0.698608 
0.003039 1.299863 0.192458 0.579159 0.131138 -0.751637 
0.649998 0.973822 0.415216 -0.562081 0.595216 -0.573370 
0.108819 0.368561 0.596372 0.211349 -0.063746 0.968394 
0.708591 0.551309 0.177641 0.773321 -0.362264 0.516520 
0.819243 1.135812 0.406695 0.840092 -0.246267 0.454432 
0.611479 1.803011 1.379482 0.359355 -0.436964 0.766345 
-0.568971 3.285373 0.127333 -0.778469 0.520348 0.335049 
1.376057 2.824192 1.451097 -0.838226 0.478151 -0.218583 
-1.040101 1.239949 -0.239479 -0.885843 -0.218502 0.390678 
-0.377171 0.050602 0.383639 -0.712990 -0.241384 0.652681 
-0.002644 1.327322 0.365824 -0.222914 0.645117 0.714166 
-0.793849 0.305236 -0.272674 -0.787257 -0.215246 0.537935 
-0.850436 -0.058088 -0.359868 -0.623141 -0.077460 0.702455 
0.059935 -0.423454 0.358157 0.014674 -0.210839 0.974715 
0.488187 -0.803014 -0.050807 -0.349058 0.077185 -0.927766 
-0.418702 -0.493597 0.035780 -0.801656 -0.131780 0.565672 
-0.320526 0.001013 0.067311 -0.222977 0.081117 -0.945557 
-0.545175 -0.475516 -0.101820 -0.724170 -0.116195 0.661900 
-0.545689 1.968009 0.935275 0.575147 0.018569 -0.770498 
-0.868999 1.052382 -0.080190 -0.875348 -0.214865 0.417443 
0.086717 -0.800929 0.182894 0.169554 -0.371424 0.898764 
1.383667 2.599444 1.253523 -0.784691 0.396925 -0.465262 
1.342886 2.376210 1.124649 -0.776671 0.513556 -0.324709 
-1.194097 1.684106 -0.166102 0.919874 0.040468 -0.313530 
0.528262 -0.898778 -0.080868 0.623387 0.014424 0.744676 
-0.690106 2.851355 0.513758 -0.701395 0.496638 0.502553 
1.339253 2.528683 1.290629 -0.773782 0.408312 -0.478149 
-0.754902 1.165150 0.174008 0.745339 0.363179 -0.513665 
-1.091470 1.609941 0.047176 -0.916691 -0.083723 0.372684 
0.535509 1.574452 1.070436 -0.413400 0.803206 -0.368860 
0.347724 -0.010021 0.085454 0.254928 0.106573 -0.953666 
1.316672 1.471110 -0.266962 0.833331 -0.156863 0.525447 
0.586797 1.587675 1.124636 0.848706 -0.421659 0.260650 
1.224730 1.087999 -0.234620 0.740777 -0.222625 0.624160 
0.147529 1.223065 0.454372 0.264128 0.842905 0.245625 
-1.218262 1.655140 -0.225887 -0.929055 -0.077003 0.291930 
1.480531 2.778309 1.191211 -0.803057 0.362519 -0.451343 
-0.572834 1.806846 0.950555 -0.901168 0.256325 0.309045 
0.487810 1.190058 0.780386 -0.840739 0.168655 -0.409348 
-0.398220 0.339406 0.440332 -0.568169 -0.207612 0.779455 
-1.081041 0.984673 -0.542523 0.778028 0.331159 -0.474958 
0.763000 1.808976 1.159856 -0.569986 0.636629 -0.500330 
-0.320786 -0.454003 0.254787 -0.726661 -0.273915 0.625654 
0.341244 0.173975 0.039052 0.306131 0.070851 -0.924037 
-0.575231 3.240662 0.196506 -0.751812 0.537546 0.370119 
-0.459910 1.246108 0.806565 -0.462287 -0.474664 0.588958 
-0.508764 2.403397 0.863004 -0.753166 0.410525 0.512852 
-0.479893 0.011883 0.122931 -0.864637 -0.234645 0.426524 
-0.759866 0.810254 -0.178954 0.640381 0.269929 -0.600804 
0.020818 -0.219158 -0.108215 0.355139 -0.186823 -0.896641 
-0.613429 1.171484 0.526895 -0.948910 -0.101995 0.297657 
0.290126 0.917166 0.251133 0.870597 0.354697 -0.244445 
1.450274 1.282623 -0.432952 0.680579 -0.121671 0.721433 
0.485384 -0.055737 0.146016 0.766165 -0.263633 0.576303 
-0.319638 0.703354 0.054172 -0.731622 0.304465 -0.552066 
-0.898788 1.322276 0.135002 -0.910892 -0.124254 0.372124 
0.455537 1.315150 0.918126 -0.717577 0.423894 -0.517231 
1.230150 1.467728 -0.061143 0.810340 -0.274243 0.485389 
-0.435602 1.982029 1.043061 0.707760 0.077172 -0.675764 
-0.527383 2.583384 0.790492 -0.751734 0.413788 0.512144 
0.769792 1.207227 0.528054 0.854078 -0.248779 0.423815 
-1.173391 1.184789 -0.626650 0.812044 0.362326 -0.427147 
0.511918 0.448659 0.050157 -0.021213 0.218203 -0.889562 
0.951281 1.908768 1.101517 -0.528783 0.602950 -0.550160 
-0.197436 0.181415 -0.040473 -0.541313 -0.007131 -0.838460 
-0.202017 0.891616 0.521620 -0.532157 -0.030709 0.812226 
1.366711 2.454543 1.166950 -0.791729 0.467963 -0.362761 
0.740069 1.603196 0.991520 0.765838 -0.400008 0.427855 
0.738882 1.924888 1.407921 0.571731 -0.529557 0.599432 
-0.826958 1.218106 0.169003 -0.911561 -0.140343 0.365177 
1.442304 2.351455 0.892530 0.823102 -0.518935 0.220308 
-0.622005 0.247790 -0.064634 -0.854748 -0.209332 0.471323 
-0.966495 2.370825 -0.145125 -0.855466 0.428881 0.129283 
-0.663152 3.112392 0.155453 -0.761210 0.518548 0.358073 
-0.732244 0.818875 -0.110431 0.658735 0.300117 -0.581646 
-0.572896 2.376848 0.829404 0.740455 -0.102826 -0.639503 
-0.351126 -0.016905 0.382551 -0.682129 -0.249510 0.669838 
1.146356 0.892400 -0.212860 0.727176 -0.214463 0.639918 
0.329240 -0.076645 0.069069 0.308172 0.068693 -0.930425 
1.305303 1.870892 0.417521 0.801068 -0.494297 0.280832 
1.029635 1.623767 0.468373 -0.716334 0.505928 -0.459698 
-0.339608 -0.742612 0.116987 -0.650534 -0.220331 0.715290 
0.894755 1.397858 0.439890 -0.668896 0.544665 -0.483069 
0.645269 1.072647 0.604503 0.882205 -0.162848 0.434312 
0.098369 -0.333720 0.382321 0.076021 -0.288712 0.950101 
-0.490660 2.789119 0.800487 0.740551 -0.302938 -0.588537 
1.505025 2.155267 0.290990 -0.769843 0.571967 -0.222652 
-0.818084 2.767293 0.354501 -0.847266 0.362220 0.337487 
-1.260169 1.346393 -0.702407 -0.855807 -0.373972 0.355857 
1.416096 2.845777 1.396337 0.842218 -0.416411 0.338507 
-1.030232 2.105170 -0.145364 0.858709 -0.453519 -0.186010 
0.220178 -0.361433 0.350865 0.366237 -0.283906 0.830679 
-0.575346 1.222904 0.655734 -0.850272 -0.244303 0.411642 
-0.244161 3.534531 0.402105 0.703940 -0.546096 -0.441502 
-1.019646 1.801654 0.322655 -0.928853 -0.063163 0.353675 
1.328984 2.037948 0.643795 0.806483 -0.389588 0.380132 
0.433032 1.271100 1.007226 0.029168 -0.708947 0.538069 
-1.085273 1.150342 -0.513389 0.820858 0.344840 -0.445121 
-0.571505 3.047526 0.496103 0.773155 -0.433917 -0.442533 
-0.787352 -0.306835 -0.302986 0.581096 0.021170 -0.771205 
1.477655 2.705243 1.147544 0.826467 -0.400341 0.387251 
-0.801367 0.895284 -0.163261 0.770402 0.312654 -0.524446 
0.374492 1.458587 1.119567 -0.821563 0.290953 -0.455038 
-1.129540 1.887325 -0.158023 -0.955543 0.141752 0.132670 
-0.833919 2.518806 0.422851 0.855754 -0.270756 -0.385616 
0.579073 -0.017429 0.041053 0.765199 -0.218829 0.603981 
-0.036380 -0.685839 0.047546 -0.224755 -0.074146 -0.964144 
-0.084430 -0.388212 -0.063962 -0.370436 -0.231512 -0.882217 
-0.368354 0.358278 0.094643 -0.082679 0.204936 -0.940436 
-0.296989 1.620790 1.261315 0.768489 -0.419341 -0.470686 
1.139552 0.494231 -0.317414 -0.566729 0.104994 -0.803792 
-0.574597 0.886217 0.393241 -0.717193 -0.283544 0.597309 
0.162445 0.761974 0.522022 0.257538 0.044886 0.935632 
-0.114162 0.649772 -0.057358 -0.440089 0.151164 -0.853764 
1.143575 1.826583 0.707151 0.760156 -0.408416 0.474890 
0.023396 -1.229200 0.033410 0.564939 -0.608968 0.541794 
-0.253465 -0.485690 0.300434 -0.472774 -0.302837 0.794558 
0.465701 -0.142774 0.124950 0.765342 -0.240837 0.589531 
-0.746467 0.749215 -0.024508 -0.874038 -0.282610 0.382219 
1.131261 0.778566 -0.237790 0.704585 -0.185574 0.672302 
0.650316 0.822200 0.345128 -0.898451 0.282974 -0.263425 
-0.983547 1.110793 -0.255036 -0.872113 -0.242484 0.412893 
-0.508223 1.049749 0.602936 -0.687339 -0.417458 0.567799 
-0.177131 0.516957 -0.037504 -0.547831 0.051559 -0.811742 
-0.557886 3.177593 0.335905 0.785052 -0.462400 -0.386142 
-0.495262 1.714101 0.992175 0.652861 0.396292 -0.617688 
0.573997 0.496183 0.023486 -0.095018 0.218818 -0.865207 
0.247365 -0.840048 0.132382 0.220657 -0.344697 0.895904 
-0.722667 2.260488 0.689513 0.750922 -0.108476 -0.615929 
-0.819180 2.704646 0.391035 0.742196 -0.482383 -0.448271 
1.231088 1.311555 -0.213035 -0.783449 0.221636 -0.568709 
0.556851 -0.558597 -0.049391 0.633311 -0.146944 0.750104 
-0.830169 2.188445 0.544256 0.872445 -0.007413 -0.456835 
0.652903 1.864903 1.402218 0.317363 -0.420359 0.815037 
0.107897 0.685812 0.541907 0.086598 0.137927 0.975787 
-0.846979 2.783824 0.026821 -0.948213 0.257040 0.152848 
-1.087936 1.975931 -0.160287 0.863821 -0.447515 -0.186606 
1.481988 2.165916 0.418095 -0.756473 0.583503 -0.221091 
-0.395043 -0.689624 0.047913 -0.719097 -0.151118 0.663734 
1.577102 2.962538 1.149875 0.858529 -0.376684 0.344835 
0.656104 -0.545056 -0.126520 0.569877 -0.099519 0.810258 
1.055965 1.526600 0.329024 -0.738656 0.503372 -0.436658 
0.541631 -0.121145 0.018830 -0.117098 0.134823 -0.852930 
-0.643461 1.064001 0.268096 0.689961 0.460406 -0.542445 
-0.902045 1.695649 0.462100 -0.939412 -0.040738 0.337423 
1.015360 2.023363 1.174823 0.687335 -0.441433 0.563237 
-0.325512 -0.385319 0.303298 -0.724461 -0.281373 0.628613 
-0.935976 2.133445 0.379458 -0.771190 0.437223 0.397912 
0.712680 1.815252 1.241332 -0.494495 0.733575 -0.426638 
-0.393394 2.080316 1.092407 0.950947 -0.048769 -0.157902 
-0.677201 1.496275 0.599954 0.687868 0.333504 -0.577325 
0.148290 1.135009 0.496636 0.943324 -0.005355 -0.130642 
-0.155435 1.128266 0.510719 -0.910340 0.080882 -0.196401 
-0.020917 -0.677261 0.281046 -0.393691 -0.368892 0.838530 
1.001687 1.767874 0.791462 -0.496444 0.830510 -0.172175 
0.219500 0.692103 0.527250 0.351651 0.293013 0.861154 
-0.249932 -0.316953 -0.002913 -0.541422 -0.077106 -0.823755 
1.193913 1.595453 0.097469 -0.792768 0.383564 -0.438154 
-0.199453 -0.824028 0.027431 0.147215 -0.022550 -0.980353 
-0.542408 0.648895 0.082930 0.416171 0.301523 -0.695960 
-0.896478 1.497283 0.316500 -0.939097 -0.058730 0.333978 
-0.884413 0.212841 -0.401259 -0.721754 -0.182196 0.586726 
-1.168798 1.855597 -0.491691 -0.934339 0.343569 0.088558 
0.072344 -1.004766 0.049523 0.171099 -0.291754 0.921988 
0.536383 1.182696 0.862124 0.413570 -0.568636 0.557322 
0.497190 0.375798 0.034448 0.026673 0.177968 -0.911606 
0.425043 -0.187699 0.163360 0.742093 -0.209718 0.633584 
0.248198 1.056383 0.369610 0.900544 0.392416 0.056420 
-0.559626 0.991869 0.341596 0.887201 0.248719 -0.310808 
0.608676 1.528060 1.020096 0.799594 -0.448683 0.242548 
-0.999616 1.984000 0.290322 -0.935758 -0.143075 0.279461 
0.344445 -0.939929 0.050759 0.475305 -0.221199 0.842676 
0.750734 0.224361 -0.051799 -0.423151 0.202571 -0.766037 
-0.400551 2.517837 0.995418 0.888477 -0.156033 -0.373592 
0.958676 1.372195 0.338093 -0.695607 0.505247 -0.486103 
1.061845 1.709409 0.635284 0.524068 -0.810220 0.120672 
0.636350 1.640367 1.098289 -0.338534 0.720307 -0.534040 
0.385305 -0.897373 0.003663 -0.258647 0.077415 -0.943785 
0.065890 0.787070 0.548202 0.145070 -0.169665 0.961593 
0.533942 0.896509 0.594772 0.639346 -0.488354 0.578986 
0.982840 0.879155 -0.011097 0.788155 -0.292408 0.538096 
0.660420 -0.056189 -0.038527 -0.384869 0.171596 -0.810133 
0.980562 0.375858 -0.207486 0.672216 -0.157735 0.712425 
-0.585688 0.705111 0.059992 0.499560 0.316901 -0.651159 
0.508561 1.249058 0.826222 -0.466504 0.629769 -0.613051 
-0.087692 -0.632187 0.039912 -0.019023 -0.106749 -0.984972 
1.162787 0.736638 -0.292138 0.678138 -0.146591 0.712603 
0.644556 1.708510 1.182221 -0.392932 0.656930 -0.595676 
-0.790354 1.957951 0.666201 -0.814140 0.335936 0.452320 
-0.143119 0.441081 -0.049964 -0.502353 0.061308 -0.853953 
1.405024 2.306831 0.942969 0.812448 -0.541117 0.214877 
-1.043951 2.102103 -0.221021 -0.965421 0.133191 0.091971 
0.535736 1.508037 1.102024 0.821440 -0.396482 0.269879 
0.896877 0.373766 -0.132553 -0.576511 0.205730 -0.748850 
0.483115 1.661723 1.343615 0.265893 -0.398372 0.837457 
-0.864382 2.026318 0.488555 0.889008 0.077989 -0.421335 
-0.843993 0.343829 -0.353388 0.657177 0.241199 -0.620151 
-0.499204 0.258739 0.245726 -0.855916 -0.308476 0.386545 
1.575598 2.288012 0.422429 0.849214 -0.410124 0.304988 
1.384190 2.025974 0.444068 0.858531 -0.226139 0.421288 
-0.672014 0.749987 0.144446 -0.921373 -0.226635 0.302104 
0.237633 -0.128111 0.423998 0.478496 -0.274797 0.796069 
0.624275 -0.239720 -0.042566 -0.420495 0.158270 -0.831343 
-0.279869 -0.491518 0.013451 -0.333148 -0.038078 -0.858197 
-1.042511 0.983962 -0.471951 -0.837840 -0.309182 0.426523 
-0.965160 1.591747 0.277645 -0.936877 -0.046639 0.342836 
-0.143208 -1.099880 0.007079 0.017179 -0.027006 -0.996936 
-1.042366 0.916843 -0.503923 0.767996 0.319357 -0.492159 
0.543154 0.251056 0.235871 0.769249 -0.351474 0.525102 
-0.948237 0.965930 -0.329697 -0.847989 -0.285560 0.439322 
-0.697756 0.584362 -0.014792 -0.862314 -0.289879 0.404018 
-0.397929 1.670109 1.111023 0.811646 -0.218641 -0.486708 
-0.334720 3.234543 0.653917 -0.762039 0.488664 0.421619 
0.517519 0.403466 0.340427 0.665985 -0.315386 0.626767 
-0.796724 0.570999 -0.204295 -0.820851 -0.230272 0.502428 
-0.305377 3.355654 0.538234 0.665726 -0.524485 -0.510970 
-0.318807 -0.509420 0.203318 -0.730162 -0.263010 0.622004 
0.348283 0.075415 0.059529 0.267914 0.094077 -0.939520 
-0.169100 -0.353603 0.370816 -0.207022 -0.280956 0.911192 
0.334595 0.383305 0.026945 0.407387 0.076404 -0.876196 
-0.915626 1.016602 -0.265017 0.821915 0.277649 -0.489165 
-0.970623 1.254022 -0.117701 0.851675 0.198571 -0.461335 
-0.625788 1.337935 0.636337 -0.948805 -0.086656 0.301524 
-0.749756 0.208116 -0.253103 0.640530 0.214757 -0.656840 
1.193991 1.880940 0.687629 0.777131 -0.388198 0.449170 
-0.879613 2.344835 0.373096 0.941845 -0.100716 -0.292894 
-0.163331 1.066987 0.472162 -0.671214 0.567347 0.034964 
-0.609329 -0.764670 -0.167723 -0.585815 0.072998 0.788087 
1.041496 0.975257 -0.067887 -0.713980 0.325455 -0.611646 
1.222330 2.419486 1.350630 -0.731308 0.476009 -0.476288 
-1.056293 0.852619 -0.530092 -0.819937 -0.305922 0.441135 
-0.726019 3.026582 0.111475 0.880805 -0.365262 -0.262497 
-0.004034 0.347338 -0.148674 -0.484585 0.085021 -0.869119 
-0.966066 0.445666 -0.467865 -0.743901 -0.218668 0.544061 
0.111596 0.888262 0.034992 0.532372 0.399809 -0.723306 
-1.061245 1.997465 0.008924 0.838882 -0.453924 -0.237640 
1.303477 2.638057 1.451174 0.834801 -0.443409 0.324297 
0.266276 -0.339726 0.024699 0.483222 -0.054431 -0.857687 
1.352412 2.255039 0.958211 -0.746549 0.307898 -0.561118 
-0.529798 3.175489 0.407404 -0.759800 0.480197 0.427507 
-0.799196 3.025169 -0.195006 -0.902361 0.387044 0.174160 
-0.551054 1.262248 0.601006 0.629839 0.479612 -0.592408 
0.272436 -0.487215 0.003019 0.389419 -0.062887 -0.853323 
-0.661781 1.648738 0.819511 -0.948135 -0.057343 0.310171 
-0.842450 2.773357 0.099374 -0.951832 0.238786 0.162083 
-0.509957 0.572938 0.059194 0.299273 0.259603 -0.765828 
-0.040974 0.738020 -0.056712 -0.301726 0.281887 -0.892737 
-0.275657 -0.920916 0.021401 0.205458 0.029828 -0.970500 
-0.612949 3.100537 0.323911 0.822876 -0.410070 -0.351336 
0.191265 1.170895 0.349531 0.809155 0.552024 -0.069150 
-0.402677 3.247682 0.516340 0.671512 -0.513532 -0.508395 
0.961012 0.741873 -0.057614 0.769098 -0.282115 0.571412 
-0.382142 0.164003 0.409072 -0.695465 -0.228605 0.668394 
0.736007 1.713766 1.111868 0.780461 -0.510347 0.282463 
-0.800981 2.918406 0.064390 0.817206 -0.455445 -0.310387 
-0.700916 1.186180 0.381259 -0.936574 -0.112714 0.320910 
0.122166 -0.852213 0.142728 0.099868 -0.365878 0.918459 
0.094048 0.159967 0.553342 0.201912 -0.214817 0.946778 
0.058093 0.312703 -0.124972 0.475718 0.056595 -0.876152 
-0.980874 1.347877 0.001632 -0.895362 -0.140467 0.399931 
0.664818 0.704078 0.139835 -0.377390 0.444389 -0.692645 
-0.697150 -0.615474 -0.225376 -0.519769 0.052916 0.850274 
-0.785400 1.348520 0.381543 -0.942079 -0.079047 0.320615 
1.136134 2.444620 1.484153 -0.736920 0.531669 -0.404508 
0.287338 0.849266 0.430720 0.815411 0.201610 0.482730 
0.504041 0.270763 0.311150 0.736544 -0.328509 0.575892 
0.109021 -0.136386 -0.084645 0.486673 -0.075385 -0.854831 
1.423606 2.589880 1.170468 0.805182 -0.403188 0.426422 
1.232361 1.662340 0.094014 0.808461 -0.435139 0.303384 
-0.907621 2.633967 -0.164752 -0.962098 0.253158 0.095205 
-0.072677 -0.717497 0.240349 -0.242376 -0.392939 0.876648 
1.591874 2.284953 0.341102 0.844838 -0.441420 0.282319 
-0.321662 0.512995 0.112328 -0.565693 0.222815 -0.727447 
1.203814 0.787954 -0.327298 -0.575996 0.128356 -0.785013 
1.062801 1.820486 0.792638 -0.550906 0.798464 -0.184490 
0.765878 0.938282 0.336906 0.846628 -0.231137 0.468527 
-0.897181 2.638031 -0.081532 -0.960204 0.241908 0.120735 
-0.798546 1.630869 0.581330 -0.943076 -0.051827 0.325014 
-0.513545 0.039540 0.058471 -0.860578 -0.216069 0.449332 
0.101079 -0.846854 0.016437 0.027784 -0.054354 -0.993013 
0.443502 -0.452427 0.029778 -0.094421 0.100823 -0.902164 
0.388595 0.398900 0.135719 0.260222 0.317593 -0.849455 
-0.180651 -0.628262 0.267062 -0.300034 -0.408642 0.857975 
-0.717611 2.889558 0.398447 -0.690048 0.541888 0.471817 
0.251092 0.527108 0.529280 0.324939 -0.038810 0.932716 
0.715622 1.156875 0.489207 -0.593953 0.567407 -0.555562 
0.427161 1.533375 1.160691 -0.331801 0.857202 -0.364342 
0.725386 1.259928 0.554414 -0.589806 0.577685 -0.542389 
0.559439 1.035962 0.563357 -0.796160 0.298909 -0.499053 
-0.638367 2.004675 0.822587 0.663821 0.012364 -0.691053 
-0.955841 2.231141 0.248332 -0.765703 0.511341 0.269522 
1.551113 2.279902 0.489623 0.841365 -0.421829 0.310307 
0.253576 0.977469 0.468967 0.823693 0.027094 0.497387 
-0.056945 0.329265 0.599008 -0.152991 -0.094953 0.977083 
1.404341 2.765060 1.345157 0.846149 -0.418831 0.326262 
1.217213 0.984923 -0.281563 -0.649396 0.195801 -0.715612 
0.088332 0.642505 -0.063822 0.395091 0.163209 -0.878874 
-0.037418 -0.161319 0.448990 -0.050878 -0.291672 0.951809 
-0.814388 2.627394 0.443756 -0.950106 0.133051 0.259972 
-0.762251 3.029303 -0.017210 0.892200 -0.371928 -0.229459 
-0.168706 0.799843 0.533551 -0.332578 -0.065624 0.912169 
-0.348817 0.776815 0.376992 -0.879578 0.369274 0.252159 
-0.689935 0.971536 0.223760 -0.932017 -0.161317 0.313761 
-0.775772 0.646873 -0.165369 -0.852807 -0.246100 0.457587 
-0.489567 0.333147 -0.010827 0.134938 0.172696 -0.846861 
0.240072 0.839763 0.482596 0.675792 0.087904 0.696149 
-0.490491 2.189338 0.947521 0.712736 -0.016512 -0.670132 
0.833779 0.206931 -0.092998 0.699480 -0.209924 0.665320 
-0.119220 -0.138576 -0.079879 -0.512893 -0.060048 -0.842718 
1.150142 1.549572 0.167105 -0.770087 0.416867 -0.453165 
-0.611478 -0.291056 -0.169197 0.536977 0.152467 -0.763679 
0.512259 0.569299 0.475646 0.251931 -0.514148 0.801583 
0.271858 -0.937550 0.071962 0.163392 -0.315305 0.921280 
-0.232529 -0.553310 0.277677 -0.433322 -0.337601 0.808830 
0.310214 -0.635088 0.007048 0.162435 -0.011108 -0.888910 
-0.675023 1.348549 0.482683 0.695933 0.391625 -0.540498 
-0.054367 0.301756 -0.127758 -0.507401 0.056008 -0.858371 
-0.308077 0.260806 0.032372 -0.396860 0.033601 -0.883171 
0.143160 0.108438 0.535681 0.266783 -0.249280 0.928338 
1.311555 1.867098 0.300199 0.641222 -0.726362 0.076837 
-0.121674 0.721754 -0.041307 -0.417242 0.252565 -0.832278 
-1.029914 1.560413 0.121460 -0.917252 -0.077119 0.374606 
-0.572322 0.958129 0.439190 -0.653748 -0.379901 0.624984 
-0.246829 0.335677 0.537169 -0.406119 -0.122345 0.880556 
-0.194403 -0.048037 0.468608 -0.399471 -0.266471 0.847020 
1.091723 0.972415 -0.119540 0.776585 -0.270178 0.565695 
1.384701 2.538150 1.213585 0.794017 -0.417573 0.436867 
0.035829 0.718844 0.526774 0.049349 0.044868 0.996831 
0.260488 0.742360 0.018812 0.637009 0.529609 -0.521192 
0.618481 0.442203 0.001549 -0.132947 0.198205 -0.844155 
1.455630 2.051998 0.174466 -0.741073 0.621645 -0.189850 
1.316373 1.778527 0.073059 -0.862705 0.324131 -0.373346 
0.248067 -0.541987 0.274835 0.463015 -0.322768 0.799845 
-0.889271 1.173172 -0.052659 0.816042 0.251677 -0.487671 
-0.452623 3.327327 0.322604 0.725436 -0.525831 -0.420530 
-0.540123 1.718089 0.934918 0.610759 0.244483 -0.676593 
-0.656919 -0.311814 -0.225429 -0.723750 -0.144399 0.635781 
-0.371406 -0.072430 0.344008 -0.732587 -0.245360 0.631995 
-1.280944 1.467695 -0.548685 -0.905046 -0.281241 0.309233 
-0.444658 1.471724 0.884043 0.876224 0.235582 -0.346838 
0.938283 2.154423 1.414876 -0.611425 0.619232 -0.470756 
1.224801 1.620388 0.023022 -0.827315 0.366949 -0.391190 
-0.603503 3.153301 0.267842 0.823959 -0.424583 -0.334151 
1.543562 2.213524 0.313060 -0.792272 0.537623 -0.243032 
0.743462 1.120310 0.425748 -0.603479 0.539638 -0.567031 
1.375085 2.050824 0.530686 0.838231 -0.299245 0.399561 
-0.324477 3.461246 0.362630 0.714691 -0.539157 -0.429227 
-0.741619 2.146964 0.687465 -0.835888 0.151387 0.504960 
1.144576 1.337876 0.004885 -0.759610 0.341408 -0.524478 
0.187053 0.909573 0.534272 0.445865 -0.061896 0.853606 
-0.822288 1.810325 0.559426 0.729345 -0.004022 -0.572931 
-0.374810 0.226946 0.062472 -0.065662 0.145553 -0.957193 
-0.604537 1.680459 0.924053 -0.947197 -0.075717 0.305123 
0.937052 0.310486 -0.193665 -0.528221 0.149086 -0.800202 
1.082798 1.615163 0.405773 0.746033 -0.534456 0.349134 
0.393823 -1.170222 -0.026396 0.769158 0.165374 0.597658 
1.126136 0.584896 -0.304809 0.655882 -0.120962 0.743013 
-0.045936 -1.208743 0.028128 -0.479738 -0.524898 0.629270 
0.938196 0.789202 -0.000888 0.774682 -0.307853 0.548703 
-1.207866 1.390344 -0.467776 0.885956 0.279265 -0.355746 
-0.851185 2.682454 0.232580 -0.961046 0.194537 0.181800 
-0.252149 -0.409268 0.329745 -0.468025 -0.292030 0.779965 
0.663792 1.268185 0.717380 0.871358 -0.258983 0.385384 
-0.408802 1.973923 1.113024 -0.428858 0.236500 0.816900 
-0.393758 1.844672 1.143580 -0.236934 0.243397 0.915115 
-0.988964 2.272108 -0.265151 0.961817 -0.194485 -0.112109 
0.236981 1.084608 0.297563 0.872503 0.426177 -0.147944 
-0.809184 2.368133 0.546509 -0.881259 0.112706 0.433992 
0.366203 0.614114 0.207100 0.722215 0.333821 -0.455119 
-0.468071 0.512832 0.074489 0.209402 0.239596 -0.815304 
-0.660331 -0.233295 -0.214202 -0.738760 -0.156084 0.619176 
0.036870 -0.087057 0.479245 0.080584 -0.290796 0.951680 
-0.409778 0.351000 0.037672 0.003500 0.164565 -0.933243 
1.140282 0.960903 -0.179398 0.748179 -0.243432 0.608834 
0.757665 0.336459 -0.040931 -0.361324 0.206130 -0.758125 
0.279604 -0.414755 0.044006 0.405249 -0.026001 -0.879880 
-0.933559 2.527319 -0.203746 -0.935236 0.301784 0.098812 
0.101726 0.813962 -0.001660 0.478441 0.375926 -0.771118 
0.705695 1.471892 0.739987 -0.550268 0.595024 -0.542022 
0.003330 0.124510 0.553605 0.087142 -0.248143 0.960820 
0.869012 1.391672 0.521798 0.828736 -0.353916 0.394613 
-0.530555 0.267959 0.178279 -0.871583 -0.302332 0.368112 
-0.546251 2.935054 0.668135 0.745289 -0.406985 -0.521910 
1.015986 0.311554 -0.263572 0.632100 -0.114461 0.761370 
-0.573412 0.576426 0.396664 -0.581433 -0.419062 0.688598 
-0.571576 0.133523 -0.019791 -0.856397 -0.204685 0.468642 
1.343649 2.123055 0.780690 0.770430 -0.550691 0.314389 
1.108156 1.594249 0.332952 0.777114 -0.491165 0.390211 
-0.484023 -0.639862 -0.068396 0.470880 0.103765 -0.842494 
-1.082451 2.046474 -0.456858 0.922423 -0.356332 -0.109457 
1.121525 2.229524 1.292248 -0.646480 0.569856 -0.501543 
1.469518 2.849821 1.281315 0.850091 -0.402999 0.334944 
1.546205 2.111208 -0.013431 -0.793725 0.556296 -0.219598 
-0.421551 -0.335044 0.019596 0.129182 0.102458 -0.879003 
-0.477714 0.078684 0.003291 0.092877 0.141367 -0.832580 
0.470208 1.464509 1.123307 0.899688 -0.317983 0.292262 
-0.191256 -0.898255 0.018092 0.120317 -0.013114 -0.982873 
1.301043 2.053401 0.707874 -0.724940 0.624540 -0.258748 
-0.980507 1.739485 0.367604 -0.936623 -0.032797 0.346752 
1.155745 1.770480 0.535017 0.557974 -0.801674 0.086579 
-0.401111 -0.211587 0.156546 -0.824643 -0.179110 0.527900 
0.572936 0.413227 0.292248 0.751877 -0.398148 0.513489 
-0.374525 -0.776319 0.062121 -0.666657 -0.172904 0.713896 
0.308509 0.447484 0.015024 0.555060 0.062269 -0.800548 
-0.720776 1.585574 0.606496 0.707379 0.279761 -0.574298 
1.285821 0.927725 -0.367995 0.667666 -0.121156 0.732656 
1.099080 1.813618 0.624840 -0.641279 0.707412 -0.280042 
0.015152 0.409866 0.597574 0.081557 -0.040119 0.990528 
-0.928789 2.519912 -0.128123 0.967380 -0.194350 -0.120043 
0.956004 1.806802 0.937584 -0.536260 0.724625 -0.360814 
0.051839 1.096669 0.570333 -0.105529 0.271486 0.923865 
-0.727911 1.463261 0.495788 0.719214 0.323947 -0.538458 
0.795474 0.551715 -0.047090 -0.366985 0.229442 -0.747214 
-0.071103 1.321495 0.347508 -0.587895 0.690157 0.398983 
0.245248 -1.026531 0.037031 0.093602 -0.270401 0.954107 
1.331822 2.630452 1.383003 -0.746850 0.365904 -0.545976 
0.846819 1.995830 1.317279 0.769827 -0.444820 0.444146 
-0.319986 -0.730750 -0.001094 0.091727 -0.027661 -0.890884 
0.512378 1.389651 0.927513 -0.449989 0.637166 -0.607334 
-1.091932 1.437441 -0.139883 -0.904181 -0.161139 0.371003 
-0.659481 3.048219 0.295897 -0.710658 0.551714 0.426480 
-0.603963 2.522149 0.748207 -0.725811 0.364549 0.572990 
0.172705 0.809889 0.026543 0.540940 0.424647 -0.698160 
0.949972 1.558424 0.489890 -0.679296 0.540744 -0.460047 
1.434684 2.398319 0.952182 0.811884 -0.252833 0.520356 
0.337306 0.376513 0.492995 0.423719 -0.139942 0.883011 
0.183147 -0.798813 0.032078 -0.127374 -0.034935 -0.982998 
-0.586374 0.819329 0.192409 0.719135 0.326826 -0.229622 
-0.677253 1.844255 0.838362 -0.780066 0.350626 0.510803 
0.912652 1.019894 0.190721 0.812451 -0.252037 0.507215 
1.136920 2.212466 1.220898 0.737570 -0.433739 0.504766 
0.667162 0.589170 0.291625 0.772401 -0.345089 0.492632 
-0.513693 3.277798 0.288332 0.762222 -0.508924 -0.390937 
-1.172246 1.807069 -0.278555 -0.942937 0.229382 0.129628 
-0.170845 -0.821132 0.157595 -0.151595 -0.374336 0.910423 
-0.277633 3.215144 0.762985 -0.414721 0.503882 0.729875 
-0.939822 0.508631 -0.449718 0.681173 0.270186 -0.578108 
-0.157952 0.954179 0.098858 -0.579358 0.451086 -0.656784 
0.321774 0.657612 0.006743 0.693583 0.198719 -0.682371 
-0.618993 0.923657 0.333956 -0.617190 -0.339062 0.694993 
-1.069410 2.043548 -0.289122 0.888676 -0.408298 -0.151844 
-0.105368 1.216548 0.486145 0.048090 0.807453 0.531613 
-0.486099 3.178265 0.472121 0.722494 -0.489542 -0.468234 
0.519217 1.243225 0.948348 0.655076 -0.474149 0.586893 
0.187381 -0.116669 -0.047152 0.530681 -0.054091 -0.841034 
0.711603 0.089556 -0.028573 0.728744 -0.215395 0.637382 
-0.839457 0.141176 -0.367157 0.622012 0.191601 -0.662444 
0.345871 -0.690168 0.044661 -0.002298 0.060511 -0.939147 
0.739966 0.619167 0.173069 0.784193 -0.350893 0.507274 
0.738556 1.341136 0.665922 0.854769 -0.306848 0.381200 
-0.790475 1.266216 0.213590 0.761979 0.327761 -0.497883 
-0.458688 2.151009 1.006640 -0.775315 0.356934 0.512554 
0.524730 0.568535 0.144788 -0.110411 0.403496 -0.746857 
-0.943114 0.650126 -0.424394 0.717819 0.281816 -0.552668 
-0.050643 -0.229501 0.421996 -0.043450 -0.291529 0.951487 
-0.530016 1.471688 0.916315 -0.845244 -0.225055 0.418326 
0.779581 -0.208207 -0.170806 0.609465 -0.112064 0.780421 
-0.331658 3.518118 0.273466 -0.741621 0.548998 0.382162 
0.410258 0.581123 0.297663 0.294993 0.616708 -0.534891 
0.708219 1.484513 0.809252 0.854934 -0.369572 0.336217 
-0.275256 0.986295 0.293268 -0.901962 0.381562 -0.125395 
0.282287 0.149682 0.006348 0.494623 -0.042760 -0.865970 
-0.618709 1.887316 0.851440 0.636412 0.113320 -0.687568 
0.975356 1.721704 0.729174 -0.671708 0.454484 -0.574733 
0.465069 1.075764 0.818598 -0.857293 0.064991 -0.310699 
-0.369511 -0.228179 0.252945 -0.768536 -0.228895 0.587424 
-0.967595 2.343735 -0.030977 -0.805429 0.500929 0.157162 
-0.106286 -0.632530 0.278865 -0.170800 -0.412202 0.890557 
-0.117887 -0.565874 0.019282 -0.046757 -0.206286 -0.965651 
-0.402357 -1.277152 -0.023746 -0.535679 0.008971 0.618476 
-0.567792 0.754386 0.121403 0.591827 0.390054 -0.556031 
-0.360395 3.321639 0.489322 0.679198 -0.521879 -0.492190 
-0.496655 2.092189 0.960463 0.719820 0.025560 -0.663184 
0.717927 0.704710 0.072618 -0.389856 0.380058 -0.711810 
0.734146 0.680388 0.215305 0.804487 -0.344785 0.480503 
-0.773931 2.282687 0.627578 -0.848486 0.102034 0.500339 
0.217698 -0.745673 0.194509 0.261224 -0.379515 0.878666 
-0.805001 1.029788 -0.049760 0.774605 0.329855 -0.516419 
0.289710 -0.383139 0.320189 0.586546 -0.287937 0.714052 
-0.763125 0.967313 0.056286 -0.899096 -0.200974 0.371058 
-0.330262 -0.214091 0.345917 -0.691799 -0.268046 0.656468 
1.201404 1.954447 0.817926 0.735450 -0.543812 0.391098 
-0.776231 0.116146 -0.308701 0.610897 0.212000 -0.669515 
0.226603 1.058055 0.580178 0.565825 0.659861 -0.440211 
1.434398 2.126233 0.512984 0.840455 -0.335925 0.371103 
-0.138218 0.597271 0.578262 -0.081928 0.335827 0.936506 
-0.603053 1.678398 0.853440 0.631199 0.279492 -0.668850 
-1.015897 0.863613 -0.463920 -0.826580 -0.296738 0.444316 
-1.173975 1.464499 -0.306584 0.895514 0.218287 -0.364352 
0.462168 1.255321 0.879562 -0.847592 0.056426 -0.325156 
-0.427815 -0.633620 -0.013096 0.322643 0.089371 -0.879371 
-0.371289 -0.929171 0.022858 -0.577356 -0.168832 0.792684 
0.257684 0.448168 0.535123 0.339219 -0.075066 0.928518 
0.955782 1.651699 0.699103 0.612459 -0.693537 0.180615 
0.985667 2.122556 1.280882 0.781432 -0.421981 0.454378 
0.669604 0.919576 0.326406 -0.601624 0.564723 -0.547631 
-0.166424 1.175725 0.248354 -0.725604 0.522191 -0.365023 
-0.484029 2.301857 0.926490 -0.764642 0.386077 0.510810 
-0.973906 0.804952 -0.433873 0.752395 0.299107 -0.521163 
-0.834455 0.819526 -0.189351 -0.853305 -0.269209 0.443544 
-0.551625 0.402963 -0.050798 0.244504 0.188826 -0.788503 
-0.561590 1.137777 0.483359 0.643773 0.523136 -0.553976 
-1.238835 1.601351 -0.290194 0.916412 0.191971 -0.332800 
0.346649 0.779505 0.301490 0.924284 0.311957 -0.054355 
-0.404330 0.431331 0.455492 -0.497932 -0.197825 0.838624 
-0.519204 -0.309574 -0.044679 -0.782241 -0.143149 0.583447 
1.192426 2.455427 1.424135 -0.705998 0.461559 -0.520853 
-0.454304 2.766454 0.869955 -0.819144 0.248490 0.506107 
-0.879679 1.625303 0.443957 -0.940086 -0.048110 0.333895 
0.145032 1.191998 0.229458 0.667912 0.518724 -0.465640 
-0.989869 2.195603 -0.035937 0.975338 -0.072672 -0.145752 
1.372792 1.961010 0.228945 -0.790420 0.515444 -0.303538 
0.575738 0.360842 0.016041 -0.071572 0.183228 -0.861099 
1.337159 1.898781 0.242549 -0.829687 0.393670 -0.376595 
-0.357405 0.695475 0.201911 -0.897258 0.291064 -0.279671 
-0.519158 1.301616 0.776641 -0.386328 -0.551393 0.601879 
-0.367435 1.645212 1.242298 -0.675361 -0.023366 0.636174 
1.517360 2.133811 0.195424 0.841518 -0.400138 0.302820 
-0.015819 0.541042 0.587153 -0.061717 0.050519 0.992462 
0.513128 1.124591 0.801778 0.237142 -0.693603 0.569265 
1.534456 2.576745 0.855255 0.841957 -0.283871 0.440037 
0.340098 -0.215799 0.343788 0.670368 -0.273659 0.680989 
1.234166 1.948987 0.725375 0.774206 -0.437012 0.406470 
-0.723377 1.899443 0.666519 0.795431 0.120143 -0.524020 
1.391969 2.700746 1.317406 0.839090 -0.421613 0.337951 
-0.439050 -0.043347 0.179948 -0.840943 -0.222780 0.470723 
0.703010 0.889577 0.412244 0.575803 -0.410447 0.657069 
-0.819955 1.738606 0.611760 -0.938441 -0.065087 0.330048 
1.690072 2.841691 0.684837 -0.887577 0.333163 -0.316548 
-0.855458 2.788562 -0.067312 -0.944988 0.277591 0.138773 
0.464710 0.311261 0.377289 0.649077 -0.271481 0.678375 
-0.253837 3.371736 0.605377 0.647153 -0.524832 -0.538674 
-1.079096 2.020123 -0.216737 -0.961797 0.147630 0.098818 
-0.734969 0.299875 -0.182184 -0.794318 -0.200788 0.545202 
0.899875 1.341072 0.390456 -0.671740 0.527357 -0.496255 
1.060795 2.251829 1.395605 0.733877 -0.537231 0.401428 
1.321098 2.410118 1.202512 -0.769027 0.474235 -0.408012 
1.436033 2.206757 0.651353 -0.787345 0.533607 -0.297338 
-0.895639 2.553058 0.036232 0.959525 -0.194681 -0.171694 
-1.270614 1.501851 -0.461377 -0.922566 -0.239048 0.297848 
-1.043001 2.107522 -0.306979 0.891231 -0.403444 -0.145185 
-1.143986 1.892292 -0.359285 -0.945522 0.258014 0.096863 
-0.036934 0.495480 -0.097631 -0.448157 0.115217 -0.883760 
-0.601233 0.546358 0.192523 -0.890033 -0.312687 0.319607 
0.147897 0.961776 0.566493 0.249912 -0.176316 0.937390 
-0.395379 1.753165 1.163377 -0.243407 0.238630 0.912440 
1.291366 1.682421 -0.052790 -0.871355 0.310102 -0.362758 
1.209774 2.228551 1.176552 0.689038 -0.453803 0.551554 
0.143060 -0.759482 0.201190 0.152602 -0.395381 0.901566 
-1.214448 1.474267 -0.379486 0.901053 0.237234 -0.345334 
-0.644637 0.678872 0.293926 -0.802925 -0.278970 0.422057 
-0.794184 1.111982 0.125250 -0.902608 -0.169380 0.374466 
0.391146 -0.466454 0.112654 0.710763 -0.219830 0.659973 
-0.559934 0.792481 0.382752 -0.682175 -0.273866 0.633353 
1.174505 1.040139 -0.194204 0.754143 -0.239163 0.603400 
0.357496 0.242806 0.047354 0.261536 0.101171 -0.940885 
-1.024526 0.562021 -0.511300 0.710872 0.226226 -0.568371 
1.122831 1.956591 0.930309 -0.661013 0.639620 -0.380522 
0.261692 1.468781 1.383423 0.429685 -0.565441 0.562253 
0.598279 1.644594 1.189900 0.844862 -0.459038 0.208311 
0.203796 -0.361066 -0.027070 0.527823 -0.125317 -0.831912 
1.626503 2.855362 0.930148 0.864257 -0.337466 0.362818 
0.462538 -0.544270 0.016856 0.683795 -0.161181 0.699971 
-0.162769 0.120975 -0.062056 -0.538872 -0.004673 -0.839130 
0.748697 1.663729 0.930139 -0.461615 0.829711 -0.266262 
1.098150 1.745698 0.705204 0.646520 -0.696859 0.271824 
1.022172 0.550568 -0.191685 0.697875 -0.187978 0.676833 
-0.057892 1.055017 0.579975 0.055689 0.121388 0.949235 
1.408837 2.524696 1.135336 -0.803079 0.453642 -0.356723 
0.804788 1.714957 0.987860 -0.428491 0.744590 -0.408499 
0.445966 0.430396 0.103366 0.058212 0.274682 -0.868017 
-0.368265 2.826361 0.927747 0.879935 -0.247465 -0.391816 
-0.717417 1.323987 0.398079 0.721947 0.382460 -0.508789 
0.575726 -0.781258 -0.097245 -0.401702 0.068057 -0.908492 
-0.741090 1.803473 0.729753 -0.927785 -0.143680 0.325835 
0.580556 1.418162 0.938328 0.881050 -0.315487 0.327651 
0.092739 -0.248353 0.416893 0.098989 -0.286668 0.950716 
-0.619601 1.529382 0.795666 -0.949433 -0.070071 0.303717 
-0.258307 -0.821185 0.133873 -0.283012 -0.338405 0.870546 
-0.207868 -0.122261 0.438457 -0.421038 -0.270168 0.826180 
-0.194648 1.008101 0.140761 -0.632014 0.407647 -0.653499 
1.190743 1.224900 -0.158346 0.801360 -0.233208 0.538262 
0.503574 1.622611 1.274533 0.794294 -0.375282 0.476602 
-0.183974 0.342441 0.579319 -0.331411 -0.085914 0.928706 
-0.689888 3.186435 -0.086124 -0.850901 0.453824 0.240246 
0.070990 -0.673363 0.042037 0.095303 -0.082817 -0.979060 
-0.444345 2.620762 0.934542 -0.828329 0.217304 0.512320 
-0.943099 2.391349 0.019799 0.973929 -0.107338 -0.150344 
0.001311 0.051237 0.533516 0.081669 -0.292155 0.952561 
-0.742952 1.513131 0.580741 -0.944870 -0.065108 0.317102 
-0.532526 0.830749 0.446090 -0.836505 -0.204477 0.489174 
0.553571 1.276392 0.875183 0.891420 -0.243390 0.360314 
1.348799 2.590902 1.325782 0.813340 -0.432012 0.382168 
-0.729123 1.873134 0.777037 -0.813671 0.244811 0.498479 
-0.723299 0.791786 0.051379 -0.904580 -0.236345 0.337887 
-0.224185 3.439745 0.569337 -0.691332 0.530925 0.475873 
1.628212 3.022637 1.093710 0.862072 -0.364227 0.350604 
0.268439 0.372097 0.534393 0.365609 -0.110744 0.914652 
-0.359664 -1.342693 -0.048209 0.599087 -0.732963 0.145886 
0.036634 1.186669 0.517474 -0.092252 0.657035 0.732111 
-0.342610 3.293882 0.559531 -0.758655 0.502139 0.410634 
1.640613 3.235768 1.270326 0.848847 -0.362525 0.384409 
0.965614 0.952234 0.012607 -0.683772 0.359768 -0.619308 
0.711523 1.604651 0.902298 -0.535737 0.559497 -0.595813 
-0.360347 -0.851355 0.059174 -0.610163 -0.187346 0.759205 
0.976123 0.585275 -0.151128 -0.619298 0.227154 -0.716694 
0.048365 0.391305 -0.114060 0.451750 0.083312 -0.885407 
-0.003331 0.871951 -0.035816 -0.409838 0.372967 -0.832130 
-1.093372 1.678128 0.116554 -0.921796 -0.054367 0.372488 
-0.945100 1.747749 0.429290 -0.937318 -0.037550 0.343124 
-0.404033 -1.080130 -0.029777 0.521671 0.053746 -0.842609 
-0.647532 0.827287 0.077885 0.686023 0.376491 -0.542236 
0.322683 0.492596 0.497270 0.387349 -0.082476 0.904442 
-0.130836 -0.948805 0.006286 0.020632 -0.028883 -0.994453 
0.281616 1.497158 1.321293 -0.678638 0.474212 -0.437876 
-0.637755 -0.088672 -0.162476 0.585012 0.172723 -0.724381 
-1.012188 1.711711 0.294013 -0.935401 -0.033606 0.349835 
-0.651930 0.571643 0.090712 -0.869360 -0.326300 0.362171 
0.828515 1.763435 1.045916 -0.479793 0.685452 -0.488151 
-0.509018 1.113342 0.533948 0.936103 0.068606 -0.284929 
-0.451557 2.546948 0.919712 0.730941 -0.169346 -0.643754 
1.656629 2.787038 0.724760 0.879173 -0.320084 0.341909 
-0.988713 2.301543 -0.354831 0.956530 -0.242022 -0.098966 
-0.933654 1.299059 0.043872 -0.898909 -0.143764 0.391183 
-1.136089 1.918697 -0.431622 0.919420 -0.362793 -0.120128 
0.246023 0.940112 0.174453 0.743042 0.395459 -0.477449 
-0.341095 0.424348 0.490674 -0.443752 -0.159798 0.868658 
1.302016 2.160717 0.913281 -0.736850 0.451967 -0.448069 
0.289037 -0.262668 0.046453 0.416787 -0.006973 -0.887192 
0.981815 1.132454 0.127555 -0.696284 0.411564 -0.562055 
1.444071 2.783324 1.274234 0.850922 -0.408958 0.326102 
-0.297325 -1.146099 -0.008509 0.413167 0.016626 -0.884454 
0.032181 -0.616825 0.302056 0.289412 -0.358654 0.872873 
-1.149795 1.778382 -0.035854 -0.933722 0.099926 0.265942 
-1.119223 1.842770 -0.031483 0.893043 -0.227923 -0.274327 
0.282934 -0.777547 0.139763 0.385199 -0.308772 0.816646 
0.794936 -0.286540 -0.182915 -0.465166 0.082258 -0.868211 
0.631985 0.525802 0.295933 0.756836 -0.366533 0.506421 
-1.101026 1.894763 0.039219 -0.953646 0.028948 0.222412 
0.568360 0.966774 0.615948 0.497254 -0.626049 0.592764 
-0.463775 0.637649 0.529689 -0.536550 -0.414141 0.699435 
0.146966 -1.173791 0.018599 0.063340 -0.113579 0.978812 
-0.364363 0.463499 0.213071 -0.286861 0.413523 -0.808405 
-0.518559 2.891972 0.719760 0.741514 -0.374356 -0.545433 
-0.209391 1.138900 0.307086 -0.853020 0.481930 -0.152822 
-1.050256 1.094678 -0.453187 -0.850394 -0.316597 0.412032 
-0.621104 0.116670 -0.086212 -0.822457 -0.190034 0.517196 
0.010614 -0.850671 0.170005 0.471329 -0.283095 0.826709 
-0.551616 0.442246 0.301603 -0.809857 -0.378617 0.398081 
1.181811 2.124541 1.100842 -0.680434 0.579762 -0.441215 
-1.071639 1.964975 0.084242 -0.965670 -0.013721 0.196022 
-0.532741 1.351952 0.826083 -0.556718 -0.471538 0.569131 
-0.945204 1.490138 0.214733 -0.926348 -0.076627 0.355235 
-0.918857 2.450378 0.061005 0.965665 -0.142965 -0.172067 
1.190771 1.703784 0.317450 0.716109 -0.592205 0.242218 
1.015056 1.387684 0.277067 -0.717996 0.479207 -0.480924 
-0.270375 0.628649 -0.016645 -0.644380 0.127234 -0.732742 
-0.186102 -0.572737 0.036761 0.039882 -0.159059 -0.964521 
0.970873 2.045263 1.225374 0.742622 -0.421133 0.507974 
-0.782055 1.951319 0.590680 0.833435 0.091472 -0.485550 
-0.553637 3.011203 0.590138 0.749140 -0.442314 -0.489739 
0.000246 -0.275384 0.399759 -0.037100 -0.303965 0.950107 
1.550848 2.474794 0.708708 0.849489 -0.447907 0.255062 
-0.047897 -0.756897 0.034677 -0.191476 -0.056711 -0.966594 
1.291381 1.297472 -0.270032 0.782294 -0.181303 0.583573 
0.738035 0.860805 0.353595 0.690846 -0.352785 0.560971 
-0.326747 0.072942 0.062962 -0.204393 0.091600 -0.948394 
0.250109 -0.684115 0.032492 -0.215892 -0.107694 -0.959077 
0.661064 1.453220 0.852127 0.864838 -0.346372 0.334884 
-0.989703 2.222619 -0.119243 0.970431 -0.116749 -0.133557 
0.235277 -0.262695 -0.015954 0.547355 -0.091437 -0.829531 
-1.086465 0.907318 -0.566247 0.756527 0.326013 -0.487892 
-0.859352 2.416131 0.432920 -0.919605 0.174671 0.339720 
-0.763704 1.208538 0.282052 -0.925134 -0.124088 0.341589 
-0.360691 0.627306 0.179295 -0.742162 0.186923 -0.505268 
0.062133 -1.162859 0.024898 0.365614 -0.371223 0.766338 
1.000378 1.851405 0.969315 0.662053 -0.607792 0.414509 
0.146008 0.035992 0.512438 0.255401 -0.266834 0.927567 
-0.428806 1.823275 1.080150 0.702160 0.146617 -0.683605 
-0.268580 1.006577 0.362504 -0.912207 0.355460 0.066601 
-0.978078 2.340390 -0.250775 -0.880727 0.397272 0.109769 
1.358509 2.116326 0.678662 -0.749989 0.588114 -0.272656 
0.531241 -0.042970 0.091374 0.765615 -0.239263 0.591293 
-1.191911 1.761651 -0.331915 0.916053 -0.323065 -0.164124 
1.535781 2.043675 -0.133099 -0.827200 0.489666 -0.249992 
0.381404 0.348298 0.077826 0.224720 0.191252 -0.928719 
-0.451563 0.080292 0.232692 -0.828320 -0.250106 0.471427 
-0.926745 0.583358 -0.402764 -0.803920 -0.261210 0.488802 
0.764604 1.059957 0.352996 -0.609587 0.507560 -0.586079 
1.060933 1.247476 0.112231 -0.730928 0.406482 -0.525190 
-1.072675 0.689236 -0.550082 -0.741787 -0.235200 0.522364 
0.843248 0.639206 -0.063116 -0.435280 0.245715 -0.727870 
-1.041076 1.642256 0.154285 0.886260 0.098279 -0.416923 
0.716502 0.765208 0.142727 -0.465644 0.480130 -0.651664 
0.000129 -0.378709 0.363251 0.090528 -0.199714 0.975543 
-0.286579 0.942278 0.386965 -0.914235 0.282655 0.210466 
0.908670 0.921437 0.059617 -0.657943 0.404739 -0.616263 
-1.225469 1.247831 -0.684190 0.818396 0.375421 -0.409087 
1.288396 2.336344 1.184275 0.725460 -0.431970 0.519702 
0.384624 0.313779 0.451660 0.520671 -0.180742 0.816611 
-0.819826 2.950374 -0.181757 -0.915134 0.357881 0.158596 
-0.223367 0.082369 0.484783 -0.427308 -0.253204 0.835545 
1.627539 2.487131 0.526029 0.861150 -0.415222 0.281725 
1.168195 1.844692 0.546385 -0.674281 0.679405 -0.265105 
0.834382 0.296428 -0.071327 0.722880 -0.227689 0.637178 
-0.450034 2.304541 0.990625 -0.796311 0.301499 0.512699 
-0.203179 3.498683 0.524943 -0.693624 0.539616 0.464847 
1.326736 1.941990 0.433850 0.860575 -0.174204 0.453511 
-0.795207 0.954220 -0.104041 0.775960 0.339037 -0.520117 
-0.785511 1.850158 0.609179 0.694161 -0.080867 -0.605920 
-0.938284 1.897434 0.403984 0.776046 -0.188773 -0.526900 
1.095632 1.714863 0.512098 -0.744201 0.448218 -0.483669 
-0.425568 -0.926451 -0.040788 -0.678242 -0.054769 0.719203 
0.526484 0.100297 0.041084 0.013898 0.143394 -0.860980 
0.161489 -0.727136 0.036618 -0.075383 -0.053280 -0.988214 
0.169039 -0.511714 0.016792 0.035428 -0.292653 -0.924406 
-0.603677 -0.173352 -0.115132 -0.760641 -0.150590 0.605538 
1.411599 2.286174 0.867553 -0.774111 0.303661 -0.517284 
0.126794 0.296733 -0.088805 0.480159 0.029065 -0.875413 
0.969586 0.257775 -0.239049 0.646492 -0.124189 0.749600 
-1.004032 2.168030 -0.165916 0.968280 -0.124178 -0.129618 
-0.102871 1.043197 0.125936 -0.452732 0.433419 -0.750334 
1.473345 2.469450 0.917496 0.823442 -0.265296 0.489178 
1.421829 2.649035 1.219979 0.818789 -0.414043 0.389330 
-0.807008 2.860535 0.161040 0.789931 -0.473393 -0.353339 
0.449299 -0.013166 0.229186 0.735174 -0.250491 0.619678 
-1.133700 1.831938 -0.103106 0.895507 -0.264731 -0.245008 
1.264951 1.991063 0.674985 -0.693053 0.670503 -0.224427 
0.293541 0.768415 0.108249 0.726001 0.446227 -0.457862 
0.402946 -0.750785 0.013116 -0.200490 0.084663 -0.930583 
0.034069 0.194392 0.567852 0.123833 -0.194006 0.964803 
-0.275745 0.142098 0.468342 -0.510233 -0.233516 0.786443 
-0.226267 0.938850 0.129019 -0.680654 0.422158 -0.593823 
0.911957 1.518266 0.552191 0.815992 -0.421629 0.369355 
-1.215213 1.301598 -0.636224 -0.858265 -0.355144 0.364787 
-0.878992 2.553143 0.128368 0.944784 -0.211409 -0.212803 
-0.337582 -0.301870 0.314729 -0.726304 -0.272047 0.629863 
-0.580994 0.651144 0.364578 -0.572156 -0.382522 0.714529 
1.601976 3.173763 1.296906 0.847344 -0.371832 0.377344 
0.527546 0.750195 0.490170 0.550541 -0.446311 0.640006 
0.199630 -0.248854 0.396804 0.333348 -0.278759 0.859569 
-1.037767 1.474949 -0.013619 0.881171 0.134264 -0.427970 
-1.181400 1.706822 -0.084361 -0.930062 -0.039068 0.310916 
0.524826 0.171268 0.037938 0.009725 0.152847 -0.870367 
-0.260592 0.559729 0.527605 -0.387363 -0.022890 0.899102 
-1.105953 1.988154 -0.409609 -0.946536 0.267811 0.085021 
-0.164994 -0.954090 0.072425 -0.091959 -0.330113 0.935189 
0.458601 0.220767 0.355562 0.706728 -0.287393 0.633182 
-0.879858 0.755548 -0.315654 0.758470 0.279454 -0.542580 
0.042992 0.494931 0.589507 0.103907 0.020337 0.985779 
1.143495 1.621924 0.270643 0.786806 -0.478037 0.362758 
0.348486 -1.358857 -0.035974 -0.490898 -0.700835 0.298649 
0.040646 0.503652 -0.094934 0.417573 0.119447 -0.898669 
-0.480133 0.656399 0.383215 0.571101 0.418903 -0.224181 
0.149508 1.039568 0.591098 0.056339 -0.153055 0.941598 
-0.932469 0.711828 -0.375895 -0.818915 -0.269027 0.472354 
-0.539178 1.411191 0.879797 -0.754177 -0.362931 0.524761 
-0.522211 3.359172 0.137841 0.778835 -0.524537 -0.337768 
0.455412 1.364498 0.982079 -0.420562 0.649529 -0.626609 
1.307501 1.727028 0.015834 0.785207 -0.468121 0.208212 
-0.711176 -0.255313 -0.261972 -0.688023 -0.118098 0.662715 
0.418249 0.137748 0.065605 0.147786 0.138426 -0.932559 
-0.011722 0.240593 -0.158719 -0.508130 0.057522 -0.858259 
-0.479122 3.269331 0.359841 -0.766470 0.505834 0.388707 
-0.539433 3.301691 0.195384 -0.754746 0.540692 0.366134 
1.128289 1.271425 0.028969 0.784462 -0.337114 0.494915 
