0.615076 -0.213349 0.635317 0.949278 -0.058927 -0.302427 
0.674605 -0.836888 0.807708 -0.910021 -0.111335 0.312340 
0.626870 0.497089 0.915922 -0.930131 -0.044646 0.311995 
0.832548 0.543508 1.355529 0.951647 -0.256594 -0.160808 
-0.670195 -0.351190 1.201267 0.953086 0.200453 0.068341 
0.120935 -0.516251 -0.156217 0.140190 -0.499899 -0.848940 
0.336421 -0.128273 0.147697 0.453765 -0.164709 0.833240 
0.021359 1.006488 0.411842 0.146078 0.005048 0.983369 
0.712310 0.168765 1.080909 -0.902264 -0.054406 0.342465 
0.358626 -0.058190 0.120929 0.109339 -0.138121 0.916219 
-0.759620 -0.161912 1.522027 -0.926751 -0.330735 -0.140002 
0.549110 0.191780 0.348606 0.928940 -0.101605 -0.328690 
-1.171539 0.311924 3.412365 -0.901981 -0.406925 0.135642 
0.793865 0.629732 1.379527 -0.865743 -0.233546 0.373200 
-1.171842 0.204538 2.925796 0.847118 0.505553 0.046275 
-0.937595 0.743568 1.635063 0.907873 -0.094631 0.314154 
0.299409 -1.050615 0.092203 0.591121 -0.095504 -0.759891 
1.038031 0.643363 2.438566 -0.924460 0.036825 0.050827 
-0.182318 -0.245593 0.208700 -0.299848 -0.150056 0.922896 
-0.520127 0.109337 0.173698 -0.899216 -0.074128 -0.408731 
-0.937636 0.672780 1.689015 0.827418 0.053961 0.457233 
-0.984556 1.230992 1.580749 0.937920 0.307552 0.105174 
-0.932637 0.273410 1.702782 -0.782310 -0.331264 -0.461032 
-0.529455 0.449984 0.104373 -0.914863 0.150057 -0.315079 
-1.238523 0.447489 3.321505 0.931029 0.316395 -0.117985 
0.927615 0.895471 1.630262 0.987419 -0.094046 0.110867 
-0.620558 -0.491305 0.984029 0.965720 0.125370 0.025096 
0.302053 -0.338201 -0.156798 0.568248 -0.252031 -0.754729 
0.731554 -0.037160 1.118100 -0.931668 0.053018 0.278198 
-0.855212 0.545537 1.332411 -0.916187 -0.368345 -0.130454 
-0.005573 0.004865 0.272362 -0.079340 -0.191057 0.977414 
0.541862 0.053026 0.537092 -0.839731 -0.125431 0.451993 
0.089185 0.174146 -0.342364 0.504581 -0.019496 -0.853648 
-0.826810 -0.309990 2.132370 0.658807 0.467480 0.500282 
0.091001 -0.875511 0.058058 -0.042137 -0.253266 0.915730 
-0.678818 0.192071 0.702666 -0.957658 -0.153358 -0.226302 
-0.850229 0.597581 1.261894 -0.920546 -0.360096 -0.120033 
0.589546 -0.988340 0.563973 -0.789655 -0.252140 0.455384 
0.030274 -0.138942 -0.320249 0.382464 -0.211065 -0.869853 
-0.869166 -0.300194 2.190331 -0.871805 -0.468498 -0.113993 
0.785656 -0.121954 3.130177 -0.868572 0.363480 -0.321287 
-0.424779 -1.013150 0.326903 0.621019 -0.098306 0.645833 
0.981888 0.979314 2.000536 -0.798200 0.439217 0.303340 
-0.739085 -0.140972 1.368196 0.941684 0.253460 0.185672 
0.528923 0.547960 0.477106 -0.868976 0.293389 0.349934 
0.194306 -0.227804 0.208085 0.329731 -0.153274 0.907722 
-0.038843 -0.176197 0.239034 -0.099297 -0.152318 0.980343 
-0.019287 0.161238 -0.378380 -0.462076 -0.019631 -0.875334 
-1.267549 0.393047 3.030169 -0.919578 -0.382325 0.043576 
-0.942275 0.564400 1.740134 0.773996 0.127626 0.581289 
-0.873066 -0.256681 2.118909 -0.880501 -0.456889 -0.099826 
0.385425 -0.147274 -0.087549 0.809462 -0.145646 -0.538071 
-0.518667 0.212738 0.161082 -0.896603 -0.077298 -0.417889 
-0.766825 0.023600 1.358807 -0.933899 -0.314215 -0.150720 
0.677546 0.358469 0.832491 0.969714 -0.169646 -0.162208 
0.326032 -0.203224 0.153597 0.565883 -0.170191 0.791315 
0.498785 -1.067037 0.332215 0.699391 0.323623 -0.577382 
-1.096034 0.543200 1.983346 -0.855240 -0.319226 -0.349453 
-0.352777 -0.857923 0.177426 0.483354 0.042519 0.816873 
-0.535210 -0.317979 0.362579 -0.906285 -0.133205 -0.357011 
-0.367033 -0.130440 0.101585 -0.054852 -0.121204 0.932749 
0.707966 -0.204447 0.952320 0.953445 -0.125051 -0.247133 
0.577483 -0.815771 0.626449 0.855741 -0.010608 -0.403148 
-0.965036 -0.259242 2.378494 -0.871866 -0.456018 -0.152993 
0.691638 -0.452775 2.037198 -0.735715 0.543822 0.289463 
-0.672290 -0.308489 0.736189 -0.972740 -0.091524 -0.201569 
0.696780 0.447092 0.899334 0.970876 -0.187819 -0.139487 
0.059898 0.937458 0.395647 0.203771 -0.061553 0.968953 
-0.828124 -0.467768 2.400553 -0.837197 -0.511534 -0.171514 
-0.677457 -0.213847 0.742024 -0.967667 -0.118082 -0.216481 
1.047382 0.274653 2.881387 0.927260 -0.175966 0.313657 
0.763390 -0.269209 3.005466 0.857832 -0.432772 0.259605 
0.676936 -0.559147 1.077777 -0.974514 0.121880 0.045187 
-0.162706 -0.872440 0.090972 0.312566 -0.097479 0.852610 
0.560805 -0.696279 1.379913 -0.849554 0.433903 -0.167057 
1.021914 0.692840 2.349648 -0.915960 0.015516 0.111278 
0.949193 -0.007253 1.783792 0.830417 -0.302582 -0.413278 
-0.952174 0.584984 1.624557 -0.829494 -0.387654 -0.314650 
-0.746871 0.128189 1.310632 0.916427 0.129432 0.275152 
0.482710 0.038517 0.347089 -0.686890 -0.140451 0.623324 
0.919368 0.528317 1.717655 -0.895302 -0.112140 0.201034 
0.000694 1.370649 0.003604 0.305201 0.148367 -0.902977 
0.089738 -0.806467 0.082808 0.046986 -0.249249 0.918984 
-0.093770 1.300772 0.073795 -0.690484 0.611755 -0.314807 
-0.209215 -0.748565 -0.046637 -0.101651 -0.343648 -0.922892 
0.099225 0.274237 0.332303 0.206062 -0.192598 0.948659 
-0.576678 0.610043 0.555773 0.898733 0.110322 0.397833 
-0.588383 -0.800213 0.714446 0.865302 -0.012480 0.310429 
-0.324016 0.356493 0.222287 -0.227347 -0.172189 0.950668 
0.744235 -0.185014 1.141205 -0.952736 0.128890 0.232711 
-0.255812 0.325197 -0.247136 -0.580363 0.004677 -0.804584 
-1.098171 0.108626 3.188470 -0.897689 -0.419446 0.116711 
0.940481 0.020219 1.885899 -0.797112 0.274311 0.497554 
0.049007 -0.747784 0.118432 0.206955 -0.251029 0.893552 
0.368352 -0.296011 0.080653 0.153549 -0.106074 0.883664 
-0.021504 -0.782781 0.107647 -0.405902 -0.238753 0.880672 
-0.935843 0.504508 1.624873 -0.834420 -0.380282 -0.311729 
-0.748943 0.295360 1.228469 0.904340 0.031362 0.331200 
0.119450 -0.257510 0.220987 0.175890 -0.140038 0.972430 
0.745463 -0.450214 1.228423 0.963334 -0.200004 -0.061435 
-0.132007 0.128087 -0.313090 -0.514691 -0.047718 -0.843888 
-0.428519 -0.228306 0.033080 -0.865058 -0.132324 -0.469030 
-0.221178 -0.665069 -0.070447 0.001810 -0.363740 -0.913774 
0.661986 -0.590909 0.998971 -0.972919 0.079732 0.075341 
-0.307864 0.532049 0.264783 -0.295479 -0.145792 0.909683 
0.442951 0.050552 0.002989 0.877255 -0.094764 -0.464263 
0.270789 -0.542034 0.117026 0.457577 -0.170256 0.868989 
0.653903 -0.007548 0.875733 -0.924570 -0.045233 0.330701 
-0.454426 -0.504226 0.248617 -0.828627 -0.157574 -0.470937 
1.078172 0.594382 2.171094 0.932817 -0.205763 -0.263927 
0.163149 -0.325619 -0.237122 0.435488 -0.272952 -0.841821 
0.204269 -0.507105 0.150866 0.305787 -0.200089 0.928508 
-0.111065 0.436599 0.367925 -0.238895 -0.142165 0.949533 
-0.522427 -0.218865 0.288473 -0.905283 -0.121523 -0.373530 
-1.359565 0.618216 3.068041 -0.945383 -0.309981 0.067930 
-1.382122 0.833275 2.573031 0.874588 0.378489 0.276327 
-0.088751 0.178080 -0.343137 -0.502157 -0.018327 -0.855693 
-1.024698 0.328402 1.946194 0.827264 0.182637 0.503344 
1.068562 0.036105 2.291284 0.933705 -0.332522 -0.090110 
1.037323 0.762170 2.081365 0.995840 0.026179 0.025493 
0.605199 -0.604580 0.689230 -0.872251 -0.047325 0.371677 
-0.990074 -0.117965 3.000075 0.896342 0.416130 -0.085904 
0.302967 0.907194 0.139987 0.918223 0.302135 0.031704 
1.101574 0.244167 2.381526 -0.961655 0.163044 0.079894 
0.807946 0.749404 1.218051 0.806543 0.257611 -0.416036 
0.538220 -0.049525 0.511940 -0.817916 -0.087728 0.472943 
-1.087890 -0.013660 2.712994 -0.826905 -0.532605 -0.115679 
1.087277 0.157553 2.377426 -0.952345 0.209170 0.019285 
0.475617 -0.586921 0.430249 0.796523 -0.121594 -0.499115 
0.402011 0.028557 -0.084385 0.805266 -0.126959 -0.539518 
0.900445 1.105244 1.645712 0.846655 0.278152 -0.239547 
1.002465 -0.026849 2.555408 -0.911495 0.282705 -0.164247 
0.520987 -0.298042 0.364078 0.909193 -0.099724 -0.381381 
0.590942 0.374699 0.504324 0.860941 0.409547 -0.274266 
-0.426303 -0.423598 0.079949 0.302419 -0.026659 0.897668 
0.263276 -1.172039 0.131404 0.470017 -0.158644 -0.791428 
0.661589 0.056684 0.907457 -0.915923 -0.063605 0.342839 
0.935680 0.821989 1.640455 0.960984 -0.104075 -0.001580 
-0.647834 -0.403588 0.754606 0.963550 0.028137 0.222271 
0.771448 0.514073 1.151896 0.962078 -0.229099 -0.139420 
-0.477136 -0.576300 0.363454 -0.811653 -0.159204 -0.470556 
-0.341475 0.098487 0.170742 -0.263387 -0.182925 0.903378 
0.419964 0.525248 -0.082605 0.738767 0.151473 -0.563656 
0.804303 0.397075 3.421948 0.825184 -0.042638 0.498093 
0.924255 0.535833 1.623216 0.912264 -0.252901 -0.274649 
-0.338448 0.813500 0.124587 -0.875812 0.402822 0.061004 
-0.170794 0.091408 0.265784 -0.291652 -0.201923 0.932696 
0.321972 0.039858 0.178315 0.447918 -0.186067 0.864478 
-1.140610 1.003783 1.949192 0.634645 0.590233 0.409157 
1.070405 0.342916 2.123835 0.956569 -0.045679 -0.258054 
-1.294896 0.734248 2.338652 -0.951077 -0.200438 -0.228047 
1.098930 0.603980 2.995860 0.937769 -0.089592 0.321758 
0.035300 1.231998 0.000641 0.474771 0.256527 -0.829589 
0.495967 0.622876 0.279519 0.898471 0.411856 -0.050878 
-1.182612 0.161993 2.544268 -0.814326 -0.529851 -0.212659 
0.254893 -0.777569 0.103952 0.142891 -0.041190 0.915518 
-0.737890 0.180972 1.221997 0.913704 0.077359 0.300997 
-0.304209 -0.156451 0.169774 -0.518324 -0.178094 0.816497 
0.104677 1.224016 0.024295 0.599477 0.409743 -0.633877 
1.028737 0.668860 2.271171 -0.918640 -0.001171 0.183169 
0.058739 -0.604555 0.161008 0.296591 -0.233157 0.918505 
0.163537 0.303883 0.338201 0.328500 -0.169635 0.928617 
0.135704 -1.186007 0.018523 0.443364 -0.162123 -0.731384 
-0.664734 -0.617420 0.850746 0.982600 -0.007126 0.161785 
-0.722793 0.645650 0.854369 -0.837646 0.206337 -0.488171 
-0.207930 1.091500 0.028509 -0.746710 0.421443 -0.449518 
-0.693908 -0.280268 1.131465 -0.949009 -0.219975 -0.115305 
0.912836 0.840167 1.723517 -0.814830 -0.374829 0.377341 
0.580318 0.427114 0.377439 0.890181 0.340822 -0.267693 
1.115538 0.378669 2.770756 -0.955220 0.193435 -0.134222 
-1.263121 0.500899 2.362078 -0.975515 -0.120643 -0.177444 
0.674177 -0.536692 2.296248 0.806821 -0.584479 -0.010360 
-0.995320 0.969291 1.718081 0.848368 0.068557 0.506435 
-0.652273 -0.455413 1.955024 0.854600 0.469197 0.077257 
0.495580 0.325667 0.074889 0.907446 -0.007330 -0.381078 
-1.247849 0.933546 2.202752 -0.924626 0.201651 -0.206992 
-0.596007 -0.082314 0.587506 0.878945 -0.029247 0.366178 
-1.282334 0.452550 2.530840 0.894543 0.322393 0.254368 
-0.210328 0.504382 0.325436 -0.266745 -0.139845 0.948534 
-0.431979 0.164964 0.170295 0.534471 -0.225420 0.789938 
-0.106869 -0.889334 0.047095 0.074440 -0.251230 0.931345 
0.226928 0.459051 0.311363 0.257404 -0.151574 0.948640 
0.384023 -0.374852 -0.045867 0.850987 -0.154808 -0.498243 
0.441788 -1.016139 0.327185 0.701158 0.052679 -0.600864 
0.772253 0.852461 1.267000 -0.789699 0.443427 -0.041018 
-0.725289 -0.424748 2.064136 -0.841220 -0.493212 -0.169655 
0.580173 0.092554 0.658689 -0.918481 -0.134411 0.348153 
0.354873 -0.708551 0.051675 -0.320286 -0.001526 0.940088 
1.006432 0.309603 1.775846 0.973924 -0.112137 -0.095054 
0.607309 -0.765561 0.678212 0.884558 0.004484 -0.364191 
0.517966 -0.201115 0.415164 -0.693696 -0.053542 0.569662 
0.733884 -0.114339 1.116582 -0.942501 0.087879 0.256933 
0.444429 -0.542803 0.282864 -0.543670 -0.000397 0.713771 
0.325218 -0.636573 0.066496 -0.011417 -0.069498 0.919850 
-0.550157 -0.224673 0.443389 0.705686 -0.010367 0.516298 
-1.423344 0.756513 2.973433 -0.991464 0.027612 0.098165 
-0.263788 0.888634 0.267093 -0.791704 0.121539 0.552522 
-0.555483 -0.329560 0.429984 -0.907585 -0.131065 -0.343253 
-1.158272 0.210700 3.133745 0.873019 0.463890 -0.034401 
-0.162146 -0.366257 -0.229943 -0.427731 -0.299896 -0.838655 
-0.693859 -0.257705 1.211425 0.950598 0.204800 0.130968 
0.425507 0.696531 0.097569 0.522321 0.834487 -0.023318 
0.738619 0.559683 1.040916 0.967524 -0.213976 -0.129116 
-1.339986 0.589057 2.569266 -0.944033 -0.242867 -0.178666 
-0.120915 -0.191895 0.231430 -0.191002 -0.153232 0.966900 
1.016851 0.532743 2.014528 -0.910214 -0.122195 0.292957 
0.995632 0.518689 1.932049 -0.902365 -0.142907 0.315329 
-0.093061 0.286548 -0.344299 -0.510442 0.026692 -0.853052 
-1.010982 1.018562 1.576252 -0.899940 -0.114994 -0.209779 
0.383955 -0.274843 -0.078585 0.851271 -0.145567 -0.502457 
-0.730438 0.084665 1.204986 0.924013 0.109207 0.273930 
-0.624411 -0.478827 1.063551 0.961475 0.157359 0.003031 
-1.275230 0.577208 2.355090 -0.964827 -0.154662 -0.199712 
-1.116325 0.019043 2.634160 -0.817246 -0.544973 -0.158323 
-0.066122 -0.834403 0.081580 -0.076132 -0.253462 0.904346 
-0.590266 0.125993 0.410396 -0.928371 -0.099300 -0.333202 
0.917834 0.201014 3.127581 -0.900890 0.227366 -0.344786 
0.406324 -0.474458 0.027308 -0.283252 -0.030543 0.944610 
-0.253206 0.562772 0.304908 -0.328604 -0.134306 0.908275 
-0.755912 0.435616 0.908555 -0.955666 -0.266163 -0.095188 
0.871166 -0.102047 1.501179 0.946759 -0.277762 -0.161473 
-0.567507 -0.674475 0.616023 -0.885010 -0.090665 -0.322475 
1.008229 0.830332 1.985684 0.996838 0.007115 0.025256 
-0.637499 -0.258289 0.697152 0.953133 0.053705 0.256186 
-0.906655 -0.243588 2.211999 0.692215 0.452604 0.450378 
-1.053733 -0.009489 2.956637 -0.906904 -0.394423 0.105577 
-0.515748 -0.697402 2.043195 -0.774278 -0.563429 -0.247176 
0.998898 0.082218 2.820893 0.910770 -0.195375 0.334047 
0.172491 1.211649 0.169975 0.693198 0.683968 -0.093660 
-0.282480 0.523584 -0.226817 -0.553753 0.130648 -0.807080 
0.841270 -0.002488 1.467882 -0.933923 0.150858 0.218937 
-0.584136 0.151519 0.581953 0.853714 -0.151626 0.441201 
0.226248 1.035029 0.339920 0.694930 -0.208052 0.642113 
-0.088742 -0.613836 -0.111131 -0.043120 -0.369561 -0.922044 
-0.450492 -0.681388 1.829629 0.810844 0.550787 0.077978 
-0.556604 0.463784 0.182378 -0.928343 0.169060 -0.276271 
0.962414 0.910947 1.988374 -0.885073 -0.069082 0.372295 
0.252608 -0.285660 -0.203604 0.508833 -0.230388 -0.820076 
-1.005830 -0.157520 2.784522 -0.849897 -0.503998 -0.053811 
-0.848526 0.462592 1.376902 -0.915694 -0.368319 -0.137245 
-0.114001 1.278165 0.152535 -0.654797 0.680961 0.147431 
-1.168929 0.585311 2.155974 0.892253 0.075081 0.364844 
0.853623 -0.215146 1.769755 -0.892252 0.368378 -0.156595 
-0.773888 0.343898 1.138538 -0.943692 -0.309681 -0.103285 
-0.470574 -1.072351 0.304152 0.682898 -0.337486 0.579296 
0.470118 -0.349926 0.228270 -0.487294 -0.033646 0.750473 
0.446096 0.263281 -0.056165 0.879250 -0.073957 -0.470345 
0.548746 0.083102 0.353156 0.925010 -0.080727 -0.350825 
0.246296 0.029919 -0.236509 0.555551 -0.113442 -0.808775 
-0.887162 0.070787 1.695901 -0.801317 -0.315479 -0.437957 
0.410449 -0.385817 0.025046 -0.292161 -0.052363 0.941854 
-0.880834 0.005321 1.898215 0.781559 0.330782 0.439497 
0.163581 -0.079145 0.243521 0.279869 -0.172477 0.936139 
0.098431 -0.377314 -0.251925 0.366928 -0.336487 -0.854259 
-1.341516 0.575488 3.010987 0.961691 0.223534 -0.062320 
1.001079 0.257925 1.936224 -0.911949 0.061942 0.371911 
-0.633635 -0.471006 0.913601 0.969655 0.088386 0.086394 
0.013308 -0.750991 -0.073010 0.449178 -0.190503 -0.832898 
-0.251191 1.174039 0.491647 -0.709054 0.063127 -0.702152 
-1.182205 0.296079 2.303399 0.915223 0.260171 0.289745 
-0.998039 -0.203695 2.676319 0.891780 0.414060 0.033015 
0.325955 -0.106251 -0.158027 0.615712 -0.183014 -0.728124 
1.013541 0.242821 1.803147 0.989934 -0.093449 -0.024573 
-1.324917 0.461956 2.776993 -0.941141 -0.329885 0.001837 
-0.336847 0.802172 0.030875 -0.824636 0.483079 -0.233721 
0.988273 0.302243 3.041667 0.913857 -0.215813 0.323211 
0.340562 -1.160722 0.160327 -0.136636 -0.137896 0.709317 
-1.177164 0.435176 2.197429 -0.835275 -0.337851 -0.406428 
-0.505852 0.251308 0.382093 0.720052 -0.223306 0.609842 
0.902929 0.039249 3.012379 0.886958 -0.256508 0.358593 
-0.736386 0.031967 1.071817 -0.949062 -0.242342 -0.160012 
0.988636 0.379308 1.779340 0.990001 -0.066417 0.077102 
0.957105 0.190012 1.691620 0.877025 -0.211786 -0.385116 
-0.986092 0.553565 1.796291 0.793571 0.019192 0.538448 
-1.015639 0.449887 1.885392 0.819605 0.095344 0.508821 
-1.024487 -0.068446 2.928443 0.908050 0.381632 -0.088064 
0.900284 0.462054 1.655168 -0.919290 -0.130105 0.162800 
-0.912056 -0.287661 2.295869 0.736848 0.462112 0.369047 
-0.511986 0.181680 0.390755 0.731927 -0.186175 0.582654 
0.680907 -0.596185 0.812529 0.960894 0.029081 -0.255027 
-0.791548 0.187799 1.473850 0.917547 0.147482 0.257705 
0.097009 -0.968609 -0.050348 0.323521 -0.077971 -0.917840 
0.667330 0.130879 0.807321 0.964269 -0.126377 -0.207221 
0.847135 0.046629 1.417001 0.950450 -0.266034 -0.156162 
-1.236456 0.868525 2.176620 -0.961605 -0.187370 -0.188832 
-0.182012 0.875999 0.345117 -0.448487 -0.057809 0.858371 
0.508662 -0.500389 0.482956 0.832631 -0.108782 -0.452149 
-0.598769 0.433575 0.322061 -0.945808 0.140450 -0.242566 
-0.598688 0.197608 0.437881 -0.930462 -0.107778 -0.328779 
-0.128161 0.281405 0.333602 -0.257008 -0.183090 0.941175 
-1.247887 0.302700 2.760566 -0.946202 -0.305470 0.076122 
-0.653412 -0.552314 0.802179 0.966986 0.003630 0.197865 
-0.657212 -0.161733 0.648156 -0.962230 -0.105000 -0.240032 
-0.558162 -0.502802 1.782543 0.853807 0.495981 -0.016958 
0.107982 -0.898659 -0.060311 0.261861 -0.140608 -0.917426 
-0.365199 -0.776905 0.167306 -0.721969 -0.189054 -0.613801 
1.137950 0.689320 2.734579 0.978547 -0.004030 0.103193 
-0.237214 -0.318331 -0.209318 -0.503476 -0.238480 -0.822160 
0.089974 -0.065572 0.254853 0.171291 -0.175984 0.965024 
-0.017004 -0.068124 -0.337952 -0.392390 -0.170591 -0.873581 
1.117357 0.334260 2.470777 -0.967392 0.096182 0.039434 
-1.188707 0.397518 3.504478 0.912794 0.381909 -0.135622 
0.584037 -0.137652 0.642951 -0.910985 -0.042340 0.356034 
0.170392 -0.468189 -0.177902 0.304578 -0.426949 -0.833372 
0.240199 0.539123 0.303585 0.244440 -0.139323 0.950984 
0.960107 0.192990 1.764153 -0.979754 -0.019947 -0.060124 
0.629834 0.433865 0.878076 -0.872270 -0.217253 0.431932 
-1.258053 0.361465 2.577328 -0.962272 -0.224628 -0.012188 
-0.241460 -0.119536 -0.225616 -0.530858 -0.166565 -0.816622 
-0.562967 -0.382347 0.487148 -0.892937 -0.133581 -0.350512 
-0.670393 0.587009 0.785114 0.922782 0.238010 0.228698 
1.058362 0.061843 2.136880 0.954620 -0.250283 -0.041317 
-1.087336 0.853158 1.927439 0.800298 0.122032 0.531202 
-0.610826 -0.535763 1.995955 0.834137 0.492550 0.132717 
0.685371 0.511143 1.033780 -0.856108 -0.235332 0.442139 
0.925761 0.923453 1.717686 0.919023 -0.368719 -0.095833 
-0.878869 0.512765 1.472054 -0.904391 -0.392019 -0.150789 
-1.168121 0.822650 2.174739 0.839757 0.169022 0.396826 
-0.089862 0.863248 -0.181178 -0.475738 0.429870 -0.754274 
0.268312 0.859862 0.264999 0.766407 0.160915 0.568017 
-0.556594 0.166294 0.509336 0.807150 -0.166478 0.495935 
0.689890 -0.628088 1.136563 0.973320 -0.175117 0.018051 
0.166446 1.237509 0.314781 -0.204124 0.918278 0.268808 
0.503178 -0.666860 1.899727 -0.781491 0.600157 -0.025214 
0.370198 -0.801054 0.246979 0.691854 -0.169040 -0.639571 
-1.198479 0.353134 3.357257 -0.908092 -0.393576 0.124914 
-1.108411 0.621850 1.982618 -0.832496 -0.395430 -0.329581 
-0.597606 0.405742 0.548728 -0.822671 0.468828 -0.277257 
0.812878 -0.051537 1.373847 -0.936786 0.148956 0.227505 
-0.359298 0.445996 0.234150 0.263279 -0.099496 0.808744 
0.272620 -0.518944 -0.138937 0.498278 -0.277462 -0.814690 
1.076811 0.417599 2.203017 -0.954752 0.001566 0.241600 
0.698847 -0.556202 1.149861 -0.974599 0.143767 0.031676 
0.295974 0.790226 -0.082556 0.640500 0.537323 -0.498704 
-1.208601 0.640983 2.189375 -0.971373 -0.152159 -0.167772 
0.016627 -0.674134 -0.077371 0.402716 -0.241573 -0.847092 
0.882424 0.167504 3.181903 0.881911 -0.261369 0.379493 
-0.252097 0.382138 0.286828 -0.260411 -0.163874 0.945430 
-0.221285 1.225873 0.432337 0.562074 0.613624 0.481859 
0.734084 -0.451878 2.214709 0.825638 -0.551379 0.026531 
0.936582 1.026399 1.827159 0.780729 0.594402 0.025784 
0.184552 0.607505 -0.248120 0.465220 0.234901 -0.833612 
-0.459882 -0.034284 0.220788 0.534837 -0.137686 0.742385 
-0.843865 0.635157 1.198142 -0.924913 -0.351649 -0.110652 
-0.763728 0.181839 1.363134 0.913665 0.121167 0.279369 
0.613652 0.130834 0.604247 0.959649 -0.117054 -0.242123 
-0.721865 0.318356 1.046427 0.904969 -0.038694 0.362070 
1.040503 0.038080 2.473841 -0.928592 0.258512 -0.102303 
-0.437226 -0.113243 0.019029 -0.867021 -0.114752 -0.471600 
0.723551 -0.214503 1.080704 -0.954844 0.114485 0.231413 
1.106268 0.855022 2.462850 -0.933196 0.231200 0.166021 
-1.202310 0.456320 3.559520 -0.912887 -0.371989 0.160740 
0.547085 0.608133 0.528010 0.920505 0.233732 -0.212871 
-0.665760 -0.286866 1.619623 -0.867589 -0.431289 -0.131369 
0.458830 -0.722563 1.919847 0.758846 -0.639632 -0.010175 
-0.787721 0.528016 1.035102 -0.945232 -0.308832 -0.087536 
-0.435840 -0.001154 0.159211 0.482771 -0.165539 0.805393 
0.129234 1.109370 0.217273 0.795779 0.050853 0.517442 
-0.750771 0.515539 0.842580 -0.876704 0.183615 -0.407498 
0.593635 -0.534037 1.507501 0.810963 -0.521429 0.116732 
-0.578287 -0.445191 1.724737 0.869053 0.477950 -0.052567 
-0.042569 0.242774 -0.376286 -0.490228 0.017209 -0.868053 
-1.166718 0.215266 2.374930 0.925468 0.264502 0.166138 
-0.543442 0.532326 0.117562 -0.926865 0.244521 -0.256382 
-1.293806 0.436303 2.979134 -0.925378 -0.370060 0.031117 
-0.051734 1.049981 0.395985 0.000355 0.097534 0.956128 
0.819310 -0.378616 2.563145 0.842107 -0.526562 0.062582 
-0.163252 0.164898 0.292394 -0.295224 -0.192093 0.935132 
-0.722657 0.505757 0.976754 0.887980 -0.136986 0.426290 
-0.425160 -0.765028 0.322833 -0.753878 -0.169219 -0.544949 
-0.231382 -0.192125 -0.224657 -0.517123 -0.190649 -0.821184 
-0.508163 -0.643019 0.470527 -0.828216 -0.136655 -0.426102 
-0.791217 0.354347 1.209461 -0.936481 -0.324533 -0.113496 
-1.061274 0.995519 1.734603 -0.964218 -0.223714 -0.134321 
-1.342683 0.806977 2.442199 -0.961645 -0.161095 -0.218350 
0.811173 -0.358327 2.227626 -0.774544 0.514409 0.215277 
0.496184 -0.679660 1.979457 0.760624 -0.633145 -0.076688 
-0.921078 0.367785 1.715839 0.960210 0.051380 0.137766 
0.937961 -0.012258 1.665091 0.885852 -0.236871 -0.340560 
0.471244 -0.715291 2.047031 0.763320 -0.640471 -0.065263 
-0.196430 0.788849 -0.166103 -0.524607 0.481649 -0.682092 
0.849011 -0.299441 2.107937 0.859825 -0.493183 0.090683 
0.739024 0.782828 1.310132 -0.960154 0.087375 0.237595 
-0.197278 1.056520 0.294320 -0.455665 0.768590 0.033672 
0.456666 -0.403557 0.182478 -0.435347 -0.025151 0.795810 
-1.214620 0.360646 3.287155 -0.911060 -0.389053 0.111894 
-0.611951 -0.287309 0.636403 0.896239 0.050758 0.318691 
0.665578 -0.187116 0.808926 0.956143 -0.089154 -0.262985 
-0.134692 -0.793501 0.101774 0.096850 -0.163340 0.892264 
-0.628111 -0.550687 1.208259 -0.950312 -0.228532 0.083053 
0.684329 -0.729808 1.105185 0.975294 -0.136040 0.017412 
-0.172386 -0.826513 -0.015920 -0.188496 -0.287327 -0.931554 
-0.938932 -0.359552 2.575582 0.866373 0.477623 0.123719 
0.222471 1.123152 0.455868 -0.214470 -0.239533 0.833505 
0.785370 0.330578 1.203148 0.960189 -0.236449 -0.140612 
0.913092 1.046450 1.749575 -0.735328 0.526152 0.378157 
-0.453863 0.671051 0.199737 -0.742505 0.620965 -0.053129 
-1.184724 0.968552 2.061336 0.689785 0.529160 0.383713 
1.074718 0.886166 2.332229 0.908937 0.334066 0.008117 
-1.156173 0.226793 2.282851 0.908911 0.285492 0.280509 
0.422423 0.178659 -0.075654 0.826823 -0.101275 -0.519097 
-0.332110 0.733352 -0.097840 -0.663073 0.563521 -0.444003 
0.238597 0.424062 -0.251224 0.562239 0.065431 -0.811789 
-0.797757 0.052589 1.579544 0.928421 0.236766 0.202515 
-0.502970 -0.443449 0.373376 0.630946 0.025297 0.596493 
-0.338884 0.552537 -0.194772 -0.601825 0.168480 -0.758664 
-0.387337 -0.461796 0.022821 -0.825603 -0.164378 -0.515420 
-1.050362 -0.111755 2.643887 -0.834233 -0.524148 -0.127335 
-0.425824 0.627659 -0.051161 -0.730636 0.336470 -0.489227 
-1.367019 0.689235 3.172204 -0.962779 -0.178825 0.108434 
-1.056825 0.280098 1.991998 -0.926663 -0.171268 -0.286482 
-0.157931 -1.145576 0.058339 -0.169920 -0.212608 -0.868490 
-0.928863 -0.389222 2.505068 -0.856914 -0.496591 -0.135273 
-0.611417 -0.566049 1.137573 0.960431 0.178358 -0.069017 
-0.630441 -0.353714 0.651273 -0.934364 -0.109646 -0.268240 
0.764600 -0.267651 1.241837 -0.958445 0.164848 0.168828 
0.560683 0.281486 0.698809 -0.909523 -0.151211 0.383594 
0.812491 0.698582 1.443330 -0.862862 -0.260434 0.370165 
0.524222 0.393790 0.526910 -0.873002 0.356302 0.309136 
-0.198419 -0.256313 -0.236150 -0.491042 -0.211640 -0.831741 
0.913718 0.397412 3.229843 -0.880697 0.083535 -0.435945 
0.659749 -0.552533 0.886113 -0.963877 0.005466 0.183392 
0.911298 -0.072613 1.805411 -0.927920 0.238077 -0.158004 
-0.731167 0.693502 0.908048 0.926551 0.237292 0.225427 
-1.070590 0.230299 2.045290 -0.919944 -0.214174 -0.282069 
-1.165229 0.495701 2.150272 -0.828969 -0.369532 -0.384645 
-1.106689 0.067585 2.340552 0.906517 0.324990 0.183881 
-0.900801 0.338219 1.623242 -0.846562 -0.365874 -0.301018 
-0.505899 0.526659 0.045171 -0.876524 0.220943 -0.341306 
0.781783 0.607872 1.184074 0.960086 -0.233243 -0.144756 
0.825676 0.767910 1.490384 -0.858898 -0.291015 0.371753 
0.502111 0.621820 0.199798 0.897533 0.383106 -0.111017 
-0.410796 -0.181946 -0.031026 -0.856722 -0.127376 -0.491869 
-0.559419 -0.801772 0.649726 0.823398 -0.003078 0.370010 
0.775378 -0.420468 2.289265 0.833572 -0.542533 0.034524 
0.896411 0.130358 3.119585 0.883809 -0.247886 0.383475 
0.068119 1.284127 0.047926 0.623393 0.363016 -0.615989 
0.519345 -0.354343 0.419885 -0.671227 -0.010092 0.572703 
-0.602957 0.440507 0.621452 0.889627 0.255286 0.332543 
-0.647463 -0.436283 0.832005 0.973571 0.049794 0.156002 
0.217975 0.087622 0.239435 0.339747 -0.195666 0.913750 
-1.009263 0.382053 1.850648 -0.933364 -0.230007 -0.159845 
0.565371 0.196404 0.625952 -0.895908 -0.178234 0.378937 
0.915939 -0.140910 2.682458 -0.889444 0.346171 -0.190635 
-0.672201 0.355113 0.679233 -0.845386 0.336567 -0.357314 
-0.171111 0.557238 0.356270 -0.302453 -0.126160 0.941847 
0.810797 0.565695 1.425917 -0.874966 -0.186974 0.347461 
0.031435 -1.034800 0.000208 0.328157 -0.244863 0.897563 
-0.180415 -0.394551 0.189090 -0.255954 -0.172601 0.947703 
0.533072 0.504231 0.091854 0.934569 0.174125 -0.272549 
0.494366 0.639532 0.361178 -0.836767 0.322089 0.416221 
0.823658 -0.289146 2.003829 -0.706898 0.492336 0.437374 
0.132630 1.036692 -0.061291 0.523041 0.412305 -0.724622 
0.921268 0.713427 1.617059 0.917396 -0.260173 -0.259448 
-0.147658 0.206290 -0.311317 -0.531589 -0.022994 -0.837547 
-1.049706 1.069520 1.724514 0.536257 0.687404 0.455361 
-1.238120 0.414822 3.248691 0.931293 0.313393 -0.109964 
0.916763 0.385696 1.607518 0.917279 -0.256740 -0.257537 
-0.374995 0.676382 -0.108783 -0.635981 0.446605 -0.542123 
1.137561 0.669209 2.430965 0.998387 0.010158 -0.042908 
0.191240 -0.439274 0.176331 0.270736 -0.191397 0.940296 
1.042049 0.012858 2.218221 -0.920133 0.320048 0.151603 
-0.634827 -0.567195 0.959871 0.971820 0.081209 0.056539 
-0.286611 -0.634180 -0.077516 -0.589902 -0.246972 -0.753519 
1.101964 0.269218 2.726166 -0.927051 0.332008 -0.085140 
-0.620450 -0.451788 1.466425 0.919547 0.329900 -0.012654 
-0.423457 0.339367 0.214795 0.594721 -0.215800 0.731688 
0.194066 -0.734113 -0.053657 0.130713 -0.346281 -0.922470 
0.611480 -0.316076 0.663991 0.931910 -0.059100 -0.317761 
0.711504 0.128086 0.958239 0.961804 -0.161446 -0.188585 
-1.063390 -0.057008 2.333130 -0.878448 -0.405912 -0.226320 
-0.262787 -0.007623 0.206955 -0.411598 -0.189964 0.874567 
0.586796 0.172677 0.688656 -0.921863 -0.162974 0.345476 
0.160086 1.133394 0.330537 0.889352 0.129084 -0.245736 
-0.538929 0.533887 0.332879 -0.865996 0.428053 -0.181165 
-0.030721 -0.910843 0.051755 -0.341224 -0.245901 0.893719 
0.895475 -0.081600 1.885471 -0.863952 0.342690 0.252180 
0.961778 0.314679 1.833855 -0.871704 0.028336 0.425920 
-0.220168 -0.788150 0.089441 0.091437 -0.098149 0.848462 
0.725945 0.284886 1.137445 -0.886622 -0.087904 0.364557 
-0.119697 0.772305 -0.202946 -0.467977 0.420071 -0.754433 
-1.118874 0.046525 2.424462 -0.850109 -0.459809 -0.221830 
0.679634 -0.232814 0.863923 0.955065 -0.100133 -0.254786 
-0.585228 0.346588 0.598882 0.870493 0.366765 0.314582 
-0.562448 -0.973935 0.590278 0.820539 -0.194740 0.374089 
-1.108784 0.706778 1.987989 0.860726 -0.037803 0.416386 
0.471666 0.667005 0.039145 0.783994 0.545443 -0.246605 
0.661833 -0.467859 1.649713 0.775713 -0.565039 -0.013519 
1.061562 0.274910 2.097649 0.964655 -0.043878 -0.222709 
-0.660793 0.432527 0.836282 0.896015 -0.114017 0.414152 
0.652748 -0.494519 0.800390 -0.957596 -0.038138 0.259081 
0.706578 -0.879632 0.864127 0.952934 0.096465 -0.260579 
-0.226908 0.958089 -0.040175 -0.691563 0.397805 -0.577828 
1.118385 0.547170 2.847366 0.958053 -0.105220 0.217312 
0.569010 -0.181396 0.586821 -0.856054 -0.034337 0.408448 
0.808399 0.036152 3.242114 -0.867895 0.299797 -0.389809 
-0.781732 -0.033777 1.518831 -0.924554 -0.344043 -0.159902 
0.813197 -0.275676 1.792561 -0.866637 0.417127 -0.233535 
0.552456 0.537511 0.153168 0.934926 0.250429 -0.239072 
-0.351303 -1.141789 0.166646 0.243239 -0.143742 0.706804 
0.516429 0.030735 0.242746 0.908290 -0.070866 -0.399035 
0.603227 0.222792 0.745354 -0.909605 -0.173316 0.365622 
1.043998 0.243046 2.020340 0.973271 -0.034180 -0.118289 
0.481725 0.531721 0.007811 0.839361 0.177526 -0.407326 
1.001074 0.026309 1.986925 0.946710 -0.233946 0.063354 
-0.002521 1.302858 0.206572 -0.190053 0.765689 0.605080 
1.079277 0.120338 2.596880 0.870787 -0.480227 -0.068358 
-0.634642 0.369300 0.774827 0.890475 -0.141130 0.432301 
-1.171801 0.884548 2.112927 0.829856 0.162991 0.458863 
0.466439 -0.053057 0.275367 -0.599661 -0.121772 0.694142 
-0.592789 -0.171297 0.466448 -0.934795 -0.107555 -0.306029 
-0.129212 -0.281702 -0.257495 -0.424705 -0.259504 -0.846746 
-1.106284 0.101283 3.018860 0.861157 0.486015 -0.007924 
-0.007179 -1.113156 -0.002004 -0.653552 -0.330986 0.620028 
0.913989 0.934132 1.833902 -0.857754 -0.113020 0.423474 
0.528961 0.093998 0.275216 0.915327 -0.074505 -0.378909 
0.233495 0.018506 0.224575 0.385119 -0.190250 0.888090 
-0.326113 0.345071 -0.216207 -0.614452 -0.007777 -0.786740 
0.048128 -0.861061 -0.058567 0.219427 -0.151303 -0.940585 
-0.014796 0.866287 -0.217938 -0.416867 0.397804 -0.814807 
1.002200 0.723000 2.228006 -0.904836 -0.014536 0.187650 
0.738425 -0.370459 1.758311 -0.841285 0.465784 -0.241054 
-1.044181 -0.091720 2.724323 0.910888 0.365031 -0.025882 
-0.091229 0.584600 -0.283409 -0.406389 0.221109 -0.870022 
0.605227 0.019007 0.577458 0.951513 -0.092194 -0.277207 
0.212048 -0.126582 0.218216 0.393132 -0.175027 0.876776 
-0.688042 -0.171410 0.802742 -0.964255 -0.140500 -0.206590 
0.473023 0.347152 0.503794 -0.895594 -0.006880 0.407832 
0.880744 0.311837 3.251554 -0.876420 0.137781 -0.430514 
0.665237 -0.462123 1.784212 -0.822313 0.507134 -0.183301 
0.715617 0.361600 0.967890 0.967587 -0.188448 -0.146748 
-0.635548 -0.350239 0.839990 0.968059 0.087550 0.137945 
-0.581644 0.467983 0.257387 -0.940204 0.176988 -0.244865 
-0.398974 0.623690 0.175248 -0.200550 0.424449 0.779451 
-0.379359 0.742512 0.047720 -0.840719 0.500557 -0.117555 
-0.338761 0.260981 -0.197725 -0.639496 -0.049920 -0.757107 
-0.640864 -0.364684 1.717025 -0.792058 -0.502179 -0.197652 
-1.232367 0.257045 2.679922 -0.954590 -0.279536 0.093938 
-0.360222 -0.495776 -0.034418 -0.808436 -0.170613 -0.546403 
-0.918777 -0.031976 1.966191 0.631199 0.384049 0.635308 
-0.153370 -1.350549 0.137825 0.802990 -0.409332 0.107672 
-0.942478 -0.271236 2.831194 0.873806 0.469003 0.021254 
-0.524931 -1.021840 0.461650 0.763852 -0.275150 0.460435 
-0.633087 -0.420429 1.013781 0.962182 0.143236 0.051304 
-0.547436 0.074672 0.263579 -0.911443 -0.078709 -0.376875 
-0.865658 -0.341802 2.259175 -0.863499 -0.479612 -0.127514 
0.576740 -0.591918 1.468862 0.816888 -0.506809 0.139557 
-0.188430 -1.099636 0.106985 0.393439 0.103597 0.887391 
0.431325 0.377545 0.365407 -0.817616 -0.015294 0.506089 
0.654642 -0.422967 0.809317 0.961484 -0.051943 -0.216102 
-1.246855 0.533500 3.487916 -0.923355 -0.348089 0.146471 
-0.657381 -0.707723 0.847709 0.967888 -0.021358 0.176198 
0.068534 -0.940447 0.037768 0.030963 -0.253919 0.903979 
-1.304327 0.812336 2.348981 -0.959859 -0.175204 -0.211551 
0.868410 -0.312749 2.384006 -0.842706 0.487313 0.072046 
-0.183806 -0.466503 0.168312 -0.265126 -0.196975 0.941243 
-0.891324 0.555066 1.602459 0.918474 -0.012858 0.281574 
-0.327141 -0.068983 0.166612 -0.491503 -0.182091 0.836324 
0.911551 -0.228892 2.471282 -0.880804 0.423808 -0.040739 
-0.536398 -0.458364 0.459492 -0.862792 -0.142601 -0.391735 
0.098675 0.032125 -0.323640 0.486674 -0.073871 -0.856576 
1.063885 0.132921 2.127693 0.961343 -0.178948 -0.095690 
-1.401790 0.741003 2.807126 -0.959567 -0.232215 -0.056784 
-0.636471 0.204687 0.568257 -0.946164 -0.123194 -0.287666 
-1.122090 0.845515 2.071137 0.822500 0.138721 0.433291 
0.232729 -0.948681 0.026639 0.099875 -0.297655 -0.925381 
0.822636 -0.236773 1.376032 0.951043 -0.240082 -0.149273 
0.995739 0.613888 1.959847 -0.888670 -0.182876 0.307930 
0.377122 -0.222071 0.071479 -0.025570 -0.094879 0.939281 
-0.096970 0.003796 -0.320954 -0.481618 -0.087449 -0.856662 
-0.724603 0.585882 0.996445 0.915420 -0.021121 0.352175 
0.054370 0.691404 0.355771 0.068591 0.070951 0.987898 
0.878703 -0.162517 1.563028 0.928361 -0.307334 -0.179123 
0.384635 0.122430 0.164457 -0.192293 -0.191455 0.837951 
-0.284658 -0.435938 0.139115 -0.511486 -0.168361 0.825628 
0.966151 0.448432 3.178588 0.901598 -0.151114 0.390452 
-0.636254 -0.794480 1.075609 -0.974243 -0.096171 0.032103 
0.065241 -0.049408 -0.323347 0.437965 -0.136274 -0.863657 
-0.053423 -0.260480 -0.289693 -0.366539 -0.279874 -0.863661 
-0.767272 0.237264 1.178782 -0.942446 -0.303127 -0.119187 
0.846442 -0.239070 1.848376 -0.871903 0.407985 -0.259671 
-1.182740 0.632485 2.105298 -0.898034 -0.289320 -0.320625 
0.722463 0.444978 0.989488 0.969366 -0.202864 -0.129422 
0.416013 -0.146014 0.091136 -0.408705 -0.119378 0.870145 
0.593610 -0.473037 0.639131 0.902222 -0.049305 -0.352854 
-1.302625 0.649238 3.385203 0.869758 0.450371 -0.066113 
-0.727495 -0.219629 1.330638 -0.937653 -0.276472 -0.128094 
-0.655933 -0.409266 1.092391 -0.953501 -0.203620 -0.031769 
-0.534564 0.289925 0.177422 -0.906464 -0.029436 -0.391454 
-1.114095 0.004608 2.558228 -0.821830 -0.532492 -0.184033 
-0.318670 -0.257270 -0.148327 -0.597054 -0.230279 -0.732866 
0.058938 0.525402 -0.315887 0.435437 0.193817 -0.870746 
-0.205843 0.246714 0.293716 -0.333840 -0.179245 0.924383 
-0.916133 0.996695 1.551704 0.917991 0.260437 0.181486 
-0.956259 -0.148361 3.141664 -0.877680 -0.465899 0.110099 
0.251022 1.055350 0.142338 0.890951 0.392393 -0.046285 
-0.948366 0.065339 1.897727 -0.951500 -0.263066 -0.067394 
0.618480 -0.294124 0.740752 -0.956487 0.002519 0.276347 
-0.335673 -0.460836 -0.091519 -0.739149 -0.198304 -0.610176 
0.022779 0.245597 0.328147 0.076969 -0.210259 0.970480 
0.977690 -0.105684 2.474821 0.874668 -0.466664 -0.035577 
0.790043 -0.278078 1.546432 0.891529 -0.374418 -0.087391 
-0.104975 1.247908 0.249962 -0.211761 0.839577 0.455606 
0.336222 0.692871 0.259215 0.694360 0.267132 0.613065 
0.749623 0.060165 1.088140 0.958032 -0.188494 -0.183296 
0.746736 -0.251322 1.174736 -0.957277 0.144015 0.191744 
-0.773711 0.396323 1.264882 0.901844 -0.007364 0.344963 
-0.951125 -0.177469 3.071606 -0.872719 -0.474051 0.081363 
0.246647 1.054893 0.213309 0.891617 0.409030 0.140180 
0.087638 0.778395 0.356525 0.143519 -0.106646 0.974312 
-0.807068 0.786680 1.256711 0.945898 0.150623 0.253285 
1.095129 0.698238 2.929987 -0.886488 0.416718 -0.027799 
-0.750100 -0.350259 2.020831 0.615238 0.475463 0.575547 
0.397711 -0.699120 0.241327 -0.510320 0.013936 0.764156 
0.073017 0.191230 0.309119 0.155982 -0.206514 0.957981 
-0.468264 0.198651 0.001418 -0.875538 -0.066376 -0.470931 
0.606928 -0.435236 0.697698 -0.910056 -0.024668 0.337629 
0.051866 1.188266 0.333699 -0.145367 0.664021 0.719365 
-1.143411 0.080202 2.609840 0.946827 0.263783 -0.067903 
-0.579648 -0.539585 1.442899 0.914570 0.337724 -0.059324 
-0.482422 -0.333371 0.243557 0.483534 -0.019217 0.725942 
1.032266 0.672831 2.187095 -0.920047 -0.018766 0.261746 
0.611968 0.124844 0.760360 -0.916052 -0.132280 0.356547 
-1.115196 1.018229 1.870841 -0.891459 0.283654 -0.196483 
-0.945070 0.807437 1.511025 -0.887420 -0.430340 -0.155158 
-0.271660 0.902298 0.006121 -0.796162 0.390509 -0.386261 
-0.595841 -0.943663 0.685873 0.870224 -0.158622 0.301320 
0.329643 -0.935740 0.181917 0.645399 -0.180153 -0.699321 
-0.485193 -0.787266 0.479508 0.716583 0.023836 0.524305 
0.263325 -0.463671 0.142945 0.443125 -0.173213 0.866938 
0.874347 0.683874 1.491771 0.944203 -0.274718 -0.177767 
0.269267 0.994284 0.076239 0.878385 0.388468 -0.227380 
0.879594 -0.287036 2.275350 0.865123 -0.485722 0.050769 
0.823601 0.381297 1.448534 -0.894657 -0.075499 0.303319 
-0.204322 0.290298 -0.282863 -0.563509 -0.003514 -0.819347 
0.905334 0.057576 1.634005 -0.957925 0.100427 0.085995 
0.599471 -0.710053 1.314175 0.885696 -0.367234 0.143358 
0.006013 0.610476 0.378883 0.008823 0.219349 0.968710 
-1.134285 0.172555 3.191910 -0.903385 -0.406082 0.118040 
0.005525 -0.304352 -0.299680 0.312605 -0.331026 -0.873370 
0.593507 0.409348 0.801725 -0.937207 0.080072 0.273254 
-1.315095 0.499203 3.021021 -0.932185 -0.348771 0.047532 
-1.228155 0.347962 3.167343 -0.912025 -0.393727 0.080376 
-0.006052 0.422941 -0.361698 -0.436576 0.143454 -0.882920 
-0.575378 -0.278612 0.505482 0.753138 0.025462 0.453252 
0.567865 -0.919928 0.614024 0.837836 -0.002414 -0.423858 
-0.961794 0.068982 1.976902 0.720465 0.336964 0.560950 
-1.186935 0.240984 2.450317 0.940304 0.237220 0.089506 
-0.485423 0.161223 0.316292 0.676321 -0.187594 0.638759 
0.919141 0.149866 1.612380 0.911948 -0.248667 -0.272971 
0.237787 0.981675 0.005592 0.736957 0.371217 -0.488005 
-0.144193 0.010484 0.263019 -0.252582 -0.188519 0.947283 
0.515591 0.568637 0.063688 0.890616 0.233551 -0.312236 
1.004324 -0.057953 2.092153 0.919886 -0.363473 0.005135 
-0.536115 0.372073 0.528499 0.867658 0.314254 0.354495 
-0.260343 0.252343 -0.249700 -0.586875 -0.034825 -0.803005 
0.029334 -0.843091 0.079994 0.356352 -0.246141 0.891121 
0.974276 0.226788 1.863776 -0.885539 0.094508 0.426534 
1.134209 0.583689 2.406816 0.994564 0.061731 0.002616 
-0.075933 -0.528441 -0.157670 -0.043718 -0.499703 -0.855824 
0.834361 -0.078015 3.057508 0.873959 -0.324410 0.336736 
1.023762 0.170151 2.852298 0.913551 -0.158872 0.361444 
-0.476954 -0.223838 0.164938 -0.885811 -0.126811 -0.419733 
-0.735624 -0.112895 1.189658 -0.943490 -0.248783 -0.181550 
-0.254288 0.461506 -0.247177 -0.559460 0.083643 -0.815971 
1.002637 0.027930 2.697858 -0.916692 0.233643 -0.262503 
-0.585731 -0.595559 2.042646 0.817979 0.508854 0.184468 
-1.102516 0.071513 2.930396 -0.916800 -0.370743 0.106083 
0.472976 -0.401817 0.278141 0.863418 -0.121175 -0.443451 
0.029833 0.225380 -0.382052 0.484814 0.014807 -0.870737 
0.658703 0.268694 0.922746 -0.886299 -0.155485 0.399225 
-0.195806 0.767982 0.327631 -0.364271 0.088595 0.896606 
0.671210 -0.603540 1.328706 -0.924750 0.285478 -0.061102 
0.708576 -0.294762 1.004089 0.957121 -0.138511 -0.192367 
0.079613 -0.723802 -0.079114 0.101518 -0.277362 -0.935995 
-0.176923 1.204298 0.171828 -0.712227 0.662558 -0.083175 
-0.344694 -0.622215 0.003990 -0.765242 -0.181475 -0.591353 
-0.592216 -0.103953 0.442620 -0.933507 -0.097840 -0.313355 
1.125176 0.310910 2.400467 0.909377 -0.310463 -0.242605 
-0.603315 -0.631429 1.208108 0.959042 0.198615 -0.125478 
-0.532611 -0.055866 0.417314 0.721710 -0.080530 0.539280 
-0.836033 0.721163 1.310500 0.891156 -0.150807 0.404057 
1.123100 0.374547 2.668176 0.960348 -0.054912 0.207920 
-0.986181 0.521845 1.701091 -0.840506 -0.285480 -0.312903 
-0.163434 -0.103183 0.239168 -0.274606 -0.170892 0.937581 
-0.488805 -0.676905 1.449906 0.890337 0.393117 -0.121072 
0.552692 -0.131243 0.410539 0.923132 -0.073170 -0.360520 
-0.496518 -0.534930 1.660369 -0.810602 -0.539317 -0.043288 
-0.711313 -0.529250 2.224178 -0.820137 -0.520796 -0.204204 
0.451201 0.296426 0.308144 -0.687665 -0.224147 0.660064 
-0.501470 0.325241 0.482893 0.832182 -0.093013 0.504553 
0.885369 0.864812 1.524025 0.941871 -0.278676 -0.185025 
-0.420735 -0.180393 0.094432 0.375336 -0.114102 0.876794 
-0.611434 -0.375197 1.651952 -0.835155 -0.477548 -0.119782 
-0.084584 -0.433003 -0.233680 -0.300272 -0.405262 -0.853880 
0.214606 -1.107469 0.080419 0.446310 -0.223957 -0.788928 
-0.191272 0.726351 -0.205879 -0.435765 0.444499 -0.759935 
0.026901 0.008301 -0.348025 0.423818 -0.115891 -0.871778 
0.767497 -0.428659 1.294091 0.961674 -0.217922 -0.060064 
0.233290 -0.694941 0.099291 0.132565 -0.133862 0.860121 
1.076628 0.569364 2.363470 -0.943621 0.026056 0.162387 
-1.093141 0.157540 2.128765 -0.908389 -0.278977 -0.281191 
-0.819771 0.225306 1.565725 0.919527 0.153736 0.246598 
-0.939681 -0.133056 2.083646 -0.893811 -0.418948 -0.124943 
0.297569 -0.047723 -0.199136 0.567372 -0.155270 -0.795425 
-0.575477 0.250105 0.620021 0.870661 -0.153881 0.448687 
-0.195512 -0.615905 0.120322 -0.248027 -0.193422 0.918959 
0.244961 0.613583 0.324251 0.455158 -0.130098 0.852062 
-0.609251 -0.410807 1.530384 -0.892787 -0.402760 -0.020408 
0.565736 0.471148 0.316876 0.899783 0.331513 -0.242168 
-0.066148 0.187724 0.308821 -0.144627 -0.208109 0.960153 
-1.308024 0.888837 2.348592 -0.944891 0.111284 -0.220177 
-1.389395 0.827076 2.644587 0.850225 0.435689 0.244029 
0.778211 -0.323335 1.711728 0.804288 -0.506569 -0.152508 
1.020958 0.935993 2.073752 0.955035 0.187710 -0.056855 
-1.139470 0.128996 2.393317 0.923689 0.286948 0.116290 
-0.538151 -0.905630 0.626399 0.789433 -0.011816 0.404848 
0.441158 -1.113234 0.190378 0.632146 0.372767 -0.662503 
-1.171060 0.242332 3.196046 0.886616 0.440274 -0.058999 
0.920621 0.769022 1.741535 -0.823691 -0.320584 0.381901 
-0.652252 -0.437503 1.227784 0.953937 0.207211 0.004664 
-1.007185 -0.049226 3.197719 0.887034 0.448867 -0.103906 
-1.006099 -0.210585 2.601114 0.893138 0.407106 0.055224 
-0.281103 0.170489 -0.229812 -0.585462 -0.070177 -0.798583 
-0.179710 -0.895214 0.012661 -0.215575 -0.260302 -0.935293 
-0.163604 1.170029 0.420550 0.468911 0.378800 0.753066 
0.435175 -0.393482 0.104766 -0.363647 -0.038053 0.867682 
0.746057 0.651986 1.234005 -0.854529 -0.276120 0.417100 
0.856769 0.791669 1.430222 0.946905 -0.266145 -0.173864 
0.157241 0.743547 0.336320 0.229989 0.063270 0.947679 
-0.369135 -0.304337 -0.089326 -0.809047 -0.161158 -0.544435 
0.854220 0.443798 3.348548 -0.866733 0.277266 -0.348840 
0.857711 0.088218 3.171225 -0.874660 0.307301 -0.345392 
-0.337337 0.188179 -0.189087 -0.635989 -0.075636 -0.750670 
0.987791 0.374092 3.081683 -0.902826 0.100538 -0.374858 
0.682995 -0.734107 0.814215 0.948285 0.057029 -0.274226 
-0.431709 0.365147 0.289434 0.730726 -0.112465 0.620020 
0.301267 -0.950696 0.085748 -0.352977 0.026492 0.927172 
0.884635 0.146227 1.539901 0.943839 -0.282443 -0.170867 
-1.314435 0.634390 2.618454 0.913250 0.281492 0.176528 
-0.155085 -0.549774 0.148658 -0.224998 -0.213858 0.949528 
-0.541259 0.090124 0.459351 0.783139 -0.131715 0.507328 
-0.656006 -0.240814 0.826077 0.965754 0.089409 0.205426 
0.175297 -0.659234 -0.081497 0.183129 -0.357014 -0.915000 
-0.163785 1.005697 -0.065106 -0.586913 0.413333 -0.682561 
-1.292591 0.522887 2.430696 -0.965931 -0.152197 -0.188059 
-0.662561 0.273465 0.574443 -0.964540 -0.031596 -0.250429 
-0.755636 0.413189 1.179474 0.898031 -0.037936 0.366204 
-0.752746 -0.534692 2.337551 -0.820847 -0.524937 -0.201202 
-0.425709 -0.013233 -0.045718 -0.860523 -0.101396 -0.493434 
-0.427893 -1.121589 0.195484 0.564612 -0.370547 0.651319 
-0.809724 0.262546 1.500144 0.915674 0.118637 0.268032 
-0.904615 -0.346946 2.365823 -0.864161 -0.483514 -0.124701 
-0.451685 -0.644193 1.759899 0.823229 0.543337 0.019523 
0.664026 0.615854 1.058522 -0.959208 0.049859 0.251031 
-1.178891 0.875776 2.036841 -0.958842 -0.208763 -0.178809 
0.055294 0.451000 0.370072 0.137085 -0.150746 0.966815 
-0.965183 -0.287115 2.636084 -0.855530 -0.498180 -0.095310 
0.948265 -0.124276 2.096106 -0.792080 0.408153 0.344705 
-0.723640 0.620948 0.925033 0.925440 0.341565 0.117033 
-0.669055 -0.556764 2.170203 -0.812931 -0.525583 -0.217692 
0.870006 0.312661 1.486719 0.945891 -0.274870 -0.169104 
0.666038 -0.545594 1.395512 -0.898334 0.342222 -0.056695 
-1.110175 0.115737 2.186098 -0.898847 -0.319739 -0.289992 
0.180294 -0.587660 -0.109987 0.105533 -0.415356 -0.885282 
-1.249263 0.311188 2.630965 -0.958113 -0.256981 0.045054 
0.497759 0.169349 0.416465 -0.759746 -0.179340 0.558846 
-1.088004 0.672845 1.920409 -0.832584 -0.409118 -0.308096 
0.651497 -0.775345 0.758980 0.919008 0.039341 -0.314273 
0.297580 0.389981 -0.227833 0.600900 0.023804 -0.792062 
0.089537 -0.176428 -0.291418 0.419828 -0.208601 -0.857740 
-1.258077 0.521711 3.375438 0.937490 0.296657 -0.124882 
0.069022 0.969898 -0.127827 0.452859 0.465821 -0.743817 
-0.413386 0.697623 0.115642 -0.474147 0.872961 0.037204 
-0.541184 0.002912 0.266827 -0.909915 -0.087457 -0.376458 
1.060134 0.233121 2.817757 0.926398 -0.151304 0.331932 
0.584050 0.342270 0.363941 0.954315 0.031319 -0.245608 
0.908182 -0.047242 1.589426 0.919582 -0.254828 -0.247144 
-1.002711 0.887787 1.701851 0.807478 -0.215676 0.507217 
-0.733334 0.425394 0.785217 -0.947773 -0.058779 -0.254167 
-0.220646 1.127169 0.180093 -0.884136 0.458147 0.000331 
1.079449 0.533866 2.650641 -0.946550 0.088631 -0.085681 
-1.219398 0.954397 2.133757 -0.915052 0.243366 -0.200704 
0.763938 0.353642 3.474186 -0.864833 0.176590 -0.459570 
0.412954 -0.920400 0.330833 -0.565705 -0.002863 0.714448 
-0.581265 0.367153 0.292412 -0.933250 0.063454 -0.297180 
-0.830712 -0.399068 2.291998 0.760827 0.484078 0.326769 
-0.406663 -0.653377 1.607100 -0.828001 -0.550966 0.066619 
0.915249 0.699789 1.724642 -0.819334 -0.264014 0.408891 
0.417776 -0.456704 0.130923 0.832049 -0.144040 -0.497132 
-1.059397 -0.064082 2.408771 0.896805 0.366573 0.157024 
-1.019496 0.195607 1.942894 -0.958472 -0.191504 -0.140499 
-0.688024 -0.019979 0.737362 -0.964778 -0.143938 -0.199676 
0.142281 0.138115 -0.307766 0.523807 -0.046601 -0.837945 
-0.585082 -0.170073 0.546238 0.819691 -0.005304 0.408431 
-0.687441 0.560771 0.909955 0.947104 0.210023 0.219368 
0.397993 -0.854400 0.302171 0.708133 -0.140560 -0.613172 
-0.302040 -0.591769 0.084619 -0.188472 -0.107242 0.905787 
0.418954 -0.538806 0.159210 -0.419223 -0.011644 0.827699 
-0.730117 -0.206274 1.634515 -0.866938 -0.408492 -0.191203 
-0.161070 1.052898 0.411456 -0.019974 -0.154343 0.929159 
0.451353 -0.953901 0.403957 0.741148 -0.085449 -0.561014 
0.446085 -0.469595 0.207744 -0.464273 -0.015360 0.777543 
0.336961 -0.866076 0.146215 -0.423717 0.024817 0.864853 
0.531141 0.175563 0.279258 0.919246 -0.090976 -0.359380 
-0.635190 0.302652 0.480332 -0.953847 -0.002246 -0.267382 
0.797118 0.881189 1.349063 -0.750633 0.531401 -0.113748 
-0.322624 -0.181151 -0.154247 -0.603453 -0.205345 -0.735187 
0.518312 0.428125 0.088750 0.923645 0.097100 -0.317005 
0.339933 0.614600 0.259027 0.465228 -0.042120 0.798642 
-1.210721 0.551997 2.204268 -0.878901 -0.315313 -0.341164 
0.664962 -0.100881 0.899982 -0.937986 0.006038 0.300224 
-1.311576 0.525058 2.661262 0.921405 0.298989 0.142423 
-0.931350 0.368178 1.794469 0.885293 0.154994 0.366611 
-0.418208 -0.562408 0.166725 0.421890 0.004842 0.814586 
0.171723 1.118835 -0.003790 0.601869 0.435077 -0.629837 
0.298736 0.170599 -0.218641 0.602287 -0.075819 -0.785812 
