0.430138 -1.093432 0.205255 0.597079 0.303036 -0.714774 
0.948182 0.631205 1.526677 -0.870698 -0.242454 0.355920 
-0.693221 0.317070 0.840834 0.884990 -0.150885 0.425236 
0.244446 -0.789555 0.106896 0.170348 0.007073 0.921442 
-0.126485 -1.185746 0.010506 -0.697471 -0.196770 -0.667451 
0.577402 0.601502 0.522876 0.903112 0.227257 -0.276803 
0.552215 -0.169492 0.479204 -0.769091 -0.036887 0.521258 
1.069279 0.677942 1.910528 -0.868889 -0.267567 0.290493 
0.578467 0.141017 0.582313 -0.870251 -0.143590 0.438056 
-0.763313 -0.485539 1.745972 -0.738711 -0.512631 -0.347651 
-1.519996 0.364148 2.517713 0.888556 0.223090 0.349633 
0.736203 0.631594 0.964277 -0.919340 0.277611 0.205083 
0.373486 -0.209608 -0.110389 0.775726 -0.176989 -0.566294 
-0.684401 -0.618015 1.325376 -0.929743 -0.314321 -0.084986 
0.505140 0.613466 0.162458 0.892898 0.378475 -0.153763 
-1.507795 0.576788 2.521741 0.883934 0.200822 0.324996 
-0.571795 0.442496 0.211185 -0.937146 0.127401 -0.284292 
-0.536378 -0.066691 0.429487 0.758979 -0.061345 0.522727 
-0.106937 -1.104960 -0.009714 -0.459927 -0.134750 -0.852384 
0.721850 0.197359 0.947429 -0.875091 -0.116207 0.419248 
-0.513363 0.257037 0.136487 -0.906026 -0.083415 -0.402225 
0.515366 -0.218891 0.275812 0.890046 -0.108739 -0.428184 
-0.497390 0.519135 0.006016 -0.869223 0.193565 -0.377409 
-0.986717 0.873255 1.497157 -0.435968 0.684565 -0.554928 
0.287237 -0.213151 -0.210530 0.540443 -0.225671 -0.794396 
0.323467 -0.872345 0.138018 -0.345073 0.055865 0.902304 
0.608674 -0.260422 0.572585 0.917885 -0.080945 -0.372116 
-0.226441 0.578566 -0.260076 -0.513570 0.242005 -0.802358 
-0.886687 0.399220 1.312062 -0.905366 -0.335500 -0.245008 
-1.179129 -0.228282 2.168261 -0.857940 -0.406880 -0.289882 
-0.102877 -0.504362 -0.178257 -0.172370 -0.562400 -0.801395 
-0.096965 0.293844 -0.377956 -0.526681 0.038621 -0.838167 
-0.756921 0.249127 1.067053 0.881536 -0.052529 0.408880 
-0.555162 -0.981756 0.502249 -0.805937 0.161149 -0.449517 
0.208326 0.244409 -0.316944 0.594259 -0.018799 -0.793237 
-1.492633 0.351442 3.434049 0.951953 0.246991 -0.132756 
0.362348 -0.538941 0.023866 -0.098875 -0.024632 0.947898 
-0.317466 -0.099960 0.141367 -0.454900 -0.170595 0.843794 
0.654209 -0.435571 0.772185 -0.941881 0.031948 0.304914 
-0.233693 0.155527 -0.290373 -0.587596 -0.060711 -0.791621 
-0.170954 0.666998 0.342811 -0.238649 0.195306 0.929813 
0.552293 0.204226 0.306772 0.920666 -0.118792 -0.356765 
0.105685 0.280484 -0.376209 0.537038 0.025635 -0.833002 
0.885644 -0.363979 2.640972 -0.839694 0.463411 -0.194491 
-0.274876 0.629410 -0.236370 -0.535149 0.296292 -0.780814 
1.202168 0.609279 2.437789 0.998911 -0.007400 0.029686 
-1.097766 -0.556622 2.448943 0.808556 0.497733 0.292963 
0.576865 -0.839149 0.575140 0.833679 -0.032514 -0.473269 
-0.279418 -0.081474 -0.231871 -0.567434 -0.167964 -0.787309 
-0.897544 0.352202 1.369240 -0.900001 -0.341490 -0.257638 
0.912366 0.097158 3.118381 -0.832253 0.349391 -0.389149 
-0.288103 -0.344115 -0.187254 -0.529690 -0.279098 -0.787828 
1.097039 -0.086710 2.370543 -0.922959 0.321169 -0.046142 
-0.814568 -0.266479 1.419641 0.912039 0.271263 0.280499 
-0.995675 -0.230869 1.931158 0.712556 0.403130 0.558515 
-0.077548 1.114233 -0.072987 -0.409622 0.387877 -0.813191 
-0.337267 0.465213 0.212726 -0.031395 -0.157807 0.942761 
-0.586757 0.399721 0.556831 0.846225 0.387145 0.355029 
0.984186 0.191787 1.517223 0.931463 -0.288192 -0.219458 
-0.929806 0.293655 1.593579 0.878236 0.038514 0.375206 
0.225048 0.363365 -0.290575 0.592614 0.064860 -0.782308 
0.268071 0.277083 -0.285373 0.634620 -0.017581 -0.766616 
1.110816 0.778659 2.021489 0.996644 -0.029617 0.063203 
1.133191 0.140987 2.075849 0.975868 -0.070263 -0.091067 
1.108250 0.412688 2.030933 -0.928159 -0.090473 0.246866 
0.904581 -0.221069 2.787500 -0.845617 0.382095 -0.296083 
0.350953 -0.026720 0.101981 0.093465 -0.147297 0.942304 
-0.533628 0.442201 0.467031 0.836206 0.358060 0.397551 
-0.301122 -0.179182 -0.200130 -0.569697 -0.213749 -0.770885 
-0.579817 -0.021218 0.393149 -0.928603 -0.096706 -0.344598 
0.495818 0.206356 0.118367 0.903132 -0.095076 -0.410099 
1.164119 0.401475 2.713053 -0.947586 0.119243 -0.143441 
0.510450 0.435197 0.450619 -0.840661 0.347974 0.394747 
0.891827 0.804735 1.351355 -0.761493 0.550449 0.016549 
-1.000706 0.325374 1.679298 0.912842 -0.005814 0.312834 
-1.277188 0.511054 2.033039 -0.789559 -0.356144 -0.457772 
0.647695 -0.685711 1.741025 -0.795064 0.572339 -0.121321 
0.793005 0.038650 3.285820 -0.802899 0.325331 -0.494883 
0.035050 1.404533 0.082831 0.495451 0.785441 0.347592 
-0.645643 -0.749201 0.717071 -0.948270 -0.016228 -0.270588 
0.413925 0.059776 0.124880 -0.486815 -0.166724 0.806859 
0.665175 -0.129427 0.712599 0.938730 -0.089191 -0.324070 
0.208866 0.756679 -0.191656 0.517908 0.500555 -0.672157 
-1.095313 0.886207 1.768296 0.683060 -0.006858 0.706358 
0.374818 -1.110614 0.163270 -0.396217 -0.221304 0.775945 
-0.904380 -0.438211 1.970172 0.867792 0.436599 0.147415 
-0.452877 0.124726 0.228005 0.624377 -0.177213 0.700924 
0.005375 0.407668 0.326629 0.024731 -0.251052 0.965351 
0.954473 0.302455 3.194170 0.842090 -0.215213 0.478555 
0.737837 -0.604760 2.168251 -0.777430 0.570414 0.089731 
-1.003251 0.903961 1.588623 0.699237 0.587992 -0.043777 
0.578025 0.250399 0.357512 0.934156 -0.086955 -0.326074 
0.576476 -0.112165 0.563286 -0.862877 -0.046237 0.443438 
-0.849456 -0.717930 2.245434 -0.763728 -0.543767 -0.331658 
-0.685851 -0.036902 0.842758 0.925851 0.013525 0.337467 
0.465006 0.535075 0.332426 -0.816077 0.340527 0.451530 
0.278992 0.517821 -0.251770 0.568962 0.161874 -0.788633 
0.973807 -0.221154 1.880740 -0.879520 0.370190 0.054855 
0.721210 -0.807820 1.032106 -0.969816 0.147891 0.137667 
-0.217108 0.230660 0.240432 -0.281313 -0.208087 0.936333 
1.182795 0.291336 2.565532 -0.901117 0.323914 0.079682 
1.089918 -0.002220 1.927439 0.960270 -0.149018 0.159789 
-0.552855 -0.163504 0.459490 0.758059 -0.018002 0.501714 
-0.863390 -0.200024 1.558168 0.897658 0.297627 0.312475 
-1.465587 0.212970 3.351910 -0.932331 -0.333338 0.113512 
0.823046 -0.453974 1.499184 0.871534 -0.420994 -0.064215 
-0.740268 -0.099527 1.064740 0.918243 0.107353 0.327080 
-0.834219 -0.310533 1.507847 -0.899967 -0.332738 -0.254244 
0.886539 -0.403916 2.001765 -0.724803 0.504015 0.384462 
-0.003107 1.261310 0.233752 -0.073459 0.781189 0.617055 
-0.874657 0.617486 1.328771 0.859681 -0.186206 0.448560 
-1.275713 -0.191964 2.391337 0.866754 0.362589 0.276979 
1.106309 0.857145 2.102798 0.862833 0.410172 0.062405 
-0.545206 0.444486 0.132563 -0.927994 0.126521 -0.306238 
-0.712481 0.311824 0.760246 -0.945807 -0.209696 -0.232494 
0.685103 0.382606 0.709457 0.863691 0.303770 -0.357647 
0.571325 0.417903 0.229940 0.941713 0.093186 -0.283729 
-0.297008 0.204484 0.184088 -0.270217 -0.209423 0.938906 
1.083272 0.355839 1.849470 0.958678 -0.160896 0.042587 
0.235156 -0.770344 -0.026860 -0.081463 -0.379930 -0.906774 
0.565473 -0.787013 1.696151 0.765271 -0.632336 0.064746 
0.844350 -0.435598 1.573791 0.851627 -0.450666 -0.104180 
-1.584437 0.463809 3.097878 0.978083 0.117592 -0.085675 
1.162269 0.422174 2.643940 -0.948570 0.101384 -0.089592 
0.770006 0.429602 0.952879 0.947520 -0.227489 -0.217741 
-1.401332 0.687143 2.198202 -0.933797 -0.118980 -0.332111 
-1.481473 0.169898 2.623672 0.937430 0.287382 0.088034 
-0.697319 -0.524539 1.194948 -0.940763 -0.260854 -0.124540 
0.034204 0.995991 0.387277 0.168447 0.010237 0.980362 
0.771081 0.500362 0.901098 0.916749 0.006796 -0.342544 
-0.103954 -0.992856 -0.030777 -0.327514 -0.153645 -0.916291 
0.477026 -0.441328 0.294472 -0.538388 0.013594 0.710523 
0.138792 -0.091194 -0.315227 0.483619 -0.144117 -0.845805 
-0.416450 0.537832 -0.107746 -0.736351 0.197962 -0.566299 
1.141306 0.478323 2.556125 -0.937052 0.081350 -0.045518 
0.090076 0.051276 -0.362827 0.486888 -0.074699 -0.855245 
-0.554140 -0.289356 0.394682 -0.909838 -0.129084 -0.367358 
-1.089350 0.112641 1.767275 -0.647473 -0.255071 -0.697588 
-0.616657 -0.472804 0.662029 0.908621 0.020987 0.329523 
0.850827 -0.438618 2.619754 -0.830981 0.510702 -0.160366 
-0.087831 0.434445 -0.348149 -0.492579 0.161199 -0.837588 
1.150054 0.056909 2.368776 -0.948191 0.249729 -0.002574 
-1.415729 0.037391 3.084219 0.889133 0.427972 0.018679 
0.860519 -0.269104 2.821898 -0.835127 0.416718 -0.290572 
-0.689012 -0.584302 1.253187 0.948582 0.249715 0.101744 
0.414720 0.499127 -0.119393 0.743541 0.141759 -0.580017 
-0.513303 0.266897 0.406525 0.763635 -0.204190 0.577306 
0.708878 -0.843895 0.912933 -0.949743 0.043517 0.238406 
0.000568 0.732427 -0.278603 0.279208 0.458868 -0.842358 
1.075665 0.769856 2.110591 -0.908176 -0.016439 0.252793 
0.996133 0.380502 1.539561 0.928677 -0.288135 -0.231004 
0.270017 -0.517956 -0.144711 0.379403 -0.322819 -0.823933 
1.052621 0.912981 1.886859 -0.801459 0.422640 0.281889 
0.001341 -0.932974 -0.054348 0.640830 -0.128524 -0.744056 
0.999907 0.110517 2.982872 0.850332 -0.202834 0.469604 
0.853236 -0.178773 1.251052 -0.932136 0.151884 0.265329 
0.633531 0.396731 0.627390 0.852657 0.354617 -0.351375 
0.700825 -0.650904 1.412944 -0.856279 0.447921 -0.019262 
-0.039440 0.531789 0.357063 -0.103376 -0.199482 0.967343 
-0.387454 -0.769892 0.260489 0.500643 0.059188 0.760474 
0.910727 -0.382816 2.564136 0.826148 -0.547481 0.111251 
-1.057349 0.933892 1.705018 0.710497 0.020581 0.694638 
0.199212 0.635514 0.336446 0.288101 0.213563 0.897999 
0.456049 0.658976 -0.015379 0.756779 0.517181 -0.319515 
1.184687 0.259575 2.472566 -0.968371 0.146044 0.036690 
-0.500766 0.042783 0.348157 0.714530 -0.120417 0.592054 
-0.496194 0.642194 0.319960 0.806605 0.340902 0.465678 
0.752391 0.541813 1.048316 -0.841426 -0.228183 0.477516 
-1.497695 0.181101 2.734883 0.846784 0.478294 0.188686 
0.092665 -0.156867 -0.317784 0.427290 -0.210607 -0.851572 
0.391709 0.073113 -0.110368 0.770624 -0.143863 -0.562342 
0.972792 -0.138789 1.549395 -0.942043 0.192235 0.176478 
-1.197714 -0.239915 2.246726 0.764795 0.399059 0.435959 
0.130520 0.494231 -0.323169 0.501342 0.188164 -0.832144 
-0.492445 -0.861669 0.464539 0.683458 0.011486 0.558429 
-0.087784 0.185700 -0.381552 -0.513947 -0.018573 -0.847078 
-1.220090 0.358524 1.961869 -0.838223 -0.174546 -0.482347 
-0.614451 0.244744 0.453526 -0.937728 -0.102886 -0.315219 
-1.397653 -0.011233 2.927600 0.864341 0.470579 0.094784 
-1.505581 0.295579 2.547191 0.861640 0.321846 0.324997 
0.323052 0.250223 0.172163 0.227211 -0.200694 0.949489 
1.096692 0.265978 2.929141 0.893875 -0.202711 0.385322 
0.811943 0.355138 1.178540 -0.862362 -0.138707 0.407938 
-1.288053 0.585010 2.088655 0.829209 0.090017 0.521496 
0.543205 0.388822 0.162290 0.930275 0.060040 -0.318669 
-1.566865 0.744176 2.485671 -0.928767 0.121297 -0.335617 
-1.260035 0.692848 2.054006 0.764880 0.071676 0.570976 
-0.783945 0.147460 1.189882 0.884354 0.030250 0.387418 
1.074755 0.849927 1.862713 0.995646 -0.036571 0.078356 
-0.497840 -0.460096 0.383287 0.635574 0.040043 0.605366 
0.022581 1.364898 -0.019392 0.438687 0.354389 -0.781567 
-0.943454 0.218889 1.575684 -0.877035 -0.363067 -0.307866 
0.138499 -0.992950 0.055196 -0.426624 -0.074402 0.865343 
0.742769 -0.288631 3.057422 -0.808352 0.450104 -0.364175 
-0.857432 -0.499676 1.968848 0.850934 0.456411 0.169929 
-0.911760 -0.317789 1.779434 -0.714929 -0.462207 -0.468599 
0.929608 0.451366 3.266906 -0.819560 0.358113 -0.367493 
1.092244 0.323659 1.760156 0.963785 -0.129580 -0.071920 
0.804902 -0.484823 1.630197 -0.846676 0.457687 -0.129091 
-0.551345 0.011972 0.299543 -0.919090 -0.092195 -0.369135 
0.348819 0.797537 0.131057 0.873605 0.401035 0.144593 
-0.342933 0.212818 -0.214604 -0.685379 -0.062252 -0.704336 
-0.184332 -0.574182 0.125373 -0.283775 -0.187416 0.937335 
-0.527839 -0.388534 0.429133 0.685138 0.037810 0.552983 
-1.329298 0.455735 2.142060 0.826728 0.031428 0.503178 
0.237658 1.230128 0.438716 0.766656 -0.404349 -0.491976 
-1.100091 -0.413977 2.268450 0.668148 0.459865 0.483949 
0.579858 -0.773241 1.571974 0.769453 -0.624069 0.106530 
-0.579940 0.164556 0.561076 0.855346 -0.147704 0.454913 
0.579109 -0.571738 0.573052 0.855069 -0.068006 -0.442996 
-0.267175 -0.155470 0.160905 -0.476781 -0.157679 0.832266 
-0.508140 -0.538502 0.445956 -0.810843 -0.154894 -0.469022 
1.124010 0.110398 2.766776 0.865468 -0.445598 0.161406 
-0.227480 -0.292123 0.165987 -0.412029 -0.102709 0.869523 
0.893938 -0.029086 1.294232 0.940061 -0.261949 -0.207967 
-0.105725 1.281768 0.039033 -0.711638 0.576868 -0.388868 
0.441918 -0.208382 0.053455 0.863980 -0.132499 -0.475758 
-1.034187 -0.408186 2.126915 -0.847105 -0.475003 -0.222014 
0.647563 -0.712508 2.181707 0.779809 -0.619055 0.020594 
-0.787836 0.634669 1.138745 0.927516 0.092508 0.327277 
0.149693 -0.216772 0.201013 0.226091 -0.084665 0.968253 
0.591920 -0.965454 0.544825 0.801769 0.151209 -0.500706 
-0.167208 -0.458116 -0.200807 -0.338003 -0.422219 -0.824164 
-1.587785 0.364351 2.830811 0.956006 0.266282 0.098884 
-0.616472 0.627985 0.608104 0.921553 0.054072 0.378612 
-0.375512 0.178726 -0.159601 -0.743963 -0.088154 -0.622546 
0.506815 -0.027061 0.200592 0.896787 -0.091261 -0.424185 
0.607234 -0.155787 0.641562 -0.911624 -0.021164 0.384893 
0.430229 0.139580 -0.071561 0.877592 -0.099501 -0.466002 
0.948173 -0.325063 2.542938 -0.856302 0.433305 -0.165046 
0.014607 -0.356695 0.202874 0.079429 -0.019504 0.995889 
-0.790489 0.538499 1.100395 0.860793 -0.190273 0.459246 
-0.474027 0.654646 0.253531 -0.862849 0.498547 -0.052438 
-1.262665 -0.290919 2.851128 -0.852074 -0.485319 -0.112422 
0.413720 -0.779603 0.331144 -0.540375 0.038886 0.725311 
-0.750589 0.499320 0.992692 0.861402 -0.191158 0.464017 
0.405013 -0.020946 -0.090663 0.837114 -0.132812 -0.507191 
0.540768 -0.914324 0.521131 0.797729 -0.049482 -0.515409 
-1.352274 0.555224 2.119301 -0.899689 -0.177931 -0.393342 
1.033220 -0.238184 2.362077 0.894119 -0.421022 0.026363 
0.994348 -0.204753 1.575247 0.916565 -0.283617 -0.247522 
-0.623261 -0.071442 0.539227 -0.942188 -0.108289 -0.307273 
-0.705186 -0.495411 1.541335 -0.870411 -0.416708 -0.189688 
-0.040359 0.231717 -0.415951 -0.496891 0.010089 -0.863024 
0.530437 -1.017690 0.411354 -0.702409 -0.238175 0.598772 
0.439443 -0.033855 0.000883 0.872034 -0.114801 -0.468646 
-0.837188 -0.055774 1.350312 -0.907353 -0.310443 -0.268647 
-0.131080 0.540619 0.351887 -0.283832 -0.193016 0.935128 
-1.527577 0.347728 3.258046 -0.947941 -0.287331 0.088233 
-0.988027 -0.517875 2.202353 -0.818550 -0.500010 -0.259313 
-0.417266 0.582912 0.243918 0.724059 0.310960 0.516752 
0.465377 0.318048 0.354237 -0.761598 -0.133112 0.588330 
1.080136 0.495377 1.724221 0.988999 -0.111475 0.054154 
-0.169618 0.088253 -0.319823 -0.539951 -0.075488 -0.820599 
0.636681 0.009188 0.724491 -0.908687 -0.079355 0.389951 
-0.836801 -0.147640 1.382193 -0.904005 -0.305046 -0.284482 
0.279908 0.942348 0.220868 0.882123 0.197379 0.377760 
-0.311611 -0.327523 0.131456 -0.617220 -0.135595 0.759156 
-1.449787 0.254701 2.378063 -0.761903 -0.416827 -0.477252 
-0.325107 0.850282 0.060235 -0.892417 0.409571 -0.172762 
-0.204436 0.436174 0.298984 -0.256362 -0.202618 0.940507 
-0.580118 -0.949617 0.575107 0.825979 -0.130520 0.412607 
0.648638 -0.196939 0.743642 -0.930979 0.014563 0.351494 
-0.179562 -0.005628 0.207665 -0.312053 -0.167444 0.918529 
-0.028490 0.937080 0.379709 -0.168165 -0.039678 0.974598 
-0.592940 0.255369 0.375298 -0.932637 -0.082489 -0.333033 
-0.499116 -0.308708 0.285490 0.546521 0.000533 0.680708 
1.157835 0.140190 2.285349 -0.966677 0.182105 0.116717 
-1.072492 0.190737 1.734486 -0.686877 -0.277203 -0.628549 
-1.323235 -0.039903 2.306525 0.876003 0.309941 0.313010 
1.027387 0.368257 3.119397 0.865580 -0.188633 0.447952 
0.493770 0.631104 0.232698 0.893033 0.420143 -0.082869 
-0.434174 -0.132930 0.133235 0.454360 -0.098915 0.812851 
0.197465 0.238134 0.253709 0.284395 -0.207353 0.935484 
-0.054144 -0.459932 0.182377 -0.127294 -0.172278 0.973680 
-0.913168 0.132398 1.590974 0.886544 0.122583 0.350735 
0.684451 -0.662201 2.113770 0.789983 -0.599131 0.041218 
0.149596 -0.593544 0.130280 0.246535 -0.197143 0.948680 
0.609943 0.346449 0.689962 -0.887455 0.223961 0.335483 
0.019456 0.267808 -0.427067 0.487085 0.037247 -0.868835 
0.847162 -0.466639 2.014657 0.829996 -0.527334 0.121973 
-0.057277 0.243732 0.277667 -0.098527 -0.239425 0.957652 
0.690403 0.278892 0.741294 0.949292 -0.180588 -0.250647 
-1.053576 0.269790 1.800358 0.857007 0.095925 0.452113 
-0.448338 -0.506515 0.236871 0.480638 0.026874 0.749831 
-1.105828 0.771253 1.737975 -0.817987 -0.425115 -0.344144 
0.624192 -0.942829 0.609063 0.840143 0.131141 -0.460112 
0.615213 -0.751950 1.435158 -0.809199 0.548356 -0.106760 
0.780269 0.319845 1.099029 -0.858392 -0.131417 0.424467 
-0.616195 -0.542885 0.637896 -0.916918 -0.075775 -0.320351 
0.965405 0.046865 2.973948 -0.844624 0.413895 -0.292570 
0.657128 -0.903471 0.694035 -0.872162 -0.093117 0.421155 
-0.343679 -0.386460 -0.124842 -0.731340 -0.211645 -0.611121 
-0.931109 0.529954 1.394061 -0.893875 -0.353569 -0.262282 
1.035251 -0.175861 1.872395 0.896325 -0.381097 -0.064462 
1.168025 0.504194 2.864326 0.937822 -0.105175 0.273011 
0.328182 -0.365834 0.121916 0.651599 -0.127895 0.739269 
-0.852280 -0.240723 1.493479 -0.896155 -0.323954 -0.291795 
-0.414707 -0.691669 0.279123 -0.733154 -0.185976 -0.579866 
-0.096477 0.777550 -0.219020 -0.453836 0.408973 -0.775346 
-0.331640 0.033173 0.135277 -0.290691 -0.183022 0.912984 
0.636007 0.100137 0.727103 -0.900814 -0.115070 0.400275 
0.784416 0.497036 0.986640 0.947506 -0.239808 -0.210890 
-1.055353 0.406564 1.776005 0.698318 0.090042 0.680441 
-1.106777 -0.073565 1.916826 -0.925679 -0.268104 -0.205923 
-0.947722 0.851416 1.405134 0.679630 0.632073 -0.046560 
-0.795629 0.031046 1.146040 -0.923394 -0.268929 -0.248565 
-1.007815 0.471693 1.611713 -0.834401 -0.359377 -0.370487 
-1.191517 0.118767 1.950135 -0.915432 -0.133190 -0.331526 
0.712532 -0.759242 1.194274 0.925696 -0.311322 -0.045860 
-1.498819 0.224482 2.541768 -0.883265 -0.343951 -0.252803 
-1.028274 0.666728 1.708032 0.657314 0.003345 0.741524 
-1.139152 0.843737 1.856566 0.706980 0.016174 0.654854 
1.175851 0.778805 2.466206 -0.922119 0.289628 0.123388 
1.014556 0.484682 3.189604 0.822356 0.040849 0.534151 
0.715948 -0.604457 1.937412 0.770106 -0.601965 -0.143879 
0.621909 -0.081032 0.682618 -0.922346 -0.046934 0.371522 
-0.112669 0.862537 0.357476 -0.259692 -0.121278 0.952821 
0.299638 -0.494308 0.103105 0.519379 -0.136715 0.820322 
-0.662038 -0.868088 0.823693 0.968970 -0.021419 0.209810 
0.869399 0.407864 1.322148 -0.870999 -0.146368 0.375360 
0.787281 -0.271712 2.980973 -0.818584 0.432302 -0.344092 
-1.168081 -0.308898 2.272392 0.743977 0.422650 0.435453 
1.071238 0.408185 1.800960 0.952430 -0.198378 0.074791 
0.407266 0.587711 0.215192 -0.506137 0.376949 0.556231 
0.758867 0.284815 3.443430 0.794340 -0.218829 0.557955 
-0.745271 -0.444721 1.296948 -0.926871 -0.283402 -0.172206 
0.732023 0.374902 0.982779 -0.849504 -0.191327 0.459870 
-1.321698 0.000013 2.240629 0.862908 0.306814 0.379370 
-1.168888 0.679615 1.875531 0.753115 -0.186433 0.565179 
0.857042 0.740683 1.316367 -0.794245 0.453619 0.072483 
0.651435 -0.782912 1.294296 -0.872050 0.413166 -0.032941 
0.828316 0.560987 1.097292 0.942824 -0.248573 -0.219759 
0.898990 0.796164 1.431207 -0.811722 0.397768 0.114789 
1.076109 0.540330 1.910376 -0.892804 -0.200225 0.285323 
-0.578687 0.281303 0.308123 -0.931362 -0.041920 -0.339785 
-0.576558 0.092384 0.549140 0.855442 -0.113999 0.446375 
0.104481 0.069506 0.227274 0.194577 -0.173457 0.961453 
0.452753 0.266237 -0.038866 0.892185 -0.075189 -0.440062 
1.122162 0.136297 2.006035 0.979207 -0.046942 -0.021818 
0.166717 1.218459 0.125636 0.702276 0.665542 -0.136516 
-0.819911 0.315767 1.135634 -0.926300 -0.306086 -0.207003 
1.120475 0.675031 2.058823 0.987353 0.040597 0.113036 
0.330743 0.178718 -0.224585 0.664193 -0.073749 -0.724471 
1.196252 0.738342 2.526173 0.975697 0.152087 0.055909 
-0.434734 0.351542 0.276771 0.735850 -0.108236 0.620966 
0.411347 -0.499272 0.074791 -0.318558 0.007958 0.904022 
-0.861289 0.782523 1.183749 -0.682612 0.387577 -0.482460 
-0.316792 0.694101 -0.186888 -0.548496 0.450796 -0.683876 
0.354374 -0.899881 0.234260 -0.434891 0.051217 0.823995 
1.057089 0.848250 1.949649 -0.900844 -0.055008 0.361705 
0.149826 -1.104715 0.035192 0.590528 -0.231380 -0.715291 
0.132233 -1.185415 0.023650 -0.727798 0.053193 0.656268 
0.792875 -0.373184 2.834682 -0.818671 0.486356 -0.257494 
1.023674 -0.030970 1.624033 0.906245 -0.250203 -0.305028 
-1.072729 0.077958 1.833147 0.942808 0.125712 0.292580 
-0.213892 -0.338488 -0.231493 -0.475956 -0.278139 -0.822342 
0.513127 0.221788 0.419144 -0.778184 -0.190876 0.555756 
0.256454 -0.348476 0.150540 0.476061 -0.096558 0.834884 
-1.118101 0.876081 1.696782 -0.866009 -0.218248 -0.447515 
0.656404 0.387502 0.821212 -0.863427 -0.186771 0.459702 
-1.240393 0.447743 1.983206 -0.815188 -0.269035 -0.464478 
-1.185656 -0.148443 2.115970 0.693250 0.370651 0.547351 
1.085212 -0.022848 1.857719 0.959968 -0.189966 0.068289 
0.635543 -0.695413 0.662488 0.893687 -0.007927 -0.402502 
-0.844165 0.699258 1.119993 -0.674659 0.434851 -0.522231 
-0.748013 -0.434595 1.508088 0.897298 0.346386 0.208160 
-1.289372 0.696689 2.156958 0.788583 0.094735 0.480994 
0.705289 -0.730716 1.263738 0.898662 -0.365692 -0.020668 
-1.269945 0.191229 2.076100 0.827578 0.145471 0.537705 
-0.768646 0.023917 1.036560 -0.931413 -0.238542 -0.246504 
-0.514699 -0.355827 0.345802 0.598047 0.023725 0.627794 
-0.926410 0.272168 1.500111 -0.887192 -0.356520 -0.286430 
-0.896483 0.610807 1.396740 0.860666 -0.168849 0.441160 
-0.005500 -0.369984 -0.302810 -0.296836 -0.396524 -0.859550 
1.040632 0.786955 1.868773 -0.905409 -0.046917 0.353757 
-0.144825 -0.721233 0.114987 -0.012150 -0.139676 0.911046 
-0.603699 0.017784 0.466616 -0.934717 -0.111757 -0.324573 
-0.561172 -0.082258 0.354116 -0.920189 -0.102403 -0.360513 
-0.755491 -0.398499 1.617262 0.872889 0.399079 0.231313 
0.345303 -0.832142 0.207654 0.642905 -0.207243 -0.689326 
-0.229050 -0.071723 0.182583 -0.400523 -0.166555 0.871976 
0.376546 -1.044908 0.202328 0.606232 0.033377 -0.719670 
-1.344773 0.125911 2.204139 -0.820437 -0.299582 -0.465201 
-0.070472 -0.729074 0.117167 -0.191353 -0.199093 0.921878 
-0.806077 0.444327 1.030493 -0.935360 -0.297085 -0.183599 
0.764843 -0.588143 1.385820 0.883994 -0.395778 -0.041071 
-0.343638 0.551342 -0.208087 -0.619639 0.200378 -0.732138 
-1.143412 -0.145558 2.047432 0.632162 0.365419 0.621258 
1.156751 0.213534 2.677633 -0.924273 0.265137 -0.151539 
-0.894781 -0.237709 1.623635 -0.841790 -0.369991 -0.355291 
-0.361836 -0.207324 -0.120092 -0.737205 -0.189395 -0.600400 
1.218469 0.581042 2.514582 0.999269 -0.002617 0.024572 
0.680452 -0.203007 0.822032 -0.932450 0.040041 0.335835 
-1.401146 -0.019303 2.688285 0.947867 0.258164 0.024447 
-0.105538 1.185365 0.329881 0.309511 0.584320 0.714920 
0.999530 0.308069 1.551636 0.928998 -0.289916 -0.227565 
0.058139 -0.281246 -0.302982 0.362072 -0.312228 -0.853875 
0.540088 -0.812820 1.850953 -0.771658 0.629452 -0.019892 
1.031427 -0.210906 2.135598 -0.823981 0.409873 0.249441 
-0.647774 0.412442 0.779169 0.907129 0.147500 0.341712 
0.270545 0.848812 -0.056168 0.697857 0.467311 -0.475650 
-1.012409 0.689247 1.581736 -0.870254 -0.388232 -0.302411 
-0.216011 0.531039 0.300571 -0.235595 -0.184035 0.948652 
0.819937 -0.360048 1.195586 -0.948728 0.177373 0.220565 
-0.801254 -0.350183 1.452156 0.916792 0.288020 0.234965 
-1.112433 -0.451805 2.336378 0.711936 0.471201 0.422024 
-0.316013 0.839272 0.205003 -0.851751 0.299154 0.401349 
-0.433893 0.623461 -0.059899 -0.741157 0.355689 -0.465265 
-0.710358 -0.447743 1.198695 0.940919 0.221953 0.176001 
-0.145741 -0.796575 0.106474 0.142362 -0.100697 0.887572 
-0.316332 -0.006960 -0.211178 -0.614532 -0.146080 -0.749288 
-0.638488 0.388500 0.610933 -0.842293 0.367545 -0.364535 
-1.154855 -0.371151 2.304411 -0.844086 -0.456740 -0.262264 
-1.059569 0.949577 1.622572 -0.396635 0.297341 -0.807096 
-0.150057 0.235069 0.274692 -0.263892 -0.205736 0.939660 
0.502705 -0.891328 0.462477 -0.649900 -0.012739 0.625226 
0.328595 0.004753 -0.193944 0.639779 -0.147728 -0.716573 
-1.264423 -0.292307 2.514123 -0.813971 -0.507903 -0.272308 
-0.694322 0.298827 0.689798 -0.952227 -0.148257 -0.246630 
0.868094 -0.467181 2.197597 0.830393 -0.533794 0.122390 
0.908888 -0.258746 1.388266 -0.943788 0.224836 0.218842 
0.952640 0.454597 1.423700 0.932102 -0.277492 -0.229546 
-0.331589 0.388889 0.196645 -0.144926 -0.186514 0.967028 
0.837997 -0.450668 1.713490 -0.842655 0.459343 -0.209990 
0.923128 -0.025796 2.984872 -0.838763 0.427382 -0.300711 
-0.106015 0.542111 -0.316267 -0.455377 0.233557 -0.841840 
1.136141 0.823504 2.261837 0.886881 0.377091 0.065060 
-1.332046 -0.078504 2.366618 -0.830807 -0.423557 -0.338741 
-0.512288 -1.026960 0.390042 -0.736459 0.237635 -0.538686 
1.110069 0.645854 2.380979 -0.922975 0.049624 0.077815 
-1.086586 -0.170340 1.949728 -0.896475 -0.357443 -0.212063 
-1.156819 -0.516534 2.515306 -0.826521 -0.506210 -0.241954 
-0.784497 0.440750 0.950458 -0.942273 -0.278704 -0.176374 
1.001717 0.919263 1.743459 -0.941206 -0.032387 0.320519 
-1.198563 0.423891 1.921120 -0.836947 -0.214039 -0.456018 
0.425846 -0.433411 0.106551 0.823143 -0.158151 -0.515685 
-0.505802 0.306388 0.083254 -0.907271 -0.023618 -0.392469 
1.014184 0.454218 1.582007 0.922436 -0.282787 -0.252535 
0.362199 -0.299695 -0.116328 0.759975 -0.192732 -0.583265 
1.036876 0.185696 1.815869 -0.958077 0.042603 0.103616 
1.095695 0.152462 1.787899 0.889355 -0.160490 -0.355251 
0.402089 -0.358166 -0.026878 0.841871 -0.161897 -0.509336 
-0.799571 -0.687292 2.125464 0.658055 0.517014 0.492419 
-0.151319 -0.943770 0.013251 -0.246447 -0.250755 -0.922539 
-0.680000 0.033507 0.701320 -0.950923 -0.151118 -0.259123 
0.340065 -0.251857 0.114368 0.494663 -0.137822 0.801540 
-0.823528 0.391994 1.247230 0.868678 -0.082123 0.424801 
0.099117 0.963536 0.371086 0.206882 -0.090086 0.967611 
-0.762633 0.273147 0.920736 -0.942664 -0.245332 -0.202682 
0.068339 -0.413348 0.193962 0.117114 -0.160168 0.978762 
-1.569635 0.386413 3.101357 -0.955213 -0.274642 0.045485 
-0.588448 0.161009 0.402451 -0.927396 -0.124065 -0.338606 
1.009166 0.592461 1.563656 0.925583 -0.287986 -0.243925 
0.658311 0.539484 0.710486 0.860831 0.250678 -0.404104 
0.743230 -0.286850 0.937047 0.940197 -0.141333 -0.278624 
0.947360 0.862574 1.490567 -0.704695 0.656065 -0.056635 
-1.191424 -0.005068 2.037952 0.751344 0.287519 0.558021 
-1.334957 -0.138908 2.950357 0.921913 0.354376 -0.006325 
-1.288742 -0.248591 2.597167 0.893810 0.363542 0.135639 
1.152699 0.327337 2.877090 0.915196 -0.189969 0.350863 
-1.434313 0.361261 2.312328 0.870655 0.145312 0.459408 
-0.718368 -0.352736 1.134340 0.937274 0.194869 0.227128 
0.925567 -0.015668 1.375010 0.938793 -0.278229 -0.201110 
0.080320 0.413147 0.329332 0.161620 -0.228663 0.948359 
0.146130 0.590846 0.355977 0.310587 -0.183797 0.931852 
-0.081987 0.846335 -0.203665 -0.457806 0.429485 -0.767802 
-0.552193 -0.782287 1.786600 -0.782159 -0.577780 -0.191288 
0.176506 0.031671 0.211817 0.306847 -0.175883 0.921119 
1.152135 0.499669 2.704490 -0.941384 0.129025 -0.129276 
0.592551 -0.668333 0.611105 -0.816407 -0.026767 0.469118 
-0.611251 -0.334824 0.645195 0.907867 0.043329 0.337866 
-0.619488 0.129289 0.506393 -0.937017 -0.132884 -0.311968 
0.298546 0.696998 0.290776 0.581005 0.209834 0.778988 
-0.404415 -0.826473 0.299975 -0.712500 -0.176734 -0.598566 
0.894372 -0.366075 1.379711 -0.950923 0.232963 0.185916 
1.029595 -0.068752 1.778688 -0.951285 0.139289 -0.143605 
1.010484 -0.135703 1.807681 -0.925333 0.216646 -0.190733 
1.040838 0.188256 2.969049 0.870245 -0.207649 0.428520 
-0.755146 -0.056102 1.009652 -0.932540 -0.219205 -0.258691 
-0.830715 0.036685 1.383371 0.885556 0.135553 0.362188 
-0.426213 0.105512 0.150396 0.544005 -0.186344 0.777078 
1.058986 0.653094 1.697122 0.980974 -0.107956 0.126879 
0.551014 -0.088047 0.492482 -0.805713 -0.064312 0.501568 
0.672426 -0.561904 0.825720 -0.945889 0.043527 0.276245 
0.315597 0.323707 -0.255093 0.653976 0.002094 -0.751863 
-1.225188 -0.289567 2.338763 -0.842524 -0.420998 -0.315528 
-0.626356 -0.653837 1.024850 0.966055 0.173090 0.083813 
0.778754 -0.537161 1.681935 0.781124 -0.576314 -0.081638 
0.727566 0.037094 0.952394 -0.898465 -0.037785 0.375969 
1.038473 -0.148135 2.525914 -0.888413 0.334473 -0.176289 
0.958096 0.888632 1.634960 -0.937182 0.231177 0.225913 
0.803100 -0.533500 1.198005 -0.960416 0.195357 0.164468 
0.810942 0.746606 1.141401 -0.847349 0.341966 0.162249 
0.161535 1.199149 0.047479 0.760600 0.534425 -0.316777 
0.724609 0.365011 0.831341 0.948812 -0.202815 -0.234580 
0.144784 0.291324 0.293888 0.263101 -0.216210 0.935549 
0.136742 -0.859626 0.092371 -0.246829 -0.087419 0.873049 
0.803710 -0.519575 2.046542 0.819179 -0.546942 0.100131 
-1.356958 -0.079737 3.148701 0.897437 0.425355 -0.015329 
0.685552 -0.631570 0.813106 0.942904 -0.059749 -0.283363 
-1.295029 -0.223162 2.529793 0.892498 0.351193 0.163510 
-1.378363 0.483481 2.189491 -0.756771 -0.401540 -0.501614 
-0.860437 0.712153 1.307443 0.907743 0.032597 0.366263 
-0.669833 -0.154031 0.801599 0.940761 0.055414 0.309205 
-0.433947 -0.372772 0.081007 -0.856331 -0.157641 -0.473289 
-0.230353 1.105007 0.099540 -0.873417 0.431920 -0.141449 
0.310609 -0.351073 -0.161427 0.588461 -0.265839 -0.727782 
0.924970 -0.396486 2.285042 -0.799509 0.499025 0.126054 
0.612083 -0.057167 0.535767 0.931506 -0.087097 -0.345829 
-0.163843 1.063104 0.242188 -0.557933 0.745131 0.125993 
-1.406108 -0.017191 2.854832 -0.858153 -0.471076 -0.115962 
-0.668032 -0.602693 1.739005 -0.743065 -0.553618 -0.279033 
-0.312989 0.809489 -0.018812 -0.760832 0.488242 -0.342466 
-1.491807 0.220412 3.195700 0.944383 0.279032 -0.075822 
-0.243161 0.676279 0.314664 -0.429983 0.207079 0.843867 
0.733567 -0.223668 0.892844 0.937147 -0.126520 -0.302224 
-1.248657 -0.319876 2.779464 0.878530 0.424362 0.109815 
-0.381956 0.648679 0.189502 -0.392591 0.271212 0.756068 
0.513165 0.327829 0.106973 0.916719 -0.004849 -0.365270 
0.662787 0.469337 0.856978 -0.922239 0.192008 0.302454 
0.201842 -0.053117 0.195345 0.364248 -0.162276 0.891139 
-1.247704 -0.330740 2.595963 0.874670 0.405485 0.166462 
-1.659275 0.597452 2.965726 -0.985654 0.101338 0.097951 
1.044987 0.268225 1.769217 -0.936323 -0.040164 0.026921 
0.619729 0.089918 0.544478 0.938272 -0.122613 -0.312715 
0.230270 1.088835 0.388906 0.305648 -0.664634 0.670604 
-0.927378 0.413330 1.553531 0.870874 -0.031413 0.398643 
0.778152 0.245968 1.089557 -0.869078 -0.098651 0.406624 
0.675930 -0.355354 0.841123 -0.944967 0.071042 0.285052 
-0.679449 -0.450248 1.031924 -0.947083 -0.213197 -0.159929 
-0.433493 -1.088347 0.211977 0.590052 -0.318883 0.707558 
0.619659 -0.514256 0.634282 0.893487 -0.045195 -0.398497 
1.137290 0.514464 2.440364 -0.938071 0.051568 0.043479 
0.755100 -0.555140 1.988548 -0.736215 0.551948 0.274396 
-0.137429 -0.423842 0.183817 -0.182328 -0.157463 0.969659 
-0.567161 -0.825243 0.593837 0.807367 -0.011810 0.422801 
-0.890137 0.375295 1.453477 0.871511 -0.031360 0.402845 
-0.195455 -0.847834 0.089276 0.237009 -0.051975 0.850594 
-1.249777 -0.172150 2.236076 -0.853132 -0.379423 -0.341306 
-0.256140 0.354358 0.246914 -0.232510 -0.203897 0.946347 
-0.685478 -0.541248 1.490313 0.892064 0.373243 0.161261 
0.545083 0.224699 0.500989 -0.823075 -0.184246 0.498411 
1.161580 0.613421 2.245124 0.990242 0.036842 0.086934 
-0.214191 0.860363 -0.128787 -0.583915 0.466398 -0.655316 
0.374763 0.716941 -0.057586 0.559670 0.714856 -0.295645 
1.091283 0.782707 1.930946 0.992471 -0.007898 0.091282 
0.646409 0.201456 0.758387 -0.887818 -0.152684 0.417690 
1.067925 0.190949 1.882300 -0.905300 0.057418 0.359371 
-0.183766 1.240912 0.309211 -0.871466 -0.444712 -0.177106 
-0.011805 0.176582 0.262521 -0.060863 -0.211612 0.972030 
-0.463077 0.281572 0.275046 0.691401 -0.233892 0.663162 
-0.228385 -0.749810 -0.039717 0.003675 -0.378206 -0.908368 
-0.270071 0.447432 0.253859 -0.181562 -0.191266 0.959307 
-0.196507 -0.984140 0.088839 0.394705 0.054084 0.874607 
-1.450689 0.098587 3.057256 -0.941370 -0.312930 0.069597 
-0.266290 0.977453 0.040947 -0.846037 0.363681 -0.301389 
0.355120 0.514859 -0.200121 0.646096 0.153975 -0.714018 
-0.161782 -0.093346 0.207095 -0.262650 -0.130660 0.946806 
-0.041073 1.380393 0.093605 -0.521947 0.744475 0.384699 
0.759445 -0.607283 2.337384 -0.812100 0.573733 -0.048800 
0.474482 0.429938 -0.026641 0.871264 0.087442 -0.413746 
-1.031460 -0.313416 1.987694 -0.869628 -0.451945 -0.193169 
-0.623744 -0.007465 0.662084 0.925008 -0.053998 0.352151 
0.319922 0.657318 -0.216177 0.558500 0.326089 -0.761222 
-0.983533 -0.457732 2.130394 0.592841 0.466452 0.580130 
0.809590 0.211597 1.165394 -0.874651 -0.060310 0.383937 
-0.475340 -0.067387 0.106236 -0.886065 -0.113782 -0.434702 
-0.110563 1.095427 0.354156 0.096470 0.139883 0.925820 
-0.005751 0.040198 0.230862 -0.078694 -0.159442 0.982961 
-0.823094 0.404290 1.104285 -0.928040 -0.305803 -0.199812 
-0.324192 0.070951 -0.214722 -0.636672 -0.115811 -0.737149 
-0.194981 0.656214 -0.257746 -0.469025 0.337932 -0.805734 
0.817234 0.208969 3.328440 -0.806996 0.208993 -0.529465 
-1.621911 0.543124 2.785440 -0.960147 -0.199946 -0.111080 
0.972344 -0.267599 1.600286 0.899897 -0.352488 -0.219940 
-0.226911 0.940030 -0.069495 -0.685484 0.385739 -0.605381 
0.938007 0.353884 1.487733 -0.890713 -0.089259 0.316924 
-0.583061 0.625806 0.525567 -0.895801 0.201377 -0.310913 
-0.632451 -0.385960 0.813470 0.959359 0.097321 0.212213 
-0.881756 0.143020 1.416621 -0.898816 -0.338312 -0.268825 
-1.109796 -0.500333 2.395329 0.760489 0.483711 0.357105 
-1.290967 0.879794 2.036810 -0.841697 0.390325 -0.286964 
-1.149774 0.216571 1.910870 0.738335 0.115761 0.631990 
0.186227 -0.322637 0.179286 0.304879 -0.068685 0.927981 
-0.285167 -0.925222 0.057803 -0.621603 -0.227926 -0.736170 
0.248085 0.938355 -0.025810 0.749699 0.367193 -0.485387 
-0.054150 -0.674274 -0.081070 -0.173859 -0.332423 -0.916339 
0.338355 -0.436291 0.084339 0.426230 -0.104889 0.812378 
-1.336010 0.203704 2.169278 -0.813630 -0.241630 -0.503621 
0.439415 0.336014 0.289648 -0.735922 -0.126471 0.618686 
0.163481 1.023697 0.352105 0.341456 -0.131839 0.884063 
0.910134 0.683733 1.435989 -0.857949 -0.286926 0.392101 
-0.340538 -1.061816 0.130551 -0.594924 0.025339 -0.742408 
-1.400973 0.119276 2.386276 0.904548 0.233423 0.268924 
-0.366724 -1.018818 0.219081 -0.651756 -0.075966 -0.671792 
-0.643279 0.107410 0.585813 -0.944342 -0.139960 -0.291569 
-0.833009 0.236115 1.326039 0.876277 0.017245 0.395516 
0.413132 0.259777 -0.113890 0.834046 -0.072222 -0.522513 
0.580299 0.357876 0.290797 0.942268 0.035496 -0.294054 
-0.451158 -0.105721 0.048439 -0.875160 -0.122278 -0.455544 
-0.723896 -0.299957 1.034775 -0.935046 -0.205304 -0.243096 
-1.228633 -0.355689 2.866318 0.870819 0.454287 0.098198 
0.119449 1.263724 0.063668 0.734274 0.582227 -0.155493 
0.399496 0.240725 0.174723 -0.424883 -0.227532 0.778166 
0.996010 0.769108 1.521610 0.925258 -0.282567 -0.251706 
1.103545 -0.021499 2.106782 -0.921960 0.267689 0.191683 
0.944475 -0.288814 2.616132 0.828511 -0.540490 0.112379 
0.739175 -0.208513 0.967054 -0.934338 0.084428 0.308379 
-1.599970 0.440373 3.020449 -0.961572 -0.257755 0.019468 
0.452800 0.670635 0.189604 0.668953 0.689227 0.007457 
1.162429 0.458695 2.790451 -0.945588 0.149773 -0.186515 
-1.168776 0.506974 1.865611 -0.837136 -0.266641 -0.416307 
0.876990 -0.468705 2.285196 0.830322 -0.537329 0.122066 
-0.143582 1.237511 0.087870 -0.734050 0.610333 -0.099642 
-0.421467 -0.561000 0.186308 0.426425 0.026613 0.804539 
-0.584467 0.484364 0.499476 -0.853486 0.397319 -0.261008 
0.724430 -0.593432 1.552127 0.805145 -0.544722 0.003346 
-0.717253 0.440839 0.903099 0.869072 -0.189429 0.454176 
-0.195996 -0.687865 -0.072335 -0.135171 -0.385448 -0.901474 
0.610108 0.299827 0.412862 0.950423 -0.016909 -0.284554 
-1.260337 0.775804 1.966349 -0.943668 -0.126947 -0.298101 
0.921054 0.052647 1.430955 -0.911132 0.074868 0.278815 
-0.097126 -0.140847 0.210484 -0.170765 -0.107690 0.974667 
-1.198202 0.508288 1.934801 0.777244 -0.074663 0.561809 
0.158058 -0.006630 -0.314614 0.512472 -0.112902 -0.831851 
-0.417380 0.302000 0.190120 0.544685 -0.246628 0.748877 
-1.253708 -0.217966 2.304326 -0.846417 -0.395195 -0.339250 
1.133830 0.371881 2.941189 0.911250 -0.199643 0.353256 
-0.571356 0.477294 0.372779 -0.866837 0.398221 -0.246774 
0.020826 -0.479483 0.187445 0.183094 -0.167528 0.954616 
-0.086122 0.066000 -0.366802 -0.490296 -0.067709 -0.854604 
-0.946504 -0.045979 1.622188 -0.820844 -0.322287 -0.411811 
-0.505193 0.158670 0.132626 -0.903368 -0.089016 -0.409406 
-0.966627 0.471609 1.536215 -0.879413 -0.371262 -0.293436 
-0.246358 0.923155 0.274534 -0.752158 0.062581 0.614858 
-1.283335 -0.254092 2.794226 -0.840327 -0.496280 -0.146645 
-1.376414 -0.033570 3.230898 0.910735 0.400747 -0.054868 
-0.722124 0.038893 0.969758 0.909794 0.015802 0.357699 
-0.795030 0.657179 0.995286 -0.767439 0.326608 -0.498423 
-0.487693 0.342446 0.013173 -0.902799 0.012402 -0.394202 
-0.896397 0.703908 1.200488 -0.674012 0.383592 -0.490291 
0.150517 -0.285742 -0.267689 0.433247 -0.272674 -0.838742 
-0.309188 -0.991609 0.149570 0.377175 0.062661 0.891508 
-0.542585 -0.701501 0.528306 -0.846582 -0.099747 -0.414346 
0.197374 0.933214 -0.092560 0.636521 0.402177 -0.645254 
-1.503192 0.202145 2.968394 -0.946732 -0.300672 0.021548 
-0.737255 0.155355 1.007597 0.895166 -0.026752 0.385740 
-0.662640 -0.596606 1.445601 0.900975 0.362526 0.128546 
-0.709554 0.087373 0.775384 -0.950317 -0.178427 -0.233419 
-1.498433 0.354078 2.447855 -0.966438 -0.030653 -0.205544 
0.913957 -0.421246 2.368463 -0.822282 0.506803 0.031945 
1.049194 0.723445 1.745812 0.928134 -0.320926 -0.036676 
1.211817 0.690676 2.696639 0.974743 0.128982 0.110369 
-0.564792 -0.301523 0.486727 0.747349 0.035327 0.487540 
0.968296 -0.152128 2.737074 -0.860780 0.332311 -0.303630 
-0.198496 -1.204911 0.135135 -0.745017 -0.184186 -0.620820 
0.135087 -0.446482 -0.222011 0.327033 -0.420559 -0.832774 
0.880689 0.063789 1.255497 0.941558 -0.263318 -0.204472 
0.354288 0.520284 0.194694 0.158577 0.000069 0.916177 
-0.645930 -0.865993 0.734359 0.933377 -0.047998 0.280643 
-1.365416 0.742777 2.141645 -0.940029 -0.113500 -0.315705 
1.041796 -0.111263 2.607462 -0.881784 0.301915 -0.254953 
-0.774630 -0.404397 1.403638 0.924310 0.278432 0.204066 
1.177898 0.223225 2.608408 0.873175 -0.443509 -0.087384 
-0.698829 0.524221 0.926970 0.940112 0.128593 0.304304 
1.053509 0.542225 3.138619 0.744791 0.303275 0.560473 
0.401080 -0.983883 0.303974 0.672500 -0.136103 -0.656989 
0.730982 0.155119 0.866829 0.943190 -0.168356 -0.264197 
0.799961 -0.054408 3.186579 -0.810361 0.375443 -0.431898 
0.072469 -0.850652 -0.056723 0.171214 -0.251368 -0.927038 
-0.888836 0.747661 1.377367 0.904056 0.021202 0.371960 
-0.614195 -0.820542 1.965238 -0.750239 -0.575500 -0.291602 
-0.995899 0.775751 1.487732 -0.878899 -0.378824 -0.281607 
0.395870 0.717084 0.019978 0.538823 0.834863 -0.070962 
0.815831 0.691929 1.198672 -0.832056 0.424368 0.095663 
-1.008882 0.094598 1.715873 0.941873 0.101353 0.246035 
0.949329 0.081607 3.046706 0.837629 -0.236474 0.474424 
-0.226289 0.060614 -0.282315 -0.565531 -0.098434 -0.799973 
0.561290 0.274448 0.281192 0.931687 -0.049723 -0.337434 
-0.646578 -0.619300 0.889719 -0.962895 -0.129279 -0.153784 
0.988322 0.385972 1.614838 -0.906297 -0.107466 0.227981 
-0.656640 -0.389089 0.743222 -0.959138 -0.100627 -0.236950 
0.690432 0.208681 3.500189 -0.787869 0.245532 -0.561381 
0.109252 -0.924308 0.049379 -0.161202 -0.175441 0.933784 
-0.603074 -0.233366 0.515856 -0.932483 -0.114744 -0.324096 
0.140061 1.259365 0.179185 0.573535 0.777692 0.133658 
-1.308609 -0.212989 2.658126 -0.816873 -0.517851 -0.220815 
-1.197193 0.206683 1.972440 0.776763 0.122361 0.596598 
-1.452507 0.237908 3.465837 -0.932395 -0.324300 0.144750 
0.731836 -0.589881 1.774833 0.775368 -0.591908 -0.087070 
-0.787663 -0.206980 1.199717 -0.916859 -0.247202 -0.288744 
-0.062607 0.371814 -0.377566 -0.490411 0.114146 -0.849427 
0.970693 0.589708 1.464265 0.929216 -0.279545 -0.238994 
-0.333846 0.431739 -0.244486 -0.631120 0.067146 -0.771698 
0.445133 0.265149 0.247386 -0.682509 -0.224257 0.678027 
-0.156485 1.158769 0.390316 0.419789 0.194372 0.852592 
-0.532212 -0.081128 0.271582 -0.908557 -0.106726 -0.385539 
0.840916 -0.505917 1.262863 0.952687 -0.245402 -0.154561 
0.949337 0.532761 1.411610 0.931722 -0.275650 -0.233303 
0.758591 -0.570252 2.105528 -0.761441 0.558498 0.167909 
0.690578 -0.857101 0.755411 0.928504 0.051138 -0.363128 
1.094219 -0.114662 2.105718 0.926331 -0.331701 0.060416 
0.752872 -0.688255 1.229933 0.931838 -0.299328 -0.072350 
-1.173208 0.585466 1.863468 -0.820484 -0.326611 -0.410609 
-1.481826 0.386248 2.375786 0.864012 0.166458 0.468283 
0.668698 -0.703103 0.726393 -0.920262 -0.064042 0.373499 
-0.658216 -0.660929 1.808377 -0.742858 -0.559075 -0.288675 
-0.614542 0.391771 0.483899 -0.850134 0.399604 -0.320449 
0.531866 0.288850 0.542042 -0.854700 -0.100963 0.478562 
0.494372 0.648071 0.307053 -0.796368 0.364853 0.464704 
0.072382 1.264326 0.215674 0.152652 0.849299 0.494942 
-0.566846 0.368868 0.231811 -0.931686 0.049153 -0.316553 
0.662344 -0.261845 0.784222 -0.938125 0.044742 0.325172 
-1.209421 0.839260 1.882253 -0.947533 -0.132426 -0.285922 
0.079091 1.065775 -0.084297 0.393889 0.414349 -0.801125 
1.061909 -0.084041 2.022715 -0.858054 0.307456 0.315283 
-1.450919 0.774379 2.277896 -0.928468 -0.003458 -0.364936 
0.666693 -0.364237 0.770241 0.945475 -0.102612 -0.281471 
-0.914081 0.814336 1.325444 0.719738 0.573555 0.000003 
0.132905 -1.413278 0.190365 -0.656774 -0.638015 0.177585 
-1.411857 0.043215 3.278136 0.919075 0.381136 -0.076611 
0.924241 0.294918 1.450988 -0.892369 -0.061171 0.316990 
-0.598131 0.559561 0.570231 0.889732 0.177670 0.378154 
-0.331353 -0.282403 -0.144628 -0.651057 -0.232906 -0.675728 
0.239148 -1.128487 0.127432 0.429070 -0.247562 -0.821758 
0.931962 -0.159738 2.816216 0.823415 -0.507291 0.189509 
-1.371664 -0.068361 2.891410 0.937915 0.310366 -0.015596 
1.169365 0.276966 2.706736 -0.930285 0.254098 -0.104065 
1.113724 0.839879 2.171834 -0.848098 0.374043 0.188019 
-1.464140 0.746343 2.348784 0.859653 0.189958 0.462435 
-0.029190 -0.491628 -0.202309 -0.112449 -0.619535 -0.763584 
0.076107 -0.043074 0.219716 0.153005 -0.136700 0.973597 
-0.601313 0.421478 0.416422 -0.863566 0.376172 -0.307400 
-0.630610 -0.798223 1.069963 0.969210 0.166506 0.057118 
0.686841 0.311937 0.659591 0.961763 -0.039638 -0.252922 
0.326874 -0.820229 0.090061 -0.303191 0.046943 0.935576 
-0.167401 -0.503693 0.151759 -0.244537 -0.175372 0.951477 
-1.277276 0.443820 2.062469 0.809774 0.007409 0.528445 
-0.200327 -1.283104 0.168204 -0.561852 0.196592 0.675566 
-0.858491 0.053663 1.461664 0.885615 0.142350 0.357113 
0.205914 -0.059721 -0.279081 0.527845 -0.144929 -0.816277 
-0.466873 0.416153 0.412155 0.850274 0.213961 0.447150 
-0.371791 0.594528 -0.157889 -0.654822 0.257959 -0.656386 
0.002735 1.075428 0.375027 0.112425 0.267285 0.932820 
0.785626 -0.205676 3.071771 -0.818974 0.396740 -0.398940 
0.606742 -0.731707 1.862139 -0.785904 0.594053 -0.062905 
-1.001480 -0.153979 1.823172 0.936340 0.276612 0.134586 
0.540124 -0.697768 0.529181 -0.736014 -0.007159 0.543703 
0.744408 -0.150030 0.916883 0.938308 -0.142646 -0.289590 
0.348824 0.100052 -0.181474 0.690251 -0.114914 -0.672762 
1.071590 0.388096 1.723097 0.892763 -0.195705 -0.338988 
0.552101 0.328996 0.222796 0.930810 0.002535 -0.329005 
0.994879 0.522445 1.529878 0.927541 -0.285835 -0.238416 
-0.949851 -0.660898 2.340048 0.775776 0.517541 0.336066 
0.772651 -0.578153 2.253744 -0.792354 0.563218 0.041968 
-0.628220 0.454029 0.652961 0.886608 0.275850 0.326648 
-1.430135 0.621926 2.391080 0.849629 0.163031 0.381804 
0.289896 -0.584970 -0.098614 0.570717 -0.270127 -0.754681 
0.083174 1.314477 0.114062 0.634498 0.688928 0.264104 
-0.258935 -0.434689 0.140966 -0.452348 -0.143958 0.864599 
0.759665 0.111794 3.367969 0.788558 -0.298044 0.533437 
-0.033800 0.312656 -0.408097 -0.485411 0.070986 -0.862579 
-1.302723 -0.201985 2.979030 0.907431 0.390525 0.008855 
0.098862 0.992052 -0.119523 0.493669 0.415264 -0.746872 
1.210950 0.736280 2.637815 0.969872 0.224906 0.057527 
0.564950 -0.003612 0.540782 -0.851722 -0.090622 0.461576 
-0.220027 -0.244336 -0.245949 -0.504172 -0.223201 -0.819941 
-0.536119 0.123042 0.236600 -0.913035 -0.097277 -0.382836 
-0.976027 0.602760 1.616625 0.869989 -0.128522 0.407878 
-0.294619 -0.034017 0.155218 -0.397575 -0.178252 0.873658 
-1.388226 -0.032047 3.026372 -0.928613 -0.347077 0.047492 
0.280430 0.956116 0.053425 0.876741 0.359302 -0.247586 
0.531176 0.491201 0.068300 0.930511 0.158957 -0.298038 
0.883662 -0.301484 1.337155 -0.946166 0.213825 0.214207 
0.227632 -0.455955 0.150371 0.362079 -0.150185 0.917505 
0.323504 0.320022 0.186695 0.191445 -0.194004 0.957961 
1.209659 0.677369 2.575449 0.997169 0.028225 0.062712 
0.147492 0.179703 -0.345028 0.546435 -0.033129 -0.822624 
0.390294 0.730511 0.119936 0.889990 0.421904 0.155626 
-0.526675 0.203041 0.197756 -0.908678 -0.103765 -0.391462 
-0.220235 0.163006 0.213769 -0.267429 -0.199670 0.942282 
-1.377819 -0.069041 2.625234 0.935827 0.275256 0.060978 
0.064480 -0.358994 -0.283364 0.343235 -0.362858 -0.850777 
0.666994 -0.110866 0.794003 -0.918823 -0.012292 0.365231 
-0.487681 -0.281045 0.201759 -0.884552 -0.138460 -0.423743 
0.026563 1.154864 -0.070827 0.378719 0.312265 -0.860809 
1.080820 -0.141560 2.271087 -0.911605 0.364153 0.061522 
0.878756 0.362648 3.307086 -0.817688 0.098098 -0.541910 
1.070807 -0.016885 2.703772 0.839413 -0.531781 0.078775 
0.580560 0.140902 0.408167 0.927587 -0.117016 -0.341008 
0.910552 -0.350499 1.452822 -0.940817 0.268373 0.168691 
-0.725079 0.695502 0.853152 0.926887 0.108263 0.357039 
0.151342 0.618104 -0.278371 0.447833 0.300165 -0.824105 
0.527001 -0.148208 0.292312 0.897886 -0.097291 -0.417027 
-0.406971 -0.639767 0.212388 -0.751194 -0.183359 -0.569886 
1.109270 0.712592 1.979156 0.994847 -0.062045 0.032935 
-0.738250 0.584647 0.942352 0.920880 0.311362 0.200011 
-0.083935 1.312215 0.107810 -0.644413 0.677366 0.246828 
-0.444021 0.045206 -0.014552 -0.876865 -0.104602 -0.461920 
-1.467010 0.601450 2.452384 0.865680 0.180892 0.355821 
0.516675 -0.042373 0.399715 -0.735056 -0.093040 0.576291 
0.986510 0.811129 1.665914 -0.804457 -0.210427 0.533106 
0.163361 0.710822 -0.236524 0.414211 0.438585 -0.778016 
-0.622293 -0.662432 1.740826 -0.759416 -0.562272 -0.239951 
-0.347452 -0.800715 0.135566 0.368612 0.046974 0.882632 
-0.847778 -0.076121 1.471170 0.891369 0.213703 0.338069 
-1.178614 -0.454199 2.465560 -0.828107 -0.487471 -0.266330 
0.306149 0.082947 -0.237469 0.614355 -0.106306 -0.765242 
0.237702 -0.873214 0.108260 0.049909 0.061535 0.940448 
0.869071 -0.112990 1.294012 -0.922879 0.132646 0.275027 
-0.639990 -0.817544 0.995576 0.969103 0.110207 0.103225 
-0.485198 0.125292 0.318326 0.711226 -0.158262 0.614058 
-0.705878 0.240483 0.870858 0.894970 -0.105988 0.403054 
0.860175 -0.426399 1.801354 -0.840397 0.459488 -0.252275 
0.167884 0.370349 0.317984 0.304699 -0.220053 0.926213 
0.518299 0.070752 0.209615 0.905963 -0.076982 -0.411770 
0.197464 -0.133257 -0.274640 0.507392 -0.173795 -0.825041 
