0.741683 0.059437 0.147443 0.372043 -0.232007 0.886993 
-1.776107 0.736497 -0.427769 0.671792 -0.211246 -0.661960 
0.288961 0.948074 0.236098 0.912308 0.350002 -0.165440 
2.204036 0.606375 -0.243195 0.178590 -0.010969 -0.981825 
-1.051315 0.054518 0.016367 -0.420961 -0.171167 0.886526 
-0.999776 0.870301 0.077449 0.714209 0.240482 -0.638898 
-1.984441 1.635123 -0.870493 -0.755114 0.120053 0.604861 
0.413785 0.612553 0.346806 0.450410 0.298490 0.772055 
1.960563 1.017177 -0.231121 0.074341 0.180790 -0.964667 
-1.902612 1.899532 -0.850231 -0.702189 0.296283 0.629456 
2.374416 1.698036 -0.250134 -0.031058 0.121862 -0.991364 
-2.170759 0.981910 -0.993532 -0.723787 0.202444 0.651085 
-1.177899 0.849519 -0.023158 0.326911 -0.063442 -0.929643 
1.153788 0.772047 0.043735 0.584774 -0.134557 0.770794 
1.233325 0.574671 -0.043874 -0.202508 -0.013463 -0.974063 
0.301438 0.274160 0.373658 0.166241 -0.304589 0.935390 
2.041474 1.550402 -0.208781 0.028016 0.156157 -0.981849 
0.480116 0.080997 0.260424 0.345977 -0.292579 0.876949 
-1.847366 0.907674 -0.633078 0.690817 -0.061924 -0.712109 
0.341430 -0.394579 0.018438 0.432882 -0.020002 -0.884845 
-1.291288 0.576963 -0.071695 -0.636732 -0.109120 0.738317 
-1.114240 0.135626 -0.009882 -0.469669 -0.153559 0.859191 
0.392363 0.074592 0.070972 0.481050 0.077101 -0.849088 
-1.925856 0.021204 -0.430451 0.518883 -0.087576 -0.834476 
2.662975 1.224467 -0.264919 -0.198617 -0.191806 0.958819 
0.082187 0.552546 -0.170173 0.512303 0.302948 -0.775490 
-1.701601 0.101306 -0.321358 -0.506860 -0.005518 0.845060 
-0.634724 -0.271589 0.052808 -0.486635 -0.123094 0.862736 
-0.712200 -0.373052 0.047258 -0.433898 -0.082489 0.889029 
2.871108 1.341236 -0.217949 -0.119326 0.058300 0.976715 
3.098042 1.185799 -0.163035 0.264443 0.088598 -0.955006 
1.775714 -0.103705 -0.196980 0.123879 0.007237 -0.963713 
-0.886790 0.415979 0.190171 -0.554854 -0.181986 0.805424 
1.526072 -0.011282 -0.207836 -0.133186 0.105500 -0.978275 
3.294093 1.192507 -0.110922 0.279209 0.031912 -0.959088 
-2.163018 1.181761 -1.033328 -0.681045 0.077909 0.706781 
-0.061037 0.583406 -0.167544 -0.471110 0.335562 -0.788981 
-2.623326 1.189489 -1.387693 -0.579939 0.067279 0.804502 
-1.206836 0.785733 -0.046751 0.340425 -0.058685 -0.921833 
0.414518 -0.391152 0.019799 0.342333 -0.017388 -0.896497 
-1.834374 1.007264 -0.531692 -0.761120 0.058618 0.626686 
1.596771 -0.048932 -0.235992 0.139792 -0.130663 0.973520 
-2.660125 1.968010 -1.451797 0.506194 0.120110 -0.844180 
-1.020002 -0.777556 -0.103414 0.249053 -0.090175 -0.923221 
0.138433 -0.556618 0.261647 0.191546 -0.197367 0.959981 
2.923741 1.422885 -0.205486 0.200169 0.063744 -0.974036 
-2.156403 1.605177 -1.108325 -0.688358 0.158340 0.691653 
2.469551 0.082658 -0.141874 0.007424 -0.174793 -0.982983 
-1.780478 0.426384 -0.382134 -0.618051 0.080008 0.771008 
-2.587895 1.610843 -1.410083 0.538801 -0.029756 -0.838090 
0.133507 -0.042756 -0.195841 0.568026 -0.064857 -0.803916 
2.903696 1.528573 -0.209791 0.194068 0.059544 -0.977363 
-0.280807 -1.194044 0.169344 0.376967 -0.162277 0.506736 
0.970671 -0.726620 -0.085597 -0.188842 -0.028849 -0.947362 
1.965432 0.703764 -0.237385 -0.267097 -0.184236 -0.939043 
-1.602021 0.259737 -0.282141 -0.548853 0.007255 0.815530 
1.095521 -0.459115 -0.107092 -0.236142 0.054849 -0.945321 
-2.486781 1.747137 -1.357679 -0.565877 -0.042978 0.812464 
-0.759037 -0.603096 0.030563 -0.368579 -0.027687 0.920147 
0.209093 -0.518282 0.256081 0.344888 -0.158923 0.916575 
-0.426808 0.470797 0.161429 -0.587953 0.280646 -0.714140 
0.673363 -0.736106 0.054634 0.337373 0.006320 0.934380 
-0.216321 1.131483 0.254274 -0.873141 0.447080 -0.146903 
-0.300296 0.008751 -0.002071 -0.614566 -0.027586 -0.767477 
0.439324 -0.668727 0.095746 0.414667 -0.026250 0.898846 
-0.377914 -0.857367 0.083741 -0.120583 -0.138774 -0.953824 
-0.564543 0.461872 0.404932 -0.226084 -0.033640 0.956852 
1.884064 0.930371 -0.248119 -0.207141 -0.040982 -0.954362 
1.011951 1.035143 0.109183 0.172786 0.120562 0.923817 
0.089223 -0.162418 0.318390 0.162302 -0.087914 0.975196 
-0.350332 -0.512323 0.039267 -0.351630 -0.039191 -0.902528 
0.566446 0.674791 0.324778 -0.070588 0.538963 -0.704958 
-2.404148 0.323936 -0.973483 0.674924 -0.257369 -0.686021 
1.781309 1.196596 -0.185809 0.102502 0.043513 -0.960777 
1.768345 1.336340 -0.155271 0.349687 -0.185709 0.878351 
-0.348528 -0.197601 0.225614 -0.466727 -0.195112 0.831390 
-1.899464 -0.154686 -0.402334 -0.468627 0.014325 0.871215 
1.114755 1.240621 0.056304 -0.736320 0.288701 -0.447923 
1.745720 0.272536 -0.230123 0.066366 -0.026791 0.982750 
-0.742909 -0.181741 -0.010518 -0.021036 0.050483 -0.913025 
0.100579 0.880747 0.515489 0.242412 -0.054747 0.961312 
-0.462846 0.396328 0.131684 -0.473913 0.215318 -0.778718 
-2.501399 1.316018 -1.333627 0.588805 -0.119074 -0.794744 
0.902791 0.286438 0.135765 0.448365 -0.212758 0.854971 
-1.449675 1.433327 -0.057671 -0.784155 -0.244555 0.565768 
-1.747552 1.029318 -0.540082 0.700355 -0.074325 -0.694487 
1.861678 0.285940 -0.183845 0.040940 -0.102604 -0.959623 
-0.465750 0.326967 0.108329 -0.421117 0.156717 -0.823310 
-0.121059 0.601514 -0.131860 -0.504500 0.320002 -0.763786 
-0.152247 1.191930 0.164616 -0.727805 0.486093 -0.424496 
0.285377 0.127703 -0.099255 0.721600 -0.017676 -0.670484 
2.638503 0.433454 -0.212897 -0.024340 0.118831 0.985506 
-1.189428 0.268508 -0.076644 0.360225 0.039063 -0.917660 
1.472099 1.285371 -0.137537 -0.099833 -0.154420 -0.978819 
-2.846698 1.851025 -1.552133 -0.490117 -0.023494 0.869730 
-2.210670 1.426450 -1.148732 0.649165 -0.308399 -0.678882 
0.828218 -0.735512 -0.020540 0.343162 -0.024885 0.929532 
-0.283116 -0.065135 -0.044823 -0.637359 -0.070915 -0.743570 
-0.677354 0.084337 0.181045 -0.361400 -0.265417 0.878970 
0.803997 0.373868 0.086551 -0.054160 0.082236 -0.945090 
-0.109594 -0.869123 0.091160 0.062160 -0.432826 -0.897511 
-0.916403 0.801058 0.164835 -0.282838 0.054855 0.944396 
-0.695483 0.385825 0.282940 -0.392010 -0.216443 0.862514 
-1.649349 1.461779 -0.404845 0.609055 -0.291439 -0.699727 
0.516826 0.493710 0.437155 0.146790 0.040823 0.982515 
0.048353 -0.594129 0.267451 0.286880 -0.176600 0.933308 
-0.918281 0.193522 0.106703 -0.435546 -0.223675 0.859626 
1.001684 0.618306 0.052496 -0.210539 -0.000819 -0.973898 
-0.171595 -0.093870 0.309831 -0.235505 -0.160842 0.933250 
0.221729 -0.388771 -0.092421 0.551210 -0.222989 -0.798009 
0.394818 -0.209040 0.161973 0.404471 -0.184883 0.878304 
-1.795123 1.051973 -0.483258 -0.752308 0.022036 0.635552 
2.626986 1.159686 -0.272897 -0.037631 -0.248816 -0.961346 
1.454635 0.319895 -0.123122 0.266375 -0.074988 0.945946 
-0.653864 -0.001433 0.020469 -0.169779 0.076676 -0.880289 
-2.246960 1.656530 -1.199262 -0.640028 0.124197 0.748371 
1.004955 0.967826 0.084293 -0.754106 0.249770 -0.575460 
1.089392 0.599517 0.012165 -0.223896 -0.012540 -0.969348 
-0.642189 -0.149590 0.097071 -0.446737 -0.172629 0.866982 
-1.849875 1.872624 -0.766163 -0.675964 0.353615 0.613713 
0.409707 -1.213536 0.155563 0.612634 0.347419 0.687344 
0.259918 -0.338251 0.256160 0.516325 -0.111732 0.815267 
1.332639 0.216364 -0.079822 0.315393 -0.105520 0.931051 
-2.880091 1.955019 -1.565834 0.464223 0.042947 -0.883988 
1.072697 0.764144 0.027708 -0.202860 -0.051532 -0.975562 
-1.688623 1.128441 -0.371132 -0.691423 -0.163630 0.688485 
-0.381943 0.288230 0.354079 -0.181906 -0.256854 0.946247 
2.734165 1.152574 -0.254837 -0.006543 -0.257481 -0.957020 
2.760619 0.604109 -0.231722 0.088529 -0.105982 -0.988118 
2.045561 0.599244 -0.234798 -0.229271 -0.230755 -0.942571 
-0.737559 0.636991 0.234126 0.403083 0.374589 -0.740321 
-1.776284 0.506408 -0.398797 0.612698 -0.124823 -0.772390 
-2.106236 1.631207 -1.062988 0.683648 -0.003735 -0.719580 
-2.589817 1.350335 -1.384672 -0.578673 0.169027 0.783604 
-0.073970 -1.027416 0.158871 -0.080851 -0.447737 -0.867857 
-0.499163 0.412691 0.403802 -0.200697 -0.145737 0.949186 
0.046777 0.774937 -0.071259 0.416831 0.393997 -0.808920 
0.028522 -1.033810 0.202766 0.385633 0.141510 0.908673 
-0.502422 0.532777 0.422949 -0.066412 0.075560 0.975259 
-0.137268 0.186752 0.372185 -0.113266 -0.277218 0.951314 
-0.242609 1.169637 0.578084 -0.255408 -0.574627 0.770180 
-0.127491 0.509249 -0.166082 -0.584358 0.227780 -0.752780 
-0.824993 0.056941 0.004107 0.014130 0.096339 -0.896839 
-2.540617 1.462936 -1.361511 -0.575359 0.173464 0.780300 
-2.165700 1.342757 -1.083052 0.674917 -0.364823 -0.630232 
1.217058 0.023204 -0.052064 0.354306 -0.153225 0.916330 
-1.425757 1.036671 -0.096211 -0.730496 -0.151843 0.641052 
0.896169 -0.025689 0.049064 0.408958 -0.166129 0.891687 
-0.082112 0.576944 0.514763 -0.110810 -0.275524 0.952509 
-1.279031 0.335332 -0.090506 -0.550888 -0.099530 0.803660 
0.094501 -0.183606 -0.188458 0.492619 -0.172480 -0.825388 
-0.345449 0.203863 0.331843 -0.193126 -0.306803 0.930395 
-0.118897 -0.211443 -0.171771 -0.515242 -0.170295 -0.815693 
-0.994594 -0.361463 -0.040863 -0.390765 -0.102310 0.906408 
0.549133 0.220484 0.293624 0.307881 -0.336632 0.882912 
0.125825 -0.572193 -0.030599 0.184448 -0.387141 -0.895343 
0.188618 -0.316291 0.287581 0.336188 -0.060345 0.911163 
-1.066933 -0.309380 -0.067584 -0.395471 -0.124339 0.902820 
1.821609 1.519725 -0.136429 0.260743 -0.031715 0.948651 
0.828616 -0.813338 -0.030033 -0.149301 -0.087420 -0.953763 
1.229646 0.305000 -0.057555 -0.242356 0.051902 -0.962644 
-2.016507 0.546763 -0.655748 0.743480 -0.359760 -0.526580 
0.131109 1.055598 0.077302 0.502020 0.314987 -0.787967 
1.265139 1.377929 -0.074025 -0.463344 0.077412 -0.863006 
0.089350 1.233528 0.392062 -0.031055 0.842893 0.489063 
0.269516 -0.907722 0.158217 0.117118 -0.044280 0.979231 
1.832978 -0.084141 -0.148653 0.226401 -0.057767 -0.949216 
0.544815 0.305594 0.095970 0.289861 0.104663 -0.878896 
0.063703 -0.405783 -0.155833 0.399195 -0.345429 -0.837152 
-1.844856 0.162905 -0.396688 -0.544975 0.044652 0.820642 
2.485988 1.514978 -0.263645 0.030135 0.137910 -0.982257 
-0.332988 -0.730002 0.176216 -0.436557 -0.055430 0.882590 
-2.404124 0.767597 -1.160930 -0.677968 0.223145 0.687690 
0.591064 -0.257364 0.071921 0.468121 -0.132416 0.869548 
-2.106497 0.703080 -0.828621 0.587908 -0.118188 -0.797637 
-2.538494 1.392638 -1.354294 -0.584019 0.188451 0.772831 
0.026065 -0.442069 0.306793 0.106321 -0.207407 0.965892 
-2.378266 0.454655 -0.998901 -0.713507 0.288342 0.603816 
2.372458 1.364706 -0.261173 0.078810 -0.074612 0.986966 
1.194628 1.076801 -0.022107 -0.150275 -0.112459 -0.978768 
-2.266053 1.414703 -1.195007 0.623000 -0.135007 -0.764783 
2.242071 0.176539 -0.152917 -0.135646 0.074731 0.964854 
-2.556581 1.007965 -1.315523 0.607205 -0.193596 -0.759605 
-0.116132 -0.772645 0.223524 -0.187206 -0.094720 0.964784 
2.084115 0.777222 -0.225349 0.371186 0.190219 0.886657 
3.395667 1.543676 -0.048522 0.310796 0.094951 -0.944039 
-1.731294 1.398468 -0.518456 0.677443 -0.243259 -0.650742 
0.377132 -0.475967 0.032113 0.339780 -0.039881 -0.902754 
1.376786 0.916217 -0.055542 0.453353 -0.141041 0.832338 
2.369841 1.787275 -0.225810 0.051565 0.090621 0.987031 
-1.019020 0.803504 0.050851 0.365900 0.039233 -0.906029 
-2.489056 1.085968 -1.279278 -0.612119 0.082247 0.772971 
-2.476567 1.245169 -1.298625 0.607256 -0.271289 -0.722788 
-0.210034 -0.547785 0.245801 -0.340750 -0.175161 0.912853 
-1.776906 1.583284 -0.629782 0.707271 0.017138 -0.697841 
-0.459902 0.132459 0.066816 -0.420477 0.086923 -0.839585 
-0.134925 -0.625176 -0.006408 -0.123802 -0.330327 -0.929346 
-0.780061 0.108414 0.150444 -0.361255 -0.255132 0.884047 
-0.053273 -0.084185 -0.226085 -0.488546 -0.131818 -0.831016 
-0.100321 0.860326 0.513291 -0.236762 -0.087437 0.961232 
0.966850 -0.399706 -0.038490 -0.207821 0.028533 -0.954144 
-0.087004 1.254773 0.357952 -0.117814 0.902883 0.410876 
0.728438 -0.567411 0.061871 0.347796 -0.018569 0.929772 
-1.108729 0.485327 -0.013617 0.311258 0.015890 -0.941969 
-1.276441 -0.518789 -0.222914 -0.374771 -0.173689 0.902718 
0.313121 0.292020 -0.049140 0.704923 0.065426 -0.690283 
-0.316731 0.060205 0.044038 -0.583302 0.008631 -0.798754 
-0.898173 0.262231 0.051297 0.164233 0.101398 -0.944402 
-0.218157 0.501141 0.470793 -0.151696 -0.253937 0.953356 
3.091951 1.604683 -0.151421 0.250361 0.081883 -0.962762 
1.588692 0.780512 -0.154896 0.284870 -0.085046 0.915798 
-1.357545 1.665728 -0.025177 0.943181 -0.203017 -0.253621 
0.752344 0.514322 0.146153 -0.284122 0.456788 -0.667881 
0.119168 1.026519 0.518448 0.183474 -0.051741 0.978534 
-0.311772 0.292526 -0.031183 -0.702603 0.065077 -0.693013 
0.633018 0.020668 0.029483 0.218141 0.079736 -0.885878 
0.050213 0.828695 0.514593 0.156428 -0.141813 0.972518 
1.396981 1.073626 -0.063593 0.461453 -0.180982 0.827373 
-1.614494 0.120218 -0.279161 -0.505225 -0.019749 0.845111 
-1.408774 -0.000434 -0.168605 -0.448364 -0.088449 0.880982 
-0.528594 -0.359309 0.070046 -0.493285 -0.110114 0.859555 
-0.947537 -0.839854 -0.064219 0.239849 -0.159524 -0.921773 
-2.119746 0.354505 -0.682447 0.709122 -0.328123 -0.587604 
0.840444 0.638198 0.183176 0.307027 0.168585 0.918408 
-2.338731 0.763481 -1.093938 0.639488 -0.190831 -0.741175 
1.511100 0.236268 -0.159217 0.222688 -0.082596 0.958550 
0.701769 0.718700 0.253038 -0.409936 0.256368 -0.790209 
-2.216601 1.188643 -1.084706 -0.657630 0.046808 0.730679 
1.279153 1.090153 -0.008838 0.546779 -0.196453 0.785435 
0.732991 0.424561 0.095653 0.002133 0.187450 -0.916207 
-1.980294 -0.032880 -0.451711 0.524741 -0.107062 -0.829520 
1.647115 1.621347 -0.135420 0.077454 0.112490 -0.987903 
-0.630815 0.236138 0.068834 -0.201053 0.100419 -0.876076 
-2.230979 0.685281 -0.949575 0.612835 -0.158949 -0.768433 
0.617528 -0.269781 0.006059 0.156633 0.018361 -0.912407 
-1.169845 0.755092 0.023306 -0.691351 -0.168457 0.691433 
0.754100 -0.144728 -0.009983 0.057243 0.053465 -0.916727 
-1.335356 0.671929 -0.088708 -0.673077 -0.097165 0.712248 
-2.323180 0.444778 -0.941671 0.649812 -0.217314 -0.718581 
1.930702 1.742295 -0.155053 0.074598 0.328391 0.896247 
-0.486208 -0.325851 0.011413 -0.278373 0.010126 -0.895183 
0.284562 0.887177 0.175249 0.838496 0.341492 -0.346256 
-0.480724 0.553605 0.211600 -0.438867 0.433001 -0.652710 
-1.340649 0.222205 -0.167733 0.431427 0.016544 -0.878358 
2.238575 1.278887 -0.257737 -0.167753 -0.101690 -0.969291 
1.511880 1.680341 -0.073047 0.176705 0.259072 0.893502 
0.699477 0.164723 0.042270 0.173806 0.111138 -0.882861 
-2.334298 0.535090 -0.985293 -0.726345 0.311160 0.557922 
-1.905612 1.183723 -0.728425 -0.818587 0.158629 0.548952 
-2.686828 1.352156 -1.450451 0.540843 -0.048633 -0.835871 
-1.263535 1.297362 -0.046357 0.600704 0.203673 -0.714515 
-0.279639 0.768092 0.449297 -0.524960 0.315670 0.757342 
0.240951 0.544224 -0.098206 0.644861 0.210565 -0.704659 
-2.569346 1.083065 -1.334484 -0.602068 0.099859 0.781860 
-1.565895 1.047560 -0.180615 -0.730141 -0.108461 0.641668 
-1.647374 1.076925 -0.344503 0.643606 -0.266804 -0.638315 
1.612694 0.277128 -0.200793 0.174570 -0.064599 0.972995 
-1.627861 1.664696 -0.419694 0.678418 -0.036996 -0.727233 
-1.968652 0.685653 -0.662851 0.780446 -0.386385 -0.465042 
1.261501 -0.007389 -0.097891 -0.245645 0.121238 -0.956224 
-0.068917 0.036775 -0.244211 -0.538750 -0.038433 -0.824308 
0.517619 0.555413 0.397561 -0.005184 0.110613 0.966437 
0.415775 -0.602266 0.052901 0.216528 -0.071130 -0.927758 
1.359576 1.138393 -0.045716 0.496980 -0.201714 0.809546 
1.104562 -0.292517 -0.065175 0.375046 -0.116399 0.913513 
1.795157 1.076768 -0.151688 0.151148 -0.126020 0.939145 
-0.016821 0.204488 -0.301025 -0.536881 0.037317 -0.835126 
-0.832830 0.203974 0.040298 0.055546 0.101780 -0.916687 
-0.298621 0.893847 0.336312 -0.895394 0.257043 0.260782 
-0.714537 -0.167167 0.061062 -0.459686 -0.150645 0.868990 
-1.855433 1.137787 -0.632199 -0.845617 0.187375 0.479374 
-1.395119 1.271307 -0.045972 -0.762824 -0.221433 0.595658 
0.065616 1.116786 0.495497 -0.160126 0.334993 0.895516 
1.793790 1.612423 -0.162177 0.053837 0.112779 -0.988394 
-0.297318 0.687373 0.477678 -0.449131 0.337080 0.809940 
1.887169 1.667896 -0.170351 0.042452 0.115137 -0.989504 
-1.822766 1.644641 -0.619095 -0.803663 0.120385 0.517179 
0.701051 -0.861049 0.016356 0.331499 0.012421 0.935647 
0.278738 -0.409561 -0.035626 0.521624 -0.136961 -0.829996 
3.050695 0.879827 -0.171037 0.166293 -0.078546 -0.970900 
0.622082 -0.483462 0.068055 0.407847 -0.057719 0.901475 
-1.757617 0.985035 -0.445826 -0.665977 -0.112394 0.723457 
0.708017 0.008651 0.017278 0.137093 0.081497 -0.896932 
0.492431 0.047643 0.053035 0.370891 0.077308 -0.864775 
-0.753620 0.144291 0.030188 -0.072115 0.102112 -0.885412 
-0.831026 0.774463 0.207569 -0.383491 -0.016117 0.911655 
1.891795 0.762117 -0.239444 -0.281816 -0.139076 -0.940845 
-1.608997 1.525784 -0.355094 0.559854 -0.347160 -0.729040 
-2.255555 0.615286 -0.944942 0.623171 -0.175236 -0.754414 
-1.421494 -0.495495 -0.294049 -0.376474 -0.214607 0.897842 
0.308897 -0.172290 0.263696 0.462188 -0.200229 0.823494 
-0.278370 0.550129 -0.084410 -0.681682 0.189657 -0.687689 
-1.655168 1.006595 -0.325174 0.611275 -0.228500 -0.702111 
-2.057245 0.490949 -0.676480 0.741216 -0.368237 -0.526007 
1.193969 1.257716 0.029545 -0.140260 0.263208 0.862932 
-1.443519 1.106031 -0.144147 0.454412 -0.158223 -0.862029 
-0.394014 -0.517558 0.099314 -0.489103 -0.081847 0.861742 
-2.386672 0.849962 -1.166956 -0.666333 0.176821 0.716824 
1.828880 0.885037 -0.232950 -0.304973 -0.125216 -0.936704 
3.378713 1.614397 -0.041864 -0.283014 -0.065359 0.946802 
0.201068 -0.245862 0.287119 0.346886 -0.107735 0.894639 
1.844491 0.140833 -0.150893 -0.169141 0.061429 0.954930 
-1.586536 1.613135 -0.349586 0.665692 -0.032595 -0.739281 
-0.021387 0.015504 0.332154 -0.086792 -0.164806 0.979084 
-1.975810 0.078275 -0.459252 0.557580 -0.127916 -0.807921 
-0.003312 0.497559 -0.241257 -0.498957 0.296840 -0.808896 
2.721684 1.384643 -0.260134 0.201707 0.148597 -0.962629 
-2.561331 1.822186 -1.399721 -0.541855 -0.086796 0.826848 
1.251110 0.179067 -0.072746 -0.256938 0.081310 -0.958239 
-1.996068 1.204359 -0.857846 -0.775838 0.152339 0.608163 
-0.750072 -0.478654 0.046924 -0.391915 -0.045692 0.909994 
-0.922721 -0.486108 -0.047660 0.212436 0.026111 -0.949867 
-2.442142 0.866716 -1.214212 -0.649330 0.162517 0.733801 
1.946010 -0.091050 -0.103283 -0.301829 0.111432 0.939786 
-0.166155 -0.819804 0.062871 0.110449 -0.373957 -0.912257 
0.949721 -0.328555 -0.018527 -0.210126 0.031342 -0.955960 
-0.740234 -0.667527 0.009024 0.139037 -0.040740 -0.962729 
-2.372980 0.263031 -0.911007 -0.728924 0.312182 0.577448 
1.163126 -0.572234 -0.157162 -0.243154 0.060502 -0.939855 
1.336145 -0.007495 -0.110247 0.282596 -0.147897 0.935188 
2.678213 0.793387 -0.252839 0.033456 -0.156833 -0.980111 
0.482452 -0.192096 0.143411 0.440377 -0.180953 0.866423 
1.499526 0.784935 -0.113528 0.348294 -0.094605 0.884675 
0.834040 -0.326342 0.038930 0.383050 -0.076913 0.912584 
0.370281 0.178350 0.315818 0.199721 -0.308988 0.928786 
-2.003211 1.702423 -0.888716 -0.734155 0.095975 0.629880 
0.256264 0.009857 0.300567 0.264363 -0.242263 0.905453 
-0.770535 0.718995 0.235368 -0.441854 -0.038516 0.890069 
-0.562043 0.079921 0.224865 -0.353016 -0.286615 0.874298 
-2.585955 1.519408 -1.399413 0.532594 0.007287 -0.842101 
2.298776 1.789407 -0.218832 -0.076334 0.352254 -0.919929 
0.356131 0.644340 0.056309 0.751536 0.332225 -0.522836 
-0.264043 -0.622549 0.206652 -0.432003 -0.129284 0.873472 
0.979108 -0.517766 -0.064275 -0.199722 0.019823 -0.952163 
-0.116511 0.387701 0.456082 -0.089440 -0.336017 0.935890 
-0.347634 0.235691 0.097218 -0.571019 0.097038 -0.813202 
-0.982845 0.613493 0.145950 -0.571607 -0.157687 0.790366 
2.352667 0.651595 -0.238776 0.233360 0.189319 0.907057 
-1.850173 1.400934 -0.682970 -0.832318 0.043996 0.518173 
-0.438509 0.540259 0.387135 -0.294269 0.113666 0.881133 
-0.082840 0.933645 0.521812 -0.218293 -0.006687 0.967301 
0.448777 0.532245 0.395673 0.286871 0.101963 0.890662 
0.816740 -0.524818 0.008247 -0.156105 -0.021571 -0.962464 
0.127393 -0.704008 0.228171 0.180204 -0.152664 0.964078 
-1.864477 0.679817 -0.506510 -0.630348 0.023007 0.766885 
-1.956464 1.002238 -0.733712 -0.811735 0.271502 0.486004 
-0.050947 1.189288 0.449792 0.151390 0.645459 0.715135 
-1.429653 -0.077332 -0.173947 -0.425555 -0.100399 0.896620 
-1.008856 0.125462 0.000560 0.260244 0.103570 -0.941353 
0.019472 0.535057 0.506366 0.046367 -0.305636 0.950056 
1.099781 -0.592805 -0.123675 0.360224 -0.091093 0.918669 
-0.247544 -0.693107 0.033877 -0.010178 -0.301515 -0.942065 
0.770102 0.312096 0.073809 0.016824 0.090835 -0.926106 
-1.944523 1.833271 -0.925170 0.764025 -0.032526 -0.643581 
-0.092917 -0.016320 0.327040 -0.129224 -0.166230 0.971637 
0.638541 -0.943296 0.049102 -0.102770 -0.184559 -0.960009 
1.060225 0.937107 0.029852 -0.293571 -0.022942 -0.933818 
-2.212144 0.288552 -0.746224 -0.617727 0.149215 0.753598 
-0.140578 0.958689 0.050000 -0.553788 0.356207 -0.731486 
0.937416 -0.125187 0.018277 0.407372 -0.123588 0.900620 
-1.366656 1.331728 -0.075092 0.418746 -0.180109 -0.883046 
-0.095382 1.230831 0.134068 -0.638161 0.376739 -0.627294 
-0.041687 -0.332715 0.312036 -0.137826 0.015701 0.988474 
-0.571471 0.186040 0.265543 -0.313735 -0.330014 0.879483 
-1.289653 0.092330 -0.138598 0.394153 0.052940 -0.902240 
0.621715 -0.059858 0.018864 0.215130 0.063299 -0.891284 
2.795273 1.674829 -0.230312 0.170338 0.080762 -0.979678 
0.655698 -0.216068 0.063742 0.458158 -0.136369 0.873987 
-1.934949 0.781592 -0.680623 0.742014 -0.249132 -0.592759 
-1.633711 1.279433 -0.276336 -0.832465 0.075544 0.490930 
-2.372332 0.922867 -1.169962 -0.655387 0.137723 0.729027 
-0.534773 0.239398 0.302408 -0.290371 -0.360130 0.880483 
0.180283 0.187748 0.367424 0.136144 -0.280320 0.948528 
-0.498353 0.619788 0.336685 -0.220851 0.675750 -0.633971 
1.213846 -0.507610 -0.161879 0.368622 -0.120950 0.913685 
-0.128432 -0.284008 -0.152774 -0.503452 -0.212540 -0.814559 
2.086287 0.180645 -0.151957 -0.246301 0.045320 0.949845 
-2.518994 1.984412 -1.367349 -0.504284 0.214456 0.795073 
-1.781203 1.619021 -0.567310 -0.826551 0.135497 0.487197 
0.485249 0.537337 0.180554 0.439215 0.389886 -0.665345 
-2.253263 0.199739 -0.753119 -0.636436 0.184187 0.733077 
1.229243 0.398176 -0.052192 -0.228878 0.029397 -0.966523 
-1.076973 0.973564 0.018526 0.576221 0.148665 -0.797109 
2.870558 1.267890 -0.223278 0.256440 0.172710 -0.946841 
2.656244 0.912624 -0.259827 0.009622 -0.183672 -0.974465 
-1.926763 1.770886 -0.895639 0.759957 -0.053194 -0.645786 
-0.134752 0.220440 -0.222192 -0.643658 0.031907 -0.742281 
0.956433 0.128780 0.091165 0.361362 -0.217331 0.899559 
1.212178 -0.641316 -0.158687 0.313530 -0.017468 0.918904 
0.099539 -0.078921 0.322923 0.147315 -0.134846 0.972128 
0.237477 1.027580 0.173029 0.809332 0.351682 -0.393879 
1.244598 0.489975 -0.052890 -0.212864 0.006468 -0.970973 
0.198420 -0.860029 0.184735 0.125475 -0.062365 0.980191 
-0.209562 0.648427 0.500253 -0.246881 0.269494 0.900074 
1.582747 1.701494 -0.095553 0.110824 0.445891 0.843574 
2.354216 1.121715 -0.270883 0.059262 -0.022340 0.992822 
1.179615 0.647671 0.022145 0.533552 -0.131344 0.802571 
1.915763 0.228372 -0.163300 -0.234532 0.025355 0.948968 
2.196406 1.777790 -0.201863 -0.084913 0.394615 -0.892276 
2.470685 0.157620 -0.155668 0.033811 0.164782 0.975055 
2.157970 0.331549 -0.185711 -0.104241 -0.220118 -0.951206 
0.249201 0.453549 -0.116323 0.697974 0.122430 -0.693149 
2.683665 0.497350 -0.226378 -0.043208 0.106043 0.989627 
-1.903530 0.479693 -0.473249 -0.631667 0.104993 0.764506 
1.237702 -0.425532 -0.165903 -0.276969 0.093832 -0.936579 
1.881813 1.569207 -0.140983 0.293993 -0.056011 0.919169 
-0.460876 -0.192505 0.021519 -0.350732 0.034136 -0.875363 
0.569079 -0.943574 0.069244 0.313617 0.062691 0.941688 
-2.190285 0.008131 -0.602387 0.611971 -0.215108 -0.756474 
3.046733 1.530486 -0.173123 0.237684 0.066355 -0.967700 
-2.495064 1.595814 -1.347793 -0.578710 0.113468 0.791877 
0.377760 -0.324689 0.012579 0.422561 -0.002120 -0.881431 
-0.520947 -0.598184 0.081171 -0.426481 -0.038806 0.893008 
-0.169102 -0.649372 0.229638 -0.205198 -0.215642 0.951460 
-1.649880 0.551099 -0.297503 -0.651442 0.036080 0.741760 
1.318942 1.211883 -0.075573 -0.118288 -0.137596 -0.979689 
3.236094 0.938727 -0.126783 -0.235054 0.005994 0.970665 
0.529267 -1.044912 0.098828 -0.101527 -0.232447 -0.961534 
-0.819128 0.327752 0.178709 -0.466059 -0.262618 0.829842 
-0.129129 0.777947 -0.034550 -0.487446 0.431858 -0.740373 
-1.200416 -0.659304 -0.186511 0.292683 0.018926 -0.917516 
-1.494140 1.415637 -0.197645 0.469520 -0.000977 -0.873355 
-0.484248 -0.986792 0.094915 -0.328648 0.074247 0.939056 
0.247749 1.022418 0.404934 0.829151 0.112250 0.435683 
-2.422019 0.529766 -1.080219 0.661531 -0.237393 -0.707699 
-0.067622 1.328571 0.159115 -0.645446 0.619366 -0.345912 
-1.651743 0.865037 -0.289172 0.552550 -0.159837 -0.806886 
-0.416615 0.276143 0.098486 -0.471746 0.117532 -0.829979 
-0.060359 0.660729 -0.141747 -0.416425 0.419909 -0.791350 
-0.773071 0.199130 0.182992 -0.357754 -0.281908 0.876708 
1.588862 0.484559 -0.183907 -0.153854 -0.008797 -0.984506 
1.391358 0.972362 -0.101835 -0.130748 -0.097474 -0.982833 
0.173382 -1.065464 0.170613 -0.171658 -0.416262 -0.885259 
-0.297312 -0.531127 -0.012582 -0.433385 -0.152654 -0.849074 
-1.068127 -0.161003 -0.036109 -0.409605 -0.130620 0.898548 
-2.743600 1.536029 -1.501545 -0.526056 0.049317 0.846339 
1.301687 0.133167 -0.097700 -0.238356 0.088607 -0.961043 
-0.052188 1.004218 0.041118 -0.363772 0.341017 -0.845720 
-2.021034 0.916228 -0.823609 0.658593 -0.118918 -0.731046 
-1.583695 0.049525 -0.272100 0.437319 0.009734 -0.883101 
2.518046 1.259242 -0.264744 -0.068118 -0.132111 0.973578 
-1.536314 0.012636 -0.233075 -0.463825 -0.058960 0.872093 
1.102720 0.683239 0.057999 0.592598 -0.148348 0.773456 
0.149320 -0.393446 -0.122118 0.482466 -0.276966 -0.815886 
-0.064720 -0.260400 0.314575 -0.151802 -0.029697 0.982398 
0.388264 -1.089290 0.145762 0.367248 0.158164 0.860015 
2.719720 1.765793 -0.225341 0.145422 0.314087 -0.924796 
-2.696349 1.770021 -1.477772 0.508688 -0.013040 -0.858700 
-2.356129 1.437193 -1.237604 -0.615403 0.278287 0.724244 
-0.514466 0.133596 0.266172 -0.328584 -0.319045 0.874891 
-1.314270 0.873400 -0.097513 0.391929 -0.094376 -0.894407 
-1.679728 1.382453 -0.412595 -0.882880 -0.030085 0.402201 
-2.163844 1.893393 -1.130214 -0.657128 -0.056788 0.727593 
0.814265 0.273797 0.181232 0.398203 -0.253066 0.866634 
0.553511 0.004857 0.038102 0.298782 0.072261 -0.876612 
2.155355 0.670606 -0.235204 0.407706 0.256774 0.851735 
0.557708 -0.048453 0.174865 0.397210 -0.224712 0.874668 
1.821267 0.765438 -0.217231 -0.054278 -0.173021 0.954795 
0.099671 -0.690750 0.020540 0.011112 -0.395186 -0.913231 
-0.369053 -0.271223 0.167930 -0.475323 -0.165589 0.844013 
-1.644316 1.364540 -0.347661 -0.896730 -0.029821 0.362021 
-2.580297 1.904769 -1.406053 -0.535275 -0.107537 0.829680 
-2.137353 0.579184 -0.788839 -0.805647 0.446510 0.319591 
-1.139094 0.890015 0.059763 -0.714299 -0.209042 0.663546 
2.251740 1.460242 -0.249480 0.017329 0.227248 -0.970400 
-2.167430 1.495614 -1.099500 -0.681344 0.271627 0.666378 
2.485333 0.825088 -0.261640 0.012653 0.045862 0.995342 
-0.250744 -0.840783 0.173617 -0.134032 -0.100854 0.973176 
-2.431070 1.291798 -1.269661 -0.590482 -0.013978 0.797880 
2.448853 1.561857 -0.208676 0.018584 -0.070804 0.965025 
0.064492 -0.624723 -0.006689 0.141300 -0.405778 -0.894687 
-0.511018 -0.220402 0.119386 -0.462062 -0.168668 0.858680 
-0.325204 0.643641 -0.037971 -0.679168 0.295027 -0.670917 
2.417823 1.153956 -0.269340 0.006954 -0.060156 0.985604 
-1.545903 1.691830 -0.262607 -0.581659 0.554023 0.521883 
-0.250020 -0.693245 0.199143 -0.311317 -0.132768 0.913928 
0.903114 -0.186470 0.000425 -0.156042 0.046382 -0.947650 
-0.022871 0.799663 0.510634 -0.095798 -0.113882 0.985002 
-2.431470 1.578058 -1.307521 0.561424 0.005534 -0.821361 
0.539150 0.566211 0.234733 0.195235 0.514391 -0.659570 
1.477427 0.914225 -0.102208 0.382193 -0.131049 0.867239 
0.100960 -0.809373 0.224420 0.201286 -0.053506 0.962299 
2.334828 0.729207 -0.247152 0.205558 0.155112 0.924460 
-2.000397 0.154601 -0.472225 -0.603675 0.134621 0.779263 
3.369831 1.443233 -0.066724 -0.293175 -0.100510 0.947097 
3.153033 1.133427 -0.146840 -0.208767 0.024965 0.967930 
-1.866296 0.808776 -0.594599 0.809304 -0.366194 -0.420324 
-0.376784 -0.189839 0.033916 -0.447725 0.029572 -0.863791 
1.784943 0.675421 -0.238377 -0.203756 -0.068474 -0.967591 
-1.192382 -0.521165 -0.186969 0.274827 0.109687 -0.931056 
0.124817 0.369788 0.449816 0.090933 -0.339675 0.934458 
0.977650 0.133947 0.003047 -0.147154 0.109321 -0.932349 
1.494007 -0.428021 -0.281980 0.382925 -0.183771 0.903605 
0.836607 0.460836 0.089618 -0.157882 0.196583 -0.949131 
2.178581 1.126724 -0.246856 0.147486 -0.022221 0.986800 
0.006405 -0.019080 -0.259574 0.458597 -0.122204 -0.843921 
-0.658824 0.522475 0.304274 -0.117365 0.179893 0.951033 
-0.400197 -0.598827 0.103554 -0.464011 -0.057167 0.874267 
1.499680 -0.220287 -0.231621 0.277903 -0.169126 0.933139 
-1.671142 0.950495 -0.263914 -0.713343 -0.052641 0.664978 
0.023353 -0.346208 -0.185162 0.379012 -0.333151 -0.845939 
1.060994 -0.236284 -0.053253 -0.248417 0.068436 -0.949787 
1.948218 0.863450 -0.256886 0.033781 0.075459 -0.991178 
2.750554 0.680814 -0.235324 -0.094839 0.043410 0.986721 
-2.274857 0.121276 -0.743112 -0.647440 0.208768 0.721472 
1.843189 1.099066 -0.205037 0.124047 0.116836 -0.959922 
-0.705428 -0.804334 0.015177 -0.349594 -0.004837 0.927451 
-2.009544 0.750031 -0.690673 -0.803675 0.342014 0.410090 
-1.799366 0.102504 -0.370196 -0.515883 0.015214 0.840154 
-2.065574 1.429064 -0.992679 0.713636 -0.373410 -0.585346 
-0.016316 1.359905 0.084939 -0.460918 0.266941 -0.804695 
0.902434 -0.283442 0.029936 0.372767 -0.080769 0.917257 
2.256606 1.005059 -0.279081 -0.043404 0.020521 -0.993100 
0.462277 -1.378648 0.183482 0.758355 -0.103836 0.442800 
-1.705060 0.393741 -0.342367 -0.600921 0.057282 0.781652 
-1.404324 0.434705 -0.188675 0.448160 -0.035435 -0.865838 
-0.850174 0.670288 0.166839 0.593713 0.318659 -0.707465 
0.334380 0.483860 0.012289 0.694386 0.192156 -0.679088 
0.360986 -0.285568 0.183042 0.501227 -0.161719 0.828554 
1.949488 1.233569 -0.198688 0.256262 -0.103683 0.937029 
-0.333019 0.150735 0.075742 -0.574292 0.058257 -0.809937 
1.666679 0.966357 -0.196253 -0.182176 -0.115030 -0.965845 
0.162082 -0.147770 0.310125 0.224328 -0.124169 0.947330 
0.032899 1.382352 0.137413 0.563084 0.683874 -0.446919 
-0.076644 1.036744 0.525003 -0.147257 0.031291 0.975229 
-0.380238 -1.272443 0.129199 -0.102361 -0.006468 -0.949930 
1.396451 -0.198054 -0.184909 0.358579 -0.173755 0.912001 
1.504157 0.423062 -0.135506 0.263546 -0.061235 0.940030 
-0.367588 -1.190681 0.172360 0.067625 0.070916 0.969810 
-2.320390 1.610362 -1.238719 -0.621226 0.150247 0.753702 
2.596914 1.651669 -0.238685 -0.036208 -0.074381 0.987316 
0.345220 0.297564 0.059701 0.589002 0.111018 -0.793309 
-1.835496 0.385932 -0.419106 0.595025 -0.113108 -0.785992 
-1.070982 0.212716 -0.012902 0.309239 0.074990 -0.945543 
-0.925582 0.085347 -0.003401 0.134501 0.103648 -0.913280 
-2.097222 0.050181 -0.518833 0.600221 -0.194169 -0.772580 
1.779354 0.343290 -0.205468 -0.001132 -0.045192 -0.977093 
0.056201 0.946427 0.006972 0.429447 0.391369 -0.798651 
1.684791 1.341996 -0.156495 0.074804 -0.065955 -0.961696 
-1.939960 1.693332 -0.797930 -0.758743 0.104019 0.591903 
2.428249 0.016738 -0.128322 -0.001983 -0.183625 -0.981744 
-1.214503 -0.064706 -0.105705 0.341350 0.108794 -0.932367 
-0.514627 0.456374 0.144203 -0.425019 0.262072 -0.767658 
1.559639 1.360102 -0.161437 0.117389 0.107657 -0.982863 
-1.111348 1.026991 0.080866 -0.099472 0.151862 0.940649 
-0.160194 0.135482 -0.195315 -0.644261 -0.002302 -0.739930 
-1.640808 1.531851 -0.422814 0.671246 -0.289603 -0.657648 
2.223923 1.706716 -0.197467 0.147953 -0.043871 0.968675 
0.275657 -1.082360 0.149042 -0.324613 -0.313294 -0.880953 
3.278104 1.115253 -0.115287 -0.258944 -0.023740 0.964386 
-0.131586 0.114777 0.341402 -0.116103 -0.248835 0.959494 
0.767793 0.465011 0.274612 0.426530 -0.075226 0.872462 
1.892742 0.838966 -0.214918 -0.183955 -0.239923 0.940854 
1.268622 0.686647 -0.051016 -0.180096 -0.042231 -0.980154 
-0.158494 0.538049 0.495188 -0.156055 -0.267563 0.949501 
0.141654 1.158168 0.379331 0.946782 -0.104232 0.087397 
0.305999 0.494559 -0.060830 0.712680 0.148641 -0.677634 
0.419944 0.645694 0.251326 0.594203 0.510729 -0.448652 
-0.921430 0.182268 0.025544 0.165242 0.102468 -0.932884 
2.122355 1.058689 -0.237784 0.183971 0.006389 0.977527 
0.704631 0.486699 0.303386 0.267283 0.090643 0.932835 
2.235633 -0.045765 -0.114401 0.103321 -0.167888 -0.964745 
2.550550 0.432198 -0.212355 0.080725 -0.105946 -0.986952 
-0.291546 0.382405 0.418479 -0.142582 -0.266610 0.949889 
-0.369428 0.408675 0.118625 -0.634905 0.209853 -0.726951 
0.003022 1.152848 0.485699 0.074731 0.541857 0.828601 
0.265061 -0.280272 -0.060590 0.586084 -0.161734 -0.780926 
1.402656 -0.356278 -0.228946 -0.327245 0.142081 -0.926744 
-0.135421 -1.006538 0.189140 -0.157525 0.082637 0.978697 
-1.492790 1.044505 -0.178975 0.477615 -0.157865 -0.848959 
0.336528 0.116565 0.061609 0.556662 0.043075 -0.817994 
3.302042 1.455798 -0.091000 0.289974 0.072729 -0.952556 
-0.829330 -0.238101 -0.002440 0.125516 0.037464 -0.935011 
0.262445 0.795039 0.045776 0.628780 0.487265 -0.582176 
0.931026 0.206012 0.113305 0.401986 -0.216067 0.878436 
1.485306 1.408219 -0.134671 -0.076673 -0.105897 -0.965768 
-0.067319 -0.970937 0.209152 -0.281066 0.084793 0.942422 
2.556015 0.648591 -0.249822 0.073206 -0.070766 -0.991006 
-2.060659 1.687370 -1.031378 0.709653 -0.050924 -0.693463 
0.707201 0.095591 0.030546 0.154027 0.098527 -0.889356 
-1.242695 0.884208 -0.004494 -0.712151 -0.173457 0.666646 
-0.229087 0.836477 0.460555 -0.563449 0.167812 0.800212 
0.263459 0.814871 0.433136 0.604267 0.267417 0.690643 
-2.116592 1.947569 -1.074572 -0.661159 0.158629 0.718319 
-0.042680 1.100215 0.505098 0.059433 0.314557 0.907755 
1.367492 0.613207 -0.092662 -0.173600 -0.029238 -0.981036 
-1.013015 0.672853 0.053249 0.255340 0.006622 -0.964601 
-0.021718 -0.654172 0.018597 -0.315683 -0.417732 -0.843978 
2.005791 1.272560 -0.215360 -0.119892 -0.029891 -0.974002 
3.222890 1.356387 -0.126389 -0.266477 -0.096800 0.952740 
-1.702413 1.785452 -0.530803 0.780573 0.333765 -0.459093 
-1.396270 1.166937 -0.060675 -0.748608 -0.194586 0.615610 
2.155136 0.764409 -0.238740 0.338850 0.193369 0.888533 
0.206651 -0.697570 0.029746 0.133294 -0.273470 -0.945224 
0.752945 0.151462 0.182394 0.342285 -0.267455 0.890498 
-0.442535 -1.418098 0.159194 -0.065560 -0.783235 -0.022915 
-2.097478 1.486509 -1.027943 -0.726080 0.248378 0.628145 
-0.144948 0.044304 0.328277 -0.140938 -0.211071 0.964231 
0.054274 1.189684 0.449535 -0.160132 0.647921 0.711654 
-0.084173 -0.800503 0.065418 -0.067615 -0.404299 -0.897589 
0.138720 0.538604 0.499052 0.148429 -0.274717 0.948443 
-0.102530 -0.034490 -0.215142 -0.550661 -0.062265 -0.816583 
2.379266 0.066982 -0.135571 0.084057 0.192251 0.961810 
-2.327487 1.242540 -1.190569 -0.610966 -0.014975 0.778261 
-1.920836 0.524772 -0.534293 0.684384 -0.241149 -0.653059 
1.526784 0.167940 -0.175376 0.205379 -0.094585 0.961431 
-0.212856 -0.870808 0.076942 0.165433 -0.345552 -0.913749 
-0.220927 -1.084847 0.184447 -0.167110 0.159362 0.952787 
3.282892 1.645603 -0.076037 0.297318 0.245003 -0.900651 
0.138596 -0.456638 -0.091161 0.390870 -0.370734 -0.824995 
0.273320 0.476860 0.450883 0.150436 -0.236001 0.957939 
-0.269818 0.212351 0.356054 -0.169777 -0.313287 0.932710 
0.169534 -0.174213 -0.156785 0.564474 -0.119143 -0.803426 
0.035938 0.880345 -0.029191 0.419949 0.403979 -0.800254 
-0.202178 0.625819 -0.099714 -0.574826 0.312993 -0.726210 
-0.180021 -0.187404 0.299978 -0.282696 -0.120704 0.920950 
0.101698 -0.109049 -0.200735 0.521050 -0.116644 -0.822210 
-0.035473 -0.437740 -0.150543 -0.337725 -0.404893 -0.846811 
0.217650 0.425734 0.451665 0.136657 -0.284568 0.946258 
-0.302846 0.374816 -0.053958 -0.707486 0.074973 -0.694204 
-1.363906 0.386079 -0.137731 -0.574382 -0.068575 0.789125 
2.677282 1.701909 -0.224905 -0.096706 -0.169340 0.960671 
1.641659 0.160155 -0.237541 -0.111957 0.060463 -0.986161 
-2.093516 0.425742 -0.675358 -0.568163 0.071565 0.809699 
1.485165 0.049649 -0.171596 0.211646 -0.122050 0.956400 
1.334123 1.348259 -0.032172 0.544668 -0.259889 0.784841 
0.310822 -0.477541 0.007494 0.430506 -0.089031 -0.872258 
-0.207299 1.117096 0.176172 -0.802493 0.411922 -0.373615 
0.101172 -0.406966 0.311498 0.127218 -0.118378 0.983450 
0.347285 -0.108106 0.264100 0.419395 -0.230185 0.840925 
2.967318 1.342705 -0.195849 0.235519 0.100928 -0.961064 
0.710045 -0.670388 0.031766 -0.113904 -0.062837 -0.967803 
0.166637 0.696953 0.495521 0.202114 0.180441 0.940178 
-0.441124 -0.210144 0.151360 -0.452092 -0.187037 0.856435 
-1.191352 -0.442408 -0.172031 0.286537 0.113313 -0.931077 
-2.208731 0.912400 -1.020489 0.683283 -0.184061 -0.701701 
-1.288808 0.243989 -0.106578 -0.519394 -0.090132 0.828219 
0.379044 0.637005 0.411191 0.534194 0.137344 0.778106 
0.208669 0.356937 0.433591 0.130265 -0.317294 0.937627 
-0.695583 -0.094681 0.001545 -0.102247 0.063992 -0.896114 
-1.689518 -0.201440 -0.305402 -0.413729 -0.076893 0.905397 
-0.442267 -0.551568 0.044807 -0.207560 -0.047787 -0.922761 
-1.421886 1.647830 -0.048099 -0.642960 0.290122 0.592350 
-0.588925 0.368827 0.104706 -0.235318 0.182932 -0.859776 
0.014178 1.062590 0.523634 0.073846 0.237794 0.940461 
-1.071069 0.888803 0.034052 0.337758 0.014642 -0.925025 
-1.390692 1.427721 -0.010007 -0.270645 0.091193 0.895875 
-0.168955 -0.452042 -0.080446 -0.433898 -0.336433 -0.814248 
2.404158 0.984221 -0.271741 0.019897 -0.001386 0.991909 
-0.186827 -0.168900 -0.144292 -0.590666 -0.114858 -0.782792 
-0.298735 -0.136401 0.011286 -0.564125 -0.050832 -0.810226 
0.081450 0.629867 -0.140960 0.453213 0.377735 -0.780585 
-1.003382 0.484507 0.043241 0.260737 0.046080 -0.961056 
-1.656856 1.307072 -0.390903 0.597736 -0.152851 -0.741908 
-0.965926 -0.163892 -0.013746 0.263865 0.058311 -0.944883 
1.334952 -0.432625 -0.205576 0.376783 -0.151395 0.908651 
-0.651958 0.511130 0.168039 -0.001382 0.462562 -0.654469 
2.275489 1.517296 -0.206117 0.124297 -0.048422 0.958305 
-0.236841 1.032611 0.428674 -0.792110 0.021214 0.542538 
-1.517537 -0.363680 -0.301531 0.363844 0.159755 -0.914456 
0.746161 -0.334721 0.019571 -0.044489 0.004884 -0.943353 
0.885214 0.433451 0.180813 0.544829 -0.160729 0.815829 
1.261233 -0.208681 -0.139452 -0.304023 0.121371 -0.937276 
-0.260060 -0.143724 -0.095584 -0.660287 -0.117245 -0.719283 
0.642221 0.173231 0.236077 0.328790 -0.298592 0.885871 
1.321160 1.415168 -0.007677 0.463161 -0.064846 0.860149 
1.069210 1.091976 0.061319 -0.771004 0.282597 -0.482807 
-0.961442 0.761991 0.082175 0.640910 0.277466 -0.691224 
1.435452 0.628929 -0.117587 -0.159510 -0.036310 -0.984409 
-1.906971 0.752771 -0.618659 0.793875 -0.369471 -0.445748 
-2.744075 1.821487 -1.498225 -0.509469 -0.040330 0.854313 
0.516218 0.416000 0.404296 0.209590 -0.120206 0.948315 
-0.365700 0.488037 0.089764 -0.677223 0.235371 -0.681768 
-0.663901 -0.237858 -0.002034 -0.093519 0.035078 -0.909326 
-2.673018 1.897066 -1.460914 0.506362 0.006061 -0.858968 
1.159291 1.068963 0.051922 0.598164 -0.137905 0.771101 
-1.233795 1.232105 -0.039629 0.513402 0.136448 -0.836406 
-2.358388 1.670350 -1.272530 -0.613442 0.076793 0.778905 
-0.320459 -0.051664 0.280179 -0.362030 -0.240701 0.864298 
1.732746 1.173636 -0.138298 0.370617 -0.026672 0.888591 
0.210443 0.585070 0.493806 0.208935 -0.211934 0.941469 
0.680231 0.641958 0.266161 0.133477 0.147878 0.922988 
1.903831 0.960757 -0.185666 0.168735 -0.042225 0.959499 
-1.829634 1.718511 -0.662415 -0.806966 0.121829 0.529795 
1.635937 0.538492 -0.181973 0.211600 -0.028175 0.955416 
1.842945 0.995194 -0.240847 -0.078401 0.034754 -0.976684 
-0.380300 -0.419670 0.025528 -0.364909 -0.015242 -0.893057 
0.271225 0.050207 -0.109949 0.705274 -0.049896 -0.683042 
-1.060428 0.358137 0.004031 0.296084 0.050713 -0.950575 
3.233529 1.442716 -0.116919 0.275789 0.065203 -0.957470 
-1.432211 0.355495 -0.183550 -0.568155 -0.039378 0.796706 
-1.606926 1.387250 -0.291313 -0.907697 -0.055988 0.333391 
0.382357 0.546779 0.123251 0.663664 0.325085 -0.667055 
-2.131155 1.708152 -1.065310 -0.682774 0.078536 0.705424 
0.223275 1.093662 0.341639 0.850102 0.494199 0.103236 
-0.178853 -0.749250 0.038789 0.029564 -0.329461 -0.925708 
2.793591 1.113809 -0.234102 -0.202124 -0.135367 0.963133 
1.075778 0.932759 0.107947 0.464463 -0.039481 0.866476 
0.104242 0.316176 -0.238735 0.619735 0.095574 -0.756201 
1.164128 -0.257785 -0.087103 0.378956 -0.131200 0.911073 
-1.355159 -0.461008 -0.256161 0.324847 0.164217 -0.919648 
1.425424 0.434559 -0.100912 0.317045 -0.079199 0.915095 
1.382225 0.144666 -0.130267 -0.209097 0.080824 -0.966973 
0.520966 0.371722 0.114864 0.343033 0.188028 -0.835191 
-0.767707 0.328115 0.083016 0.015395 0.099979 -0.927753 
-1.696221 0.028761 -0.322806 0.452444 -0.005834 -0.876703 
-0.806934 0.628158 0.209112 -0.382327 0.074407 0.901227 
1.760712 1.084609 -0.212735 -0.157188 -0.032520 -0.950770 
0.924177 -0.677918 -0.055532 0.349541 -0.048861 0.925574 
-2.179456 0.746263 -0.905974 -0.771995 0.378954 0.416906 
0.250695 0.657501 0.491818 0.337419 0.300386 0.857136 
-2.650443 1.519408 -1.440757 0.526111 -0.013260 -0.846922 
-1.575661 -0.278694 -0.290666 -0.402383 -0.138659 0.900682 
-2.143180 0.000400 -0.547475 -0.602544 0.175918 0.776632 
-1.730043 1.605337 -0.495398 -0.848106 0.144541 0.455025 
1.136122 1.146020 0.059355 -0.024722 0.206793 0.892923 
-1.176991 -0.124593 -0.106719 0.331232 0.124714 -0.931876 
0.517418 0.605133 0.305092 0.145759 0.631644 -0.652415 
-0.127159 0.474048 0.482555 -0.120837 -0.303758 0.943215 
2.625992 1.413999 -0.259381 -0.019703 0.032612 0.986167 
-0.428389 -0.075205 0.208724 -0.384327 -0.241681 0.870613 
-1.559136 1.295735 -0.279196 0.594257 -0.164874 -0.683860 
1.391778 1.495527 -0.057672 0.524948 -0.293612 0.793580 
-1.969364 0.556151 -0.586828 -0.584446 0.054934 0.803379 
0.545411 0.475501 0.143990 0.365251 0.275947 -0.782211 
0.107083 0.221648 0.386257 0.083403 -0.298133 0.946548 
0.190867 1.199508 0.549734 -0.483159 0.193483 0.820844 
2.017526 0.160581 -0.151944 0.089075 -0.175518 -0.941161 
0.834678 0.275440 0.056813 -0.043328 0.094186 -0.931760 
1.686880 0.583218 -0.218036 -0.124109 -0.034992 -0.990844 
2.043908 0.007024 -0.122879 0.176500 -0.153638 -0.946190 
-1.187077 1.038364 0.066642 -0.543693 -0.095637 0.806859 
-1.063537 -0.552643 -0.129244 0.237686 0.067334 -0.940075 
-1.395597 1.584620 -0.085397 0.962925 -0.082651 -0.228704 
-1.975505 0.937242 -0.773443 0.651197 -0.065146 -0.740340 
-0.341483 0.404723 0.049899 -0.656761 0.155254 -0.722986 
0.993911 0.537447 0.106034 0.583894 -0.165506 0.789557 
-0.538796 -0.111110 0.021686 -0.278569 0.052003 -0.876886 
2.092108 1.677379 -0.172130 0.200107 -0.051620 0.949391 
-2.221926 1.351427 -1.126150 -0.617973 -0.059124 0.773388 
-0.260371 0.691256 -0.047639 -0.589186 0.438975 -0.642999 
3.035525 1.219325 -0.179563 0.263358 0.113951 -0.952344 
0.303658 -0.052591 0.002081 0.576710 -0.047238 -0.795467 
-0.065129 -0.934690 0.121832 -0.136542 -0.422946 -0.875937 
-0.378835 0.636767 0.114499 -0.774488 0.355578 -0.469921 
-2.144504 0.080211 -0.585445 0.626655 -0.234679 -0.725744 
2.081128 1.263402 -0.229639 -0.142443 -0.036659 -0.973428 
2.904707 0.896574 -0.206344 0.103304 -0.132747 -0.970709 
2.419066 0.848693 -0.274682 0.001909 -0.036890 -0.995646 
3.180454 0.980394 -0.141649 0.249498 0.022287 -0.964664 
-1.259592 1.086286 -0.042449 0.366772 -0.118550 -0.909611 
-2.712368 1.597969 -1.486721 -0.526288 0.046723 0.844788 
2.385654 0.293054 -0.177802 0.148971 0.199313 0.934907 
-2.501373 0.836298 -1.250824 0.630295 -0.198443 -0.746929 
0.203032 -0.746584 0.204389 0.164255 -0.150684 0.965115 
1.728502 0.887373 -0.213424 -0.214903 -0.107729 -0.959501 
-0.656964 0.417898 0.111288 -0.150545 0.219257 -0.863787 
-0.197507 0.367094 0.440827 -0.126753 -0.319345 0.937645 
-1.461320 0.064991 -0.199126 -0.473983 -0.063555 0.864335 
-0.994050 0.159694 0.062176 -0.456318 -0.193484 0.860535 
-0.447426 0.044423 0.250976 -0.339746 -0.288559 0.877347 
0.231974 0.747860 0.472838 0.389093 0.269452 0.865034 
-0.092637 0.287609 -0.256171 -0.621509 0.066211 -0.762166 
3.036319 0.960341 -0.174774 -0.213210 -0.045099 0.969523 
1.107684 0.314859 0.025764 0.483442 -0.154445 0.848546 
2.265738 1.166912 -0.258817 0.114325 -0.026111 0.991030 
0.298246 0.378075 0.415008 0.145067 -0.264379 0.949997 
0.895588 0.592639 0.086062 -0.407572 0.245143 -0.837665 
0.170203 -0.637247 0.009249 0.202395 -0.295400 -0.930691 
1.688310 1.208227 -0.192713 0.100267 0.125253 -0.981070 
3.109594 0.952722 -0.157646 -0.225415 -0.034233 0.969372 
1.679943 1.251579 -0.128019 0.459327 -0.039714 0.857510 
-2.798162 1.939595 -1.524039 0.480498 0.029660 -0.874262 
0.481819 -0.925006 0.091796 -0.029089 -0.145442 -0.979800 
0.928324 -0.560181 -0.033700 0.355437 -0.059240 0.923481 
2.959650 0.954724 -0.192421 -0.197329 -0.050717 0.970410 
-1.963795 0.623206 -0.609908 -0.575866 0.035343 0.811420 
-1.732066 1.164545 -0.421693 -0.885343 0.198660 0.377089 
-2.532895 0.912516 -1.283900 -0.631008 0.162307 0.751396 
0.192820 -0.952483 0.175822 0.121466 0.014556 0.983941 
-0.457606 -0.625343 0.055643 -0.145113 -0.066276 -0.936380 
2.439468 1.284901 -0.273780 -0.120748 -0.220815 -0.961557 
-2.667322 1.105320 -1.405681 -0.586144 0.110777 0.796675 
0.000512 -0.827723 0.254302 0.590729 -0.004796 0.789976 
-0.139116 1.089260 0.083558 -0.508889 0.327455 -0.788029 
-1.892343 1.830835 -0.809918 -0.796028 0.123366 0.577853 
2.290309 1.387366 -0.251021 0.129076 -0.088202 0.980014 
1.477936 -0.073286 -0.184301 0.199179 -0.147078 0.956419 
-0.545059 -0.800743 0.086710 -0.360599 0.025572 0.925956 
0.290685 -0.501903 0.218298 0.569423 -0.125840 0.808722 
-0.069372 -1.080441 0.208184 -0.332431 0.191555 0.916276 
-1.812632 1.270316 -0.618906 0.776209 -0.131787 -0.591792 
-0.860671 -0.438242 0.012856 -0.383926 -0.062315 0.912488 
-1.002627 1.014255 0.126805 -0.309151 0.053475 0.907837 
-2.522761 1.672070 -1.376172 0.555562 -0.052549 -0.826587 
-0.217843 0.318060 -0.162970 -0.728928 0.069850 -0.657945 
-2.174480 1.826710 -1.151592 0.642197 -0.054510 -0.758467 
-2.166428 1.421909 -1.083043 -0.649610 -0.053997 0.744224 
-0.240068 0.145807 -0.140369 -0.715883 -0.011009 -0.674266 
2.189816 1.032350 -0.265666 -0.050745 0.051224 -0.987893 
-1.280158 1.014061 -0.010033 -0.729329 -0.194051 0.642571 
2.604006 0.778507 -0.258637 0.026344 -0.108382 -0.987536 
-2.468077 1.411198 -1.315020 0.556343 0.029459 -0.824381 
2.098777 0.493117 -0.206338 -0.287533 -0.057494 0.947122 
-2.264923 1.295439 -1.153589 -0.613348 -0.045057 0.777260 
3.005354 1.626113 -0.180353 0.233212 0.078846 -0.967997 
-0.965199 0.366515 0.053419 0.248060 0.081856 -0.962938 
0.626634 -0.132212 0.007235 0.196579 0.049359 -0.898156 
1.167339 0.554196 -0.019965 -0.216946 -0.005337 -0.970570 
-0.561097 -0.887754 0.056947 0.060582 -0.108478 -0.975382 
2.616745 1.015521 -0.267638 -0.013638 -0.194795 -0.971386 
-0.406039 0.143698 0.294833 -0.245519 -0.320596 0.909219 
2.538349 0.742028 -0.261598 0.028936 -0.063083 -0.994169 
-1.324436 -0.375391 -0.217094 -0.388264 -0.192671 0.897230 
