-1.386671 0.139796 1.141126 -0.746037 0.392400 -0.522388 
-0.200055 0.607859 -0.098415 -0.442125 0.114122 -0.866430 
-0.678057 -0.310217 0.361414 -0.667212 0.186921 -0.636445 
-0.866025 0.582976 1.301556 0.606741 -0.737820 0.235862 
-0.112206 -0.585666 0.229429 -0.154490 -0.391957 0.902561 
0.475639 0.924682 1.536011 -0.480306 -0.717667 0.452082 
1.574326 0.912788 2.558489 -0.478183 -0.505251 0.710764 
-0.076402 0.458499 -0.136299 -0.378373 0.052624 -0.921154 
-0.530029 1.058120 1.319949 -0.855364 0.448277 0.080499 
-0.441201 1.036773 1.163862 0.764945 -0.318080 -0.133997 
0.143496 1.246690 1.546428 -0.590720 -0.532041 0.444723 
0.374313 -0.580466 0.064334 0.658970 0.010739 -0.703459 
1.070696 0.221991 1.548475 -0.776348 -0.530772 0.067942 
-0.655366 0.547030 0.447645 -0.663510 0.556261 -0.398998 
1.315675 0.279425 1.933248 -0.583967 -0.325847 0.703895 
-0.806504 0.686147 1.032676 -0.801374 0.542141 -0.104811 
1.108902 0.289862 1.518517 -0.634365 -0.658101 0.039691 
0.771631 0.365806 0.566722 0.750826 0.398278 -0.435181 
0.960739 0.436924 1.430622 0.742861 0.576027 -0.328435 
1.270805 0.352777 1.914986 0.743023 0.504996 -0.402113 
0.315327 1.289774 1.657041 0.687195 0.557829 -0.458133 
-1.144529 0.269459 0.845736 -0.770662 0.432995 -0.448673 
0.855705 -0.389566 0.563013 0.570439 0.334152 -0.632897 
0.276477 0.283215 0.458680 0.362822 -0.072148 0.917213 
0.081898 -0.969943 -0.087053 0.245919 0.220590 -0.930158 
-0.992195 -0.364123 0.673424 0.549443 -0.303922 0.703888 
0.888680 0.694080 1.746703 -0.683440 -0.696934 0.202289 
0.339805 0.582236 -0.043903 0.570703 0.150425 -0.765503 
-0.618514 0.933619 2.010317 -0.832774 0.533924 -0.117121 
-0.479260 1.132663 1.210557 -0.722305 0.642212 -0.170970 
0.983340 1.038514 2.174646 0.574140 0.550221 -0.603612 
-0.238953 -0.139419 -0.083218 -0.502997 -0.099624 -0.852902 
-0.207832 0.690407 -0.093569 -0.482382 0.226938 -0.820447 
0.078243 -0.097497 0.427848 0.132514 -0.317022 0.936985 
0.267104 0.406289 0.451921 0.254724 0.015547 0.961784 
-1.649213 0.230618 1.682656 0.302588 -0.788034 0.338749 
0.371450 -0.291906 0.074105 0.795736 -0.023049 -0.595274 
0.684254 0.088476 0.460616 -0.399992 -0.414592 0.750405 
-0.071106 1.289196 0.178005 -0.655829 0.483213 -0.520017 
1.213895 0.349891 1.853747 -0.747004 -0.569312 0.277271 
-0.095841 -0.093250 -0.153286 -0.455319 -0.074124 -0.871015 
0.140518 -0.224653 0.367378 0.165210 -0.321938 0.929647 
1.293705 1.020207 2.445498 0.516747 0.675156 -0.514612 
-1.287635 0.249434 1.360208 0.620262 -0.545417 0.476165 
0.769530 0.983880 1.907449 -0.572007 -0.575159 0.571067 
0.868487 1.098665 2.132503 0.595018 0.607679 -0.519819 
-0.668658 0.711585 0.814062 -0.255398 0.786162 -0.533683 
1.190580 0.311470 1.787842 -0.768292 -0.557157 0.163490 
0.814190 0.326215 0.718497 -0.546489 -0.587496 0.547556 
-1.015836 -0.137298 0.712175 0.605537 -0.372255 0.624690 
-0.440851 1.032556 1.015596 -0.417406 0.662961 -0.513781 
0.256604 0.014596 0.412436 0.377243 -0.257817 0.881769 
0.072403 -0.789329 -0.052574 0.114495 0.050926 -0.956855 
1.737190 0.848983 2.618845 -0.468229 -0.530444 0.701185 
0.687306 0.676404 1.200995 0.771769 0.607692 -0.102858 
0.789462 -0.643866 0.452378 0.480269 0.297567 -0.697011 
-0.701138 -0.387379 0.369239 0.381565 -0.312364 0.780355 
-0.048481 -1.110317 -0.132239 -0.266231 0.282801 -0.920718 
-0.395841 1.167191 1.359687 0.515118 -0.783078 0.336790 
0.899361 -0.613682 0.542160 -0.365923 -0.432583 0.704201 
-0.474291 0.975520 1.098394 0.788115 -0.397538 -0.053152 
-0.337809 0.786253 0.206834 -0.947694 0.261074 -0.077715 
0.108244 0.012944 0.469515 0.202864 -0.294714 0.929497 
0.617805 1.309015 2.068524 -0.459529 -0.557831 0.680672 
-0.287666 0.956296 0.253559 -0.918415 0.351953 -0.029401 
0.219199 -1.148695 -0.042565 -0.021120 0.060181 -0.921584 
0.311272 0.038971 -0.040927 0.490435 -0.094876 -0.860725 
-1.063717 0.032074 0.755727 -0.714565 0.361803 -0.532646 
0.226745 0.806364 0.434920 0.558946 0.082939 0.810284 
1.280388 1.267349 2.662487 -0.500333 -0.610678 0.610928 
-1.131961 0.451762 1.640214 0.338354 -0.778715 0.038073 
-0.768975 0.865728 2.527405 0.728920 -0.596948 0.325490 
0.584149 0.762090 1.077305 0.785408 0.612125 -0.020587 
-1.068127 -0.519179 0.714802 0.515301 -0.307790 0.729006 
-0.953963 0.796013 2.736279 0.664697 -0.632726 0.384430 
-0.185119 1.156424 0.186376 -0.766754 0.502443 -0.324827 
-0.222316 -0.954391 0.032061 0.263790 -0.357590 0.872677 
0.097538 -0.254335 -0.142945 0.407359 -0.160430 -0.880650 
0.859806 0.513911 1.266076 0.756874 0.579078 -0.242370 
1.366857 0.324669 2.033041 -0.591485 -0.341267 0.701077 
1.352473 0.062980 1.105027 -0.615824 -0.641834 0.409407 
1.451122 -0.030868 1.860622 0.761402 0.419584 -0.365218 
1.015877 -0.264632 0.728474 0.587204 0.423787 -0.558578 
0.006900 0.333887 -0.195234 0.432979 0.071401 -0.896996 
-0.522554 1.210805 2.417199 -0.771464 0.618384 -0.125689 
0.717700 0.472360 0.847432 -0.507969 -0.737776 0.443629 
1.055816 -0.142987 0.800181 -0.564983 -0.500365 0.556030 
0.268693 0.886511 0.378287 0.810452 0.115202 0.530172 
-0.713206 -0.553735 0.375011 -0.564293 0.186191 -0.738231 
-1.257337 0.661384 2.921578 -0.576656 0.662537 -0.471622 
-0.721320 0.793968 1.294067 -0.767124 0.595361 -0.007160 
-1.154825 0.182466 0.878418 0.711583 -0.447872 0.508654 
0.485682 -1.086121 0.064721 0.353111 0.222082 -0.842080 
-0.263388 1.458876 1.517226 -0.397571 0.618363 -0.547262 
-1.380038 -0.276591 1.058613 0.648179 -0.325631 0.632050 
1.298811 -0.062824 1.618688 -0.829061 -0.429143 -0.078678 
0.453431 -0.185178 0.149423 0.786067 0.034731 -0.589110 
-0.986127 0.610636 1.969478 -0.477000 0.871679 0.099600 
-1.531086 0.280091 1.670006 0.306875 -0.782178 0.275131 
-0.439655 -0.612892 0.113075 -0.610949 0.061944 -0.735242 
0.321536 0.644979 -0.071203 0.578813 0.201864 -0.784291 
0.889709 0.331206 0.718874 0.752986 0.460908 -0.404085 
-0.372786 1.247012 1.662178 0.552088 -0.794165 0.163772 
0.323212 -0.777130 -0.019737 0.492839 -0.012727 -0.852759 
0.747285 0.444096 0.638417 0.751769 0.493633 -0.336181 
-0.230104 -1.224453 -0.051468 0.122639 0.038946 -0.907716 
0.071793 0.660195 0.485080 0.067452 0.199593 0.964676 
1.151079 0.587932 1.939306 0.722903 0.538040 -0.383803 
-1.578778 -0.079358 1.309963 -0.780183 0.263711 -0.565291 
-0.628095 0.956581 2.170964 0.759469 -0.556258 0.312576 
0.108639 -1.068454 -0.110585 0.315562 0.241350 -0.910084 
1.370319 0.569313 2.230825 -0.575866 -0.373078 0.718627 
-0.734953 -0.618919 0.398088 -0.557409 0.159895 -0.760432 
0.385475 -1.185865 0.023816 0.540631 -0.009178 0.689212 
0.268009 0.427975 -0.066651 0.455680 -0.020217 -0.885261 
0.970460 1.269951 2.393396 -0.513970 -0.567275 0.638775 
0.342003 0.783809 0.199790 0.934618 0.307209 -0.073095 
1.011129 1.337155 2.505444 -0.531880 -0.596864 0.598392 
0.070251 -0.890493 0.040977 0.084002 -0.472442 0.834627 
0.638033 1.080038 1.865650 -0.473397 -0.655898 0.549474 
0.491541 0.754940 1.051343 -0.589658 -0.721610 0.314403 
-0.009520 0.410417 -0.179881 -0.399282 0.075078 -0.911740 
1.467742 1.025175 2.587976 -0.491657 -0.517619 0.690969 
0.557194 -0.061525 0.293710 -0.266519 -0.344337 0.854059 
0.741795 1.109428 2.024666 -0.542789 -0.515203 0.652914 
0.855321 0.329551 0.655581 0.751424 0.424163 -0.432000 
0.301654 0.122183 -0.044951 0.469265 -0.085982 -0.876177 
0.396375 0.698698 0.142546 0.602186 0.752975 -0.055595 
0.274001 0.281382 -0.058116 0.450139 -0.047693 -0.889522 
0.775876 0.920341 1.858795 -0.555043 -0.522460 0.628541 
-1.071293 0.742092 2.805164 0.630811 -0.641108 0.423419 
1.448810 0.645864 2.322984 -0.552368 -0.459998 0.673306 
-0.784310 0.222554 0.525082 0.422350 -0.457953 0.703915 
1.349437 1.034058 2.504527 -0.497187 -0.494766 0.703282 
-1.040087 -0.332662 0.728318 -0.652516 0.230824 -0.658486 
-0.862521 0.610039 1.451620 0.601439 -0.777897 0.157305 
0.700980 0.610294 1.179828 -0.555645 -0.694629 0.428155 
0.634470 0.506028 0.443105 0.740762 0.509234 -0.328441 
0.543017 -0.663447 0.228719 0.533369 0.152466 -0.767449 
0.483274 0.677257 0.688863 -0.728295 -0.586960 0.287647 
-1.391921 0.412742 2.382567 0.389615 -0.905534 0.001287 
-0.881156 0.597414 1.549103 -0.669310 0.695876 -0.205798 
0.969614 0.134231 0.773057 -0.600560 -0.481375 0.568074 
0.742273 0.335735 0.630295 -0.506901 -0.562145 0.606481 
0.150484 0.812182 0.474269 0.313374 -0.160885 0.923695 
0.451567 -0.641407 0.094340 -0.168716 -0.220230 0.956449 
-0.466633 0.622885 0.553806 -0.168714 0.931045 -0.214701 
1.253681 -0.010391 1.600126 -0.833650 -0.447933 -0.122166 
1.165505 1.001926 2.328954 -0.506814 -0.432838 0.740195 
0.670194 0.389417 0.426122 0.748484 0.334830 -0.471722 
0.467697 0.990508 1.596857 -0.477937 -0.743906 0.404068 
1.280319 -0.100785 1.559973 0.851445 0.417092 0.170932 
-1.033538 0.453548 1.098981 -0.739470 0.569428 -0.263893 
-0.192259 -0.196060 -0.109551 -0.515354 -0.090096 -0.845526 
-0.452969 0.635678 0.223930 -0.624683 0.754592 -0.169500 
0.697110 1.025006 1.870334 -0.529005 -0.603649 0.568757 
-1.258047 -0.410219 0.883414 -0.585019 0.380544 -0.637881 
0.832294 0.818407 1.827168 -0.556738 -0.443655 0.699211 
-0.628962 0.923781 1.567226 -0.796860 0.509027 -0.102812 
-0.942138 1.007336 3.002137 -0.667569 0.545812 -0.494252 
-1.250857 0.503457 2.668550 -0.563041 0.757920 -0.277108 
0.655481 0.724671 1.272840 0.782622 0.587571 -0.120741 
0.122005 -0.639677 -0.024082 -0.011229 -0.108947 -0.992914 
-0.750747 -0.007989 0.456013 -0.783055 0.204487 -0.525554 
0.622340 -0.153222 0.362335 0.783461 0.144457 -0.541039 
-1.082267 0.118118 0.776170 -0.731304 0.391259 -0.502815 
-0.344182 -0.305208 0.049230 -0.785335 -0.028090 -0.614346 
0.765461 1.244435 2.159328 -0.491713 -0.533548 0.677623 
0.213922 -1.241954 -0.052729 -0.140129 0.035434 -0.889561 
0.520875 0.564944 0.251262 0.742009 0.546941 -0.293994 
-0.369455 0.213526 0.396879 -0.399437 -0.148499 0.892717 
0.265327 -1.286268 -0.002588 -0.387856 -0.230250 0.692627 
-0.859127 -0.319917 0.533453 -0.625247 0.255615 -0.656108 
0.520985 0.769179 1.117858 -0.463584 -0.752815 0.459275 
0.658934 -0.834448 0.256964 0.397732 0.305084 -0.770453 
-0.449274 1.156375 1.698168 -0.887920 0.352003 -0.002981 
0.924321 0.373950 1.026043 -0.636373 -0.600869 0.456481 
0.385567 0.887569 1.011000 0.357547 0.744866 -0.461949 
-0.944545 -0.719181 0.469489 -0.399905 0.492545 -0.705524 
-1.084587 0.404433 1.424184 0.618409 -0.683101 0.267244 
1.503555 0.053210 2.001022 0.717595 0.413813 -0.553478 
-1.114946 0.441292 1.566779 0.348545 -0.731320 0.135218 
-0.553220 0.296424 0.358146 0.166885 -0.452018 0.818850 
1.310606 -0.041695 1.031486 0.615198 0.588739 -0.422971 
-0.731915 0.563895 0.821648 0.481013 -0.700466 0.501309 
-0.584966 -0.629324 0.238957 -0.539034 0.162728 -0.763689 
1.441834 0.137135 1.986179 -0.661570 -0.391971 0.611927 
-1.296971 -0.013850 1.006746 -0.745006 0.319043 -0.545867 
0.627817 0.472246 0.697352 -0.777223 -0.441559 0.353136 
-1.213718 0.151473 0.917950 -0.757915 0.388861 -0.489871 
-0.488947 0.247788 0.373973 -0.076818 -0.358207 0.835860 
0.717744 1.334154 2.181865 0.635274 0.554317 -0.522104 
0.168451 0.892758 0.473904 0.375273 -0.118384 0.887368 
0.046097 0.735751 0.462362 0.065580 0.008922 0.988672 
-0.130538 -0.264830 -0.130208 -0.444279 -0.146498 -0.866901 
0.525591 1.314751 1.947254 0.690237 0.557107 -0.428306 
-1.120284 0.365656 1.281982 0.650389 -0.620992 0.334496 
0.904247 0.263491 0.756506 -0.595436 -0.536844 0.555799 
-1.130646 0.467541 2.434777 -0.580304 0.784075 -0.197632 
-0.163663 -0.002541 0.453431 -0.272354 -0.287014 0.913625 
-0.499848 1.113335 1.529094 -0.856710 0.411827 0.018460 
1.086881 0.953635 2.212668 -0.563810 -0.657311 0.497043 
1.339815 0.131988 1.843981 -0.754878 -0.492986 0.298795 
-1.422418 0.046405 1.152823 0.749849 -0.351641 0.544456 
0.468845 0.733092 0.794682 -0.689705 -0.677143 0.251285 
-1.030314 0.575738 1.891480 -0.470754 0.875053 0.101245 
1.118774 -0.133242 0.845418 0.618977 0.481247 -0.502412 
-1.007331 0.571598 1.771074 -0.493146 0.859502 0.113977 
-0.153253 -0.514937 0.249229 -0.151675 -0.352708 0.918059 
1.718861 0.905302 2.660435 0.479389 0.546017 -0.681270 
0.007928 -1.027226 -0.044214 0.574692 -0.417706 0.682134 
-1.368819 0.243837 1.327771 0.010095 0.378916 -0.769153 
-0.073126 -0.457000 0.280143 -0.061250 -0.270001 0.955499 
1.613588 1.039373 2.712924 -0.488964 -0.564956 0.659504 
0.075209 -0.693103 0.186003 0.230649 -0.431110 0.857718 
0.977375 0.685140 1.855956 -0.504098 -0.331019 0.777944 
0.490741 -0.878105 0.143537 0.448494 0.130402 -0.835820 
-0.760006 0.703544 1.581652 0.608931 -0.728049 -0.130636 
0.791446 -0.140003 0.531456 -0.419574 -0.375607 0.714087 
0.372072 -0.937996 0.065523 -0.148575 -0.225999 0.939576 
0.326114 -0.919531 -0.008978 0.278385 -0.002963 -0.919085 
0.895442 0.456727 1.309722 -0.660162 -0.621657 0.395890 
-0.905526 -0.021270 0.598383 -0.720976 0.306147 -0.542110 
0.277188 1.032413 1.325243 -0.727719 -0.639318 0.166607 
-0.148053 1.115040 0.093897 -0.520957 0.447922 -0.720786 
-1.470847 -0.171877 1.193202 -0.747937 0.241822 -0.598344 
1.169449 -0.128029 0.899778 -0.554041 -0.555760 0.512377 
0.219883 0.759541 -0.052473 0.563178 0.468173 -0.642886 
1.096990 1.241409 2.492307 0.546029 0.567701 -0.615071 
0.098248 1.277638 0.330512 0.363887 0.777834 0.507318 
0.829622 1.051076 2.053306 -0.533477 -0.679425 0.488391 
-0.234818 1.069367 0.336247 -0.873967 0.441134 0.142821 
-0.087680 0.494698 0.531805 -0.204718 0.090931 0.960717 
0.639283 0.126598 0.298721 0.757713 0.169179 -0.588275 
1.483619 -0.011248 1.401999 -0.512090 -0.753918 -0.155254 
0.359180 1.062951 1.363560 0.855467 0.493215 -0.083401 
-1.049436 -0.224842 0.738967 -0.671241 0.269280 -0.621260 
0.260783 1.026378 0.322280 0.914314 0.360696 0.134215 
-1.534696 0.305865 1.739799 -0.417349 0.831640 -0.307452 
0.584147 0.375168 0.241093 0.740127 0.223543 -0.565482 
-0.819939 -0.071429 0.516649 -0.731702 0.254115 -0.551762 
-0.363298 1.276796 1.760271 0.694833 -0.605938 0.371972 
-0.392161 0.045206 0.344676 -0.393246 -0.216513 0.876677 
-0.891438 0.643466 1.755830 -0.555191 0.805274 0.165900 
-0.163850 0.520000 0.514037 -0.319092 0.077414 0.943029 
0.703125 1.497356 2.352334 0.457644 0.737908 -0.484748 
1.207622 0.053109 1.589767 -0.835450 -0.470444 -0.152630 
-0.465906 0.687140 0.624107 0.708113 -0.511309 0.457349 
-0.024542 1.359982 0.151353 -0.593700 0.408086 -0.640897 
-1.370024 0.394320 1.775782 -0.443806 0.877671 -0.056539 
-0.769630 0.736788 2.240152 -0.757029 0.625849 -0.134517 
-0.593929 1.178608 2.656479 -0.616766 0.770175 -0.106510 
0.579054 -0.130157 0.298171 0.781249 0.117887 -0.559240 
-0.972680 0.158220 0.676848 -0.781180 0.332107 -0.477970 
0.421009 0.809372 0.895377 0.507109 0.769428 -0.378672 
0.513802 0.605821 0.383286 0.571596 0.741224 -0.207959 
0.452467 0.382009 0.026364 0.658367 0.054509 -0.734348 
-0.379356 0.663819 0.211219 -0.041896 0.711166 0.022042 
0.105465 0.117796 -0.153855 0.474571 -0.001551 -0.874027 
-0.760518 0.702142 1.840844 0.625172 -0.714381 0.224141 
0.416380 -0.256750 0.122551 0.792587 0.007460 -0.587504 
0.193610 1.106125 0.142255 0.695878 0.441379 -0.495353 
0.623180 0.570941 0.899638 -0.647082 -0.659433 0.305451 
-0.772482 -0.694213 0.421283 0.420516 -0.240809 0.826838 
0.092086 0.470331 -0.125121 0.379242 0.045782 -0.920383 
0.342228 -0.458152 0.044509 0.743644 -0.030927 -0.640716 
0.369988 -0.136892 0.292214 0.384683 -0.244607 0.861238 
0.809476 -0.706950 0.427355 0.427470 0.364906 -0.699473 
-0.309782 0.243891 -0.040000 -0.436759 -0.063774 -0.895111 
1.011011 1.153763 2.333380 -0.565840 -0.494039 0.654270 
-0.424182 0.631561 0.290165 -0.489390 0.819241 -0.139610 
1.201138 0.576313 1.997458 0.702328 0.507556 -0.438932 
-1.180445 0.530435 2.211135 -0.427682 0.886306 0.056683 
-0.242757 0.187775 0.471400 -0.359704 -0.166073 0.906411 
-0.202841 1.154965 0.300597 -0.832005 0.527483 -0.017381 
0.514486 0.679819 0.760766 -0.712634 -0.642948 0.245039 
-1.123009 0.618666 2.681667 0.625460 -0.600044 0.488015 
-1.049564 0.803116 2.872008 0.607517 -0.665359 0.423420 
-0.663935 0.021153 0.381562 0.284265 -0.381744 0.799219 
0.538023 -0.745219 0.212376 0.492880 0.156631 -0.798067 
1.111140 0.290862 1.661199 -0.786418 -0.551824 0.043607 
0.398736 1.041178 1.466941 0.853580 0.480697 -0.136822 
0.828466 -0.321813 0.553412 0.604146 0.318695 -0.630876 
-0.375475 0.632972 0.369830 -0.315644 0.899391 -0.081045 
-0.848687 0.238468 0.500360 -0.754719 0.289702 -0.543224 
-0.880757 0.320263 0.630715 0.519343 -0.494498 0.635149 
0.179861 1.198658 0.353493 0.828415 -0.211934 0.429676 
0.736078 0.784008 1.622574 0.685575 0.445889 -0.469346 
1.333358 0.201922 1.886194 0.690564 0.379929 -0.587351 
-1.063049 0.672286 2.686697 0.640624 -0.606258 0.457426 
-0.430607 1.187612 1.636610 -0.881776 0.325879 0.048454 
0.053078 -0.870479 -0.066465 0.196478 0.136531 -0.937178 
-0.172097 0.754568 -0.071131 -0.535023 0.416749 -0.682205 
-0.263699 0.640670 -0.084746 -0.535600 0.176870 -0.805454 
-0.911287 0.559026 1.488981 -0.663292 0.725876 -0.140193 
-0.489378 1.163948 2.012905 -0.867401 0.461233 -0.031631 
0.555789 0.574978 0.331376 0.742122 0.590226 -0.258607 
0.335345 -0.081145 0.337294 0.460284 -0.251983 0.846160 
0.708049 0.683093 1.347791 0.775877 0.584513 -0.165550 
0.331476 0.661337 0.369012 0.774401 0.189248 0.540240 
-1.109608 0.352657 1.038386 0.708825 -0.555962 0.384162 
-1.339517 0.032153 1.064385 0.725545 -0.363309 0.552814 
1.154107 0.425068 1.857844 -0.681792 -0.492886 0.483847 
0.828873 1.500268 2.486526 -0.644194 -0.362658 0.656065 
-0.800543 0.716620 2.104700 -0.629426 0.753940 0.000931 
0.700087 -0.750582 0.352344 0.455714 0.247640 -0.744576 
1.164731 0.711264 2.072729 0.651798 0.511959 -0.525788 
1.362134 0.435651 2.111423 -0.563990 -0.327089 0.739913 
0.866269 1.382720 2.412358 -0.545355 -0.600078 0.583241 
-1.069956 0.390514 1.111893 0.689371 -0.597555 0.340696 
-1.238792 0.100142 0.962115 0.714844 -0.404927 0.533553 
1.186573 0.170468 0.968875 0.728719 0.518892 -0.426683 
0.052807 1.320192 0.288944 0.496808 0.700140 0.468824 
1.401281 0.259777 2.027658 -0.618727 -0.362197 0.667251 
-0.520886 0.469177 0.155766 -0.665924 0.392578 -0.513674 
-0.347983 1.272387 1.585172 0.519624 -0.808893 0.244239 
1.531487 1.360752 2.941178 -0.491643 -0.604478 0.624830 
0.601643 0.915440 1.657840 -0.546051 -0.741509 0.318493 
0.577083 0.047367 0.338145 -0.316513 -0.382032 0.823029 
1.250836 0.551933 2.043253 0.688552 0.479096 -0.480771 
0.579008 0.845252 1.460566 0.812574 0.527488 -0.180014 
0.628061 0.984014 1.665207 0.725416 0.581106 -0.290679 
-0.374604 -0.820394 0.029468 -0.529566 0.043142 -0.817325 
0.397446 0.082875 0.352242 0.299244 -0.228850 0.879847 
-0.644032 -0.438180 0.307547 0.323354 -0.292138 0.820902 
0.881252 0.454133 1.230528 -0.643490 -0.624692 0.413289 
0.994404 0.381836 1.395225 -0.708263 -0.590992 0.359653 
-1.309514 0.487383 2.720319 -0.549780 0.758941 -0.299764 
0.344660 -0.516962 0.163296 0.243901 -0.276610 0.901261 
-0.617675 0.905594 1.908943 -0.801193 0.561601 -0.034046 
0.870210 -0.092753 0.628307 -0.501254 -0.411473 0.652348 
-0.341394 1.375043 1.950921 0.898672 -0.101590 0.317193 
0.204039 1.061295 0.536649 0.170128 -0.494282 0.756923 
0.947798 0.515131 1.612893 0.704106 0.535517 -0.410917 
-0.615195 1.053718 2.321285 0.702486 -0.623765 0.332452 
1.409187 1.064404 2.576653 0.511883 0.632956 -0.570112 
0.707106 0.612372 0.946348 0.774976 0.598195 -0.124770 
1.225714 1.350239 2.693128 -0.484269 -0.639543 0.594211 
0.860794 -0.656413 0.492605 0.444897 0.374414 -0.674347 
0.924009 -0.766572 0.398334 -0.271303 -0.657181 0.669431 
0.575024 1.411475 2.103651 0.652604 0.571111 -0.469062 
-1.276939 0.429557 2.425523 0.425509 -0.883982 -0.010291 
-0.971652 0.570607 1.671340 -0.548855 0.713257 -0.395731 
0.520030 0.600175 0.482799 0.447070 0.823380 -0.190964 
-1.027586 0.111489 0.722714 -0.738042 0.372855 -0.501328 
0.002688 0.485378 -0.169637 0.371481 0.084474 -0.923406 
-0.280033 -0.541195 -0.059035 -0.520174 -0.096885 -0.841092 
1.160034 0.825407 2.162045 0.592748 0.445962 -0.642370 
-0.238738 0.807273 0.425996 -0.600485 0.114494 0.776843 
-1.063963 -0.398662 0.747138 0.560137 -0.278741 0.712816 
-0.801852 0.717324 1.453175 -0.714681 0.643932 -0.042053 
-0.038896 -1.026461 -0.098910 -0.301492 0.275657 -0.912024 
-0.272270 0.298234 0.467249 -0.358175 -0.054991 0.921267 
-0.475212 -0.879376 0.097479 0.276185 -0.226690 0.920616 
-0.591272 0.935329 0.994699 -0.573435 0.685329 -0.399005 
-0.994468 -0.685747 0.519103 -0.408373 0.510328 -0.690999 
-0.724744 0.735612 0.850193 -0.626818 0.679152 -0.362835 
0.471428 -0.520244 0.125808 -0.152003 -0.229498 0.949712 
0.343315 -0.035504 -0.025264 0.568704 -0.064145 -0.801426 
1.317216 0.012970 1.706673 0.785328 0.404312 -0.152655 
-0.292210 -1.261739 0.007864 0.158661 -0.135473 0.948972 
0.530529 0.954727 1.624959 -0.509884 -0.742513 0.364440 
-0.098618 -1.076311 -0.089898 0.084022 -0.446318 0.832883 
0.401469 0.648015 0.489306 0.399897 0.904265 -0.057672 
0.558270 1.325395 2.024789 -0.454927 -0.559677 0.681181 
-0.558970 0.132674 0.177967 -0.739498 0.141663 -0.630175 
0.577047 1.103696 1.802828 0.711602 0.475315 -0.453777 
0.718627 1.392334 2.244500 0.618722 0.566172 -0.532005 
1.412674 0.040713 1.262735 0.585648 0.678273 -0.060698 
-0.095751 -0.587652 -0.041264 0.029799 -0.203983 -0.971168 
-0.142782 1.204062 0.466460 0.305917 0.763314 0.489753 
-0.823790 0.640482 1.724490 0.566553 -0.706328 0.235773 
-0.795766 0.853466 2.602928 -0.717269 0.609794 -0.331113 
0.242331 1.071554 0.231662 0.877192 0.419145 -0.134221 
-0.556362 1.033747 1.626656 -0.756517 0.563805 0.204087 
-1.242687 -0.264569 0.946927 -0.696193 0.233239 -0.632792 
0.652114 -0.406977 0.368325 0.629103 0.201289 -0.661601 
0.280345 0.927856 0.169660 0.844820 0.361332 -0.289575 
-0.915090 0.534931 1.109293 0.640180 -0.646747 0.353480 
-1.154651 0.903038 3.096207 0.570391 -0.654708 0.485917 
-1.307657 0.300888 1.432141 0.058208 -0.511546 0.516274 
-0.542621 1.118105 2.181900 -0.861315 0.471822 -0.103050 
0.587191 1.259175 1.988842 -0.459914 -0.527694 0.703239 
-1.214144 0.465155 2.561277 -0.567104 0.786202 -0.204303 
1.557509 1.213484 2.827988 -0.488601 -0.606385 0.625844 
0.080096 1.142329 0.478957 -0.243270 0.413091 0.850694 
1.360734 0.228322 1.951937 -0.611749 -0.349495 0.670953 
0.616714 0.779182 1.523152 -0.549360 -0.689103 0.417571 
0.500088 -0.024287 0.161524 0.771336 0.072580 -0.604449 
-0.956788 0.622346 2.040525 0.474269 -0.830323 0.058281 
-0.670498 1.068795 2.636806 -0.769277 0.543556 -0.303231 
-0.658794 0.956891 2.348115 -0.827249 0.522130 -0.190009 
-0.593917 0.571407 0.378323 -0.645140 0.624667 -0.335326 
-1.123644 0.506771 2.507436 -0.589038 0.774571 -0.189732 
-1.201290 0.288544 1.082948 0.693068 -0.515842 0.458288 
0.914148 -0.430237 0.605419 0.541124 0.367064 -0.619989 
1.395091 -0.245652 1.055712 -0.461897 -0.672385 0.453495 
1.613777 0.686617 2.399560 0.489937 0.396444 -0.767256 
0.199184 1.155797 0.264636 0.850768 0.499786 -0.091642 
-0.181469 -0.974713 -0.047590 -0.110731 0.135036 -0.970357 
-0.400977 -0.075404 0.289453 -0.309391 -0.224981 0.892363 
0.898721 0.425175 1.165599 -0.642940 -0.615621 0.426921 
0.058106 0.769845 -0.099675 0.425989 0.297487 -0.833278 
0.647388 0.792661 1.592284 -0.568546 -0.694660 0.377247 
0.521149 0.719130 0.939017 -0.825927 -0.544880 0.032599 
-0.889836 1.065805 3.018842 -0.517477 0.780637 -0.283031 
1.306930 1.120460 2.551246 -0.510392 -0.536858 0.664151 
-0.566531 0.413739 0.445860 0.396280 -0.583758 0.685730 
1.460860 1.419936 2.936780 0.529723 0.543810 -0.647539 
0.025379 0.104940 -0.190877 0.435841 -0.006423 -0.886511 
0.485912 1.444728 2.064761 -0.708775 -0.201545 0.619696 
-0.316882 -0.934454 0.059447 0.106651 -0.244462 0.935014 
1.312630 0.027290 1.047617 0.643098 0.589710 -0.410928 
0.307646 0.195183 -0.040629 0.460041 -0.076530 -0.882465 
0.245416 -1.095137 0.004304 -0.483087 -0.320255 0.712137 
-0.304939 -1.290615 -0.055105 0.092167 0.141432 -0.984255 
0.982944 0.759200 1.888028 0.681715 0.628506 -0.332505 
-1.258687 0.197363 0.966638 -0.772522 0.400670 -0.473572 
0.606726 0.100461 0.380964 -0.353819 -0.404080 0.795709 
-0.634500 0.453490 0.317516 -0.690596 0.342173 -0.568534 
0.518713 -0.595542 0.177264 -0.236441 -0.250817 0.904269 
0.622833 1.482252 2.249348 0.408223 0.774282 -0.445912 
0.227208 -0.110130 -0.089430 0.499960 -0.092028 -0.855664 
-0.949710 0.542766 1.018785 -0.779693 0.530261 -0.219279 
-0.151236 0.420802 -0.104341 -0.391120 0.020183 -0.916321 
-0.758160 0.602730 0.734399 -0.267343 0.814798 -0.444651 
-1.094740 0.565659 2.095046 0.423733 -0.858160 0.034042 
0.244154 -0.866964 0.071548 -0.136057 -0.327030 0.875529 
-1.042126 0.417408 1.190808 0.673191 -0.637429 0.292973 
-0.324019 0.793101 0.131527 -0.868761 0.355613 -0.247610 
-0.077761 0.144976 0.515037 -0.184071 -0.223254 0.946285 
-0.504885 0.923957 1.033274 0.821000 -0.455786 0.007838 
0.187451 -0.146202 0.386499 0.284024 -0.300593 0.898465 
-0.211617 0.299362 0.512572 -0.365068 -0.043787 0.922289 
-0.795611 0.787242 2.451581 0.744673 -0.561368 0.340871 
-1.430524 -0.048360 1.155629 0.731003 -0.319567 0.576797 
-0.600155 0.854761 1.664890 0.651877 -0.710604 0.083495 
-0.596343 0.984656 1.515386 -0.811276 0.485595 -0.012688 
-0.363880 0.524428 0.011565 -0.540956 0.188370 -0.691375 
-0.913404 0.339297 0.548692 -0.745851 0.335657 -0.541044 
0.640669 0.351269 0.508657 -0.450997 -0.529712 0.686364 
-0.933306 -0.275176 0.616621 0.554044 -0.344081 0.675662 
-0.464553 1.119464 1.856794 0.748041 -0.557491 0.329729 
1.196286 0.199714 1.466695 0.609518 0.657784 0.115458 
1.583602 1.297816 2.924940 -0.492722 -0.598490 0.630381 
-0.141154 1.147872 0.414324 -0.981590 -0.130263 -0.061969 
-0.776494 0.745805 2.036285 -0.633762 0.750447 0.025767 
0.129419 1.089039 0.080310 0.490640 0.443967 -0.733423 
-0.704864 0.783457 2.098975 -0.764297 0.639131 -0.062248 
0.543905 -0.445514 0.253033 0.657307 0.123056 -0.664119 
-0.553535 0.399838 0.132357 -0.694000 0.221544 -0.656678 
0.489752 0.065214 0.120401 0.763069 0.070400 -0.624603 
-0.607101 -0.848252 0.237228 0.344311 -0.223679 0.886824 
0.896396 0.561839 1.594676 0.706613 0.541741 -0.394125 
-0.072467 -0.023570 -0.165972 -0.449430 -0.049872 -0.876284 
-0.797514 0.686037 2.193303 0.538614 -0.810661 -0.200800 
-1.400532 0.345197 1.685975 0.350913 -0.813457 0.153699 
-0.009822 0.686353 0.471180 -0.020636 0.131560 0.981187 
-0.102393 1.029446 0.044809 -0.467500 0.445420 -0.737681 
-0.761783 0.452935 0.510250 -0.707844 0.418477 -0.502213 
1.411067 0.506264 2.223561 0.624426 0.383462 -0.655332 
-0.530350 0.874498 0.984993 0.833585 -0.523898 0.076350 
0.801397 -0.778429 0.354022 -0.294169 -0.492071 0.743738 
-0.375603 -0.105948 0.013494 -0.681115 -0.000345 -0.707643 
-0.638070 0.874210 1.974414 0.654467 -0.723118 -0.048815 
0.698078 1.143103 1.964648 0.627377 0.544284 -0.547971 
-0.254840 -0.672444 -0.022794 0.126385 -0.157084 -0.968983 
0.194121 -0.277904 0.329949 0.257448 -0.318090 0.896226 
0.705821 0.034330 0.414803 0.766347 0.207204 -0.549605 
0.268142 1.238177 1.542488 0.806888 0.522246 -0.090782 
0.451931 -0.860574 0.080636 -0.244016 -0.219945 0.938431 
-0.608255 0.613307 0.474629 -0.462863 0.784026 -0.312519 
0.740245 0.569678 0.853212 0.757807 0.620209 -0.172107 
1.207309 0.781051 2.200509 -0.591039 -0.519117 0.600030 
-0.398343 -0.284332 0.211031 -0.243757 -0.251153 0.893757 
-0.819137 1.002288 2.873706 -0.706872 0.527561 -0.464368 
0.397825 0.306207 0.382589 0.163261 -0.163753 0.904729 
-1.301787 0.484491 2.198554 0.352991 -0.912617 -0.043517 
-0.746397 0.922066 2.585683 0.718661 -0.620128 0.304194 
0.502988 -0.490502 0.206171 0.650617 0.097674 -0.679511 
-0.418958 1.242599 1.296093 -0.651245 0.687781 -0.276232 
0.965557 -0.010592 0.732862 0.709884 0.388580 -0.519123 
0.578113 0.740310 1.227074 -0.502303 -0.728996 0.440246 
-1.040481 -0.642385 0.577809 0.415237 -0.507623 0.686725 
0.257179 -0.013625 -0.071482 0.487232 -0.089102 -0.864177 
-0.112801 1.146291 0.496935 0.336226 0.387838 0.825327 
-0.220523 0.890775 0.438990 -0.652185 -0.018253 0.744873 
0.309814 0.371727 -0.041411 0.451127 -0.047556 -0.888817 
0.827843 0.836589 1.758394 0.669420 0.667364 -0.296974 
1.218383 0.211050 1.740720 -0.785135 -0.522847 0.095330 
0.279429 -0.047184 0.379453 0.408205 -0.261778 0.866042 
-0.663724 0.250939 0.269988 -0.732287 0.208546 -0.616609 
0.832506 -0.030710 0.594030 0.760121 0.288620 -0.509276 
1.582515 0.999246 2.648840 0.495861 0.607824 -0.608944 
1.281511 0.110281 1.481382 -0.554374 -0.705378 -0.273803 
1.302724 0.527896 2.105736 -0.521809 -0.293496 0.791302 
1.349139 -0.279009 1.009476 -0.453531 -0.648165 0.477112 
1.115948 0.262036 1.312937 0.685381 0.587722 -0.165254 
1.399423 1.224022 2.712033 0.526734 0.552008 -0.643021 
0.456848 0.627507 0.315183 0.615991 0.734668 -0.149669 
-0.265282 -0.432598 -0.064319 -0.554408 -0.126418 -0.815027 
0.083773 0.325926 0.552913 0.224728 -0.027810 0.962103 
-1.244195 0.274251 1.016215 -0.744506 0.462026 -0.463030 
0.766011 0.589411 1.140823 0.768738 0.584907 -0.163360 
-0.230264 1.100639 0.248346 -0.873988 0.439912 -0.108679 
-1.019675 0.185817 0.725175 -0.780774 0.358374 -0.467373 
0.197755 -0.966035 0.017252 -0.257753 -0.376589 0.867001 
0.243770 1.260349 1.664968 -0.525185 -0.578615 0.615140 
-0.641483 -0.800828 0.293732 -0.510164 0.110527 -0.822576 
0.131238 -0.912396 -0.063137 0.144222 0.128540 -0.958430 
0.254171 0.630396 0.449571 0.484019 0.246247 0.782968 
1.024524 1.466160 2.632440 -0.487410 -0.659201 0.570759 
-0.029268 1.240772 0.393270 -0.061861 0.763422 0.630518 
-1.003901 0.420839 0.885865 0.635061 -0.580845 0.476201 
-0.638912 0.877660 1.762340 -0.738957 0.604398 0.108537 
0.332793 -0.354371 0.041946 0.797841 -0.051504 -0.598774 
-0.773207 0.768919 2.327989 -0.749614 0.619095 -0.183403 
-0.010610 -0.902655 0.046547 -0.487487 -0.414965 0.752907 
-0.949262 0.619274 1.719564 -0.576827 0.791053 -0.142226 
-0.085503 0.944118 -0.012147 -0.474524 0.494961 -0.703934 
-1.162964 0.520814 2.580560 -0.582323 0.760414 -0.235005 
0.834051 -0.581699 0.495816 -0.391517 -0.399980 0.721351 
0.963870 0.877235 2.010167 -0.603707 -0.523377 0.596882 
-0.754860 -0.915978 0.208851 -0.274765 0.582581 -0.744105 
0.661579 -0.697092 0.319753 -0.364028 -0.317650 0.805744 
0.144668 1.154289 0.419188 0.972361 -0.151975 -0.080103 
0.845891 0.387928 0.733415 0.755674 0.506890 -0.345081 
0.416835 0.606191 0.096033 0.657700 0.396454 -0.496407 
-0.736351 0.791747 2.270752 0.806422 -0.509443 0.281184 
-1.147864 0.363614 1.413050 0.531311 -0.630379 0.354914 
-0.064702 -0.297794 -0.151654 -0.361142 -0.200536 -0.894223 
-0.156062 -0.442097 0.280100 -0.134815 -0.327120 0.930253 
-0.428890 -0.133398 0.242942 -0.166311 -0.228507 0.922705 
-0.897450 0.654407 1.923824 -0.516717 0.843310 0.119424 
-1.180401 0.320293 1.269048 0.649485 -0.581967 0.394952 
-0.997558 0.432040 0.805686 -0.737228 0.521272 -0.407387 
-0.170008 0.828492 0.462550 -0.416348 -0.113081 0.875828 
0.104389 1.187826 0.119389 0.520793 0.362008 -0.761037 
-0.680831 -0.237270 0.373110 -0.704566 0.179872 -0.604657 
-0.078731 1.220824 0.131835 -0.560371 0.360955 -0.739094 
-1.172270 -0.479129 0.786315 -0.555192 0.375889 -0.660109 
0.909406 0.165982 0.642814 0.754625 0.344075 -0.509193 
0.326744 -1.229025 -0.002059 0.420984 -0.022047 -0.891803 
0.731126 -0.573288 0.411502 -0.411874 -0.349391 0.756594 
0.440210 1.380592 1.919661 0.698108 0.565789 -0.401998 
0.721037 0.964720 1.842153 -0.527059 -0.555121 0.614144 
0.380306 -0.848651 0.095768 -0.047651 -0.242041 0.921453 
-0.171708 0.837637 -0.034836 -0.535772 0.431042 -0.708910 
1.188817 1.450140 2.747236 0.561735 0.490822 -0.663642 
0.136773 0.777259 -0.070355 0.492665 0.380489 -0.745426 
-0.782802 0.246154 0.417305 -0.746213 0.261335 -0.570089 
-0.449742 1.164454 1.266900 -0.852584 0.467713 0.045574 
-0.589236 0.508577 0.303935 -0.664752 0.475366 -0.455717 
0.987854 0.917192 2.076485 -0.602780 -0.571648 0.550732 
-1.368865 0.430046 2.027035 -0.391853 0.906786 0.030922 
-0.793571 0.731455 1.962260 -0.590623 0.783384 0.095574 
-0.783587 -0.464195 0.451306 -0.589983 0.211164 -0.706621 
-0.780702 0.953142 2.755630 0.663933 -0.660028 0.345724 
-0.591089 1.147675 2.539719 -0.793502 0.564442 -0.202646 
-0.496024 0.183522 0.341992 -0.021320 -0.359819 0.848700 
0.442932 0.651342 0.565743 0.435362 0.862443 -0.145647 
0.573951 0.764893 1.304713 -0.507528 -0.721567 0.437852 
-0.727682 0.768823 1.850313 -0.667907 0.715389 0.112922 
0.533523 0.045326 0.184228 0.764989 0.097438 -0.606844 
0.235739 1.033483 0.161710 0.792173 0.404212 -0.370746 
0.947720 0.717202 1.787940 0.706677 0.617506 -0.325756 
0.784344 0.395981 0.775739 -0.530871 -0.683718 0.465739 
-0.522358 1.172957 2.342155 0.741623 -0.627258 0.205523 
-0.308415 -0.153915 0.328967 -0.455772 -0.276173 0.837830 
-1.231468 -0.338712 0.934445 -0.682541 0.207327 -0.658443 
-0.902910 0.659268 2.009603 -0.497281 0.861850 0.097450 
-0.028482 1.189917 0.445787 0.064571 0.657993 0.734416 
1.295489 0.791102 2.290408 0.535770 0.270581 -0.794950 
1.418737 0.413985 2.163057 0.649068 0.396885 -0.620350 
-0.899045 0.590852 1.067822 -0.773611 0.557503 -0.167596 
0.846764 0.546183 1.400878 0.752147 0.596369 -0.236721 
0.530143 0.131397 0.306377 -0.314716 -0.399666 0.837151 
-0.637572 0.510631 0.381144 -0.672306 0.472266 -0.464700 
1.353518 -0.018714 1.083963 -0.576794 -0.643887 0.425017 
0.028425 1.039493 0.032983 0.301125 0.472676 -0.814080 
-0.054181 1.081089 0.054318 -0.348969 0.466132 -0.799631 
-1.283900 0.425806 1.784962 0.376352 -0.752643 0.468200 
0.476167 1.366256 1.985227 -0.457149 -0.568648 0.669623 
-0.579646 -0.755535 0.230056 -0.510452 0.127121 -0.809194 
0.007607 -0.029042 0.460325 0.064529 -0.323175 0.941408 
0.237621 0.185552 -0.079610 0.462938 -0.047726 -0.881009 
-0.687960 0.827162 2.164881 0.820655 -0.496885 0.267221 
1.113692 0.111570 0.917232 -0.676885 -0.523921 0.485481 
0.949395 0.390409 1.225971 -0.673617 -0.597477 0.412789 
-0.364155 1.319805 1.398869 -0.812883 0.506680 -0.020228 
1.266338 -0.206813 0.960113 -0.501164 -0.604719 0.493066 
-0.350453 -0.384145 0.063537 -0.770681 -0.026704 -0.621285 
0.653892 1.432099 2.208363 0.588760 0.594887 -0.544378 
-0.715468 0.731727 1.791611 0.682971 -0.660146 0.273562 
-0.362773 -0.496581 0.151534 -0.192355 -0.264415 0.921617 
-1.237340 0.410450 1.635581 -0.334681 0.674291 -0.524800 
0.678478 0.658378 1.013505 0.780247 0.589219 -0.089259 
1.284006 1.367451 2.753264 -0.477489 -0.645264 0.594035 
-1.254407 0.546242 2.740328 0.577116 -0.679870 0.412648 
-0.076986 -0.948740 -0.082913 -0.223489 0.202007 -0.934543 
-0.080547 1.160308 0.094952 -0.465067 0.403571 -0.774923 
0.910868 0.266474 0.651430 0.748718 0.379799 -0.492606 
1.362448 0.073758 1.179533 0.625377 0.637990 -0.188516 
-0.181760 -0.704003 -0.019603 -0.043017 -0.077840 -0.992820 
-1.183909 -0.149351 0.888985 0.645773 -0.335427 0.621865 
1.372899 1.459625 2.906554 -0.485496 -0.626616 0.606531 
-0.030545 0.444134 0.542662 -0.112375 0.056555 0.981561 
0.366607 0.505452 0.352321 0.153867 0.131168 0.815391 
-0.250808 0.220881 -0.072724 -0.444616 -0.043531 -0.890856 
1.112534 0.825871 2.107232 0.620160 0.528760 -0.571256 
-0.476179 0.450683 0.482086 0.572319 -0.615909 0.518636 
1.025812 0.695769 1.913747 -0.517010 -0.350454 0.750824 
0.912109 0.980046 2.049562 0.606314 0.542007 -0.576420 
-1.380409 0.382829 2.651106 -0.526292 0.811082 -0.223954 
-1.023672 -0.446055 0.710027 -0.631757 0.191112 -0.697709 
0.771702 0.601376 1.264101 0.763172 0.597078 -0.172211 
1.029341 1.195614 2.388628 -0.551616 -0.523732 0.643593 
-0.265621 -0.296353 0.298823 -0.420065 -0.308543 0.837042 
-0.911321 0.561784 2.318144 0.546301 -0.786188 0.016723 
0.194186 -0.344702 0.302343 0.236575 -0.327676 0.897590 
-1.348616 0.106794 1.063026 -0.772627 0.357494 -0.503756 
-0.533386 1.112573 2.096002 0.702489 -0.609028 0.357032 
1.410320 1.299401 2.790549 -0.482716 -0.627179 0.608772 
-0.840802 0.603235 1.026188 0.624152 -0.638342 0.411194 
-1.158888 0.352106 1.341877 -0.665674 0.611290 -0.320514 
-0.083828 0.700179 0.467466 -0.077532 0.119719 0.981897 
0.000865 0.208991 0.537109 0.093436 -0.162980 0.972408 
1.656774 1.291458 2.976529 -0.496772 -0.586616 0.639420 
-0.982434 1.041413 3.074843 -0.574844 0.687624 -0.406335 
-0.117175 1.034052 0.508414 -0.075896 -0.078638 0.952340 
0.681692 0.539128 0.710969 0.271336 0.876082 -0.346847 
-0.161642 0.899668 0.479190 -0.342243 -0.138369 0.901636 
0.946780 0.413799 1.331959 -0.686191 -0.601997 0.389973 
-0.391553 1.320040 2.102573 0.875831 -0.248891 0.280170 
-0.506367 -0.707065 0.159878 -0.532140 0.118823 -0.786532 
-1.174501 0.540975 2.131183 -0.410940 0.902139 0.102221 
1.102104 0.368541 1.697576 0.696276 0.385279 -0.418844 
1.639054 1.349857 3.015612 -0.497548 -0.587088 0.638094 
-0.674054 0.886571 2.217207 0.782475 -0.535451 0.294186 
0.800977 0.547858 1.093785 0.768242 0.572586 -0.189527 
-0.982068 0.572691 2.232203 0.438514 -0.881605 -0.142444 
-0.434600 1.213679 1.449842 -0.888858 0.365716 0.125612 
-0.230512 -0.484663 0.246894 -0.297253 -0.311840 0.901396 
0.570979 -0.886476 0.182861 -0.286902 -0.293499 0.870830 
-1.065038 0.519225 2.322230 -0.559255 0.794624 -0.135707 
-0.932636 0.599064 1.808349 0.466141 -0.693635 0.452308 
1.120864 0.237913 1.169603 0.709928 0.550441 -0.267841 
1.054697 0.892191 2.093832 0.614657 0.530182 -0.572481 
-0.604772 0.381053 0.181705 -0.704675 0.221025 -0.652193 
-1.138278 0.337855 1.116542 0.689172 -0.562547 0.390250 
-0.920383 0.635129 2.121961 0.491451 -0.862784 -0.077120 
-0.808844 0.808950 2.541349 -0.709935 0.630777 -0.289562 
-0.048407 1.524774 1.549331 0.340242 0.634647 -0.546333 
-0.951024 0.317864 0.696855 0.574235 -0.492784 0.593825 
-0.431427 1.205453 1.535965 -0.888879 0.359596 0.044560 
0.248772 0.077066 -0.074906 0.476158 -0.070479 -0.871845 
-0.768121 -0.774860 0.360703 0.368091 -0.334898 0.811080 
0.041196 0.541168 -0.148455 0.361938 0.080571 -0.924728 
1.281893 0.081783 1.315958 -0.574926 -0.667981 -0.148801 
0.638850 1.388678 2.151113 0.641551 0.566003 -0.494706 
0.702076 0.624233 1.255350 -0.565938 -0.696675 0.411833 
-0.035408 1.389487 0.227607 -0.552708 0.732301 0.117573 
0.395620 0.467889 0.006008 0.599160 0.087268 -0.729607 
-0.581463 1.045301 2.154722 0.721684 -0.592297 0.341135 
-0.188482 0.536098 -0.103141 -0.424347 0.042798 -0.894190 
1.274347 0.697372 2.217434 -0.591324 -0.463019 0.644055 
-0.407198 0.468787 0.011452 -0.584256 0.138285 -0.728753 
0.478575 -0.426655 0.187949 0.698371 0.070005 -0.645641 
-0.160408 -0.124894 0.403791 -0.229133 -0.304626 0.918008 
0.924564 -0.132723 0.676455 0.661088 0.372200 -0.567487 
-0.732109 0.730673 0.924666 -0.786691 0.563245 -0.130671 
0.207893 -0.213760 -0.101562 0.513316 -0.100755 -0.846639 
-0.363252 1.358689 2.026545 0.906189 -0.112857 0.318301 
-0.421870 -0.343089 0.165614 -0.117387 -0.242926 0.929085 
0.791836 0.170819 0.486297 0.753944 0.269042 -0.547749 
0.504587 -0.017725 0.254562 -0.228506 -0.343519 0.876894 
-0.589099 -0.415966 0.254965 0.236845 -0.274063 0.864830 
-0.537337 0.391319 0.377060 0.261108 -0.454014 0.790382 
-0.111062 0.624083 0.502644 -0.094282 0.286049 0.943705 
-0.009562 -0.788005 0.134902 -0.455224 -0.398461 0.790701 
-0.712355 0.383766 0.506661 0.391694 -0.541713 0.709823 
0.898390 0.350443 0.876705 -0.595440 -0.663434 0.430879 
-0.604287 0.366820 0.375939 0.311320 -0.515535 0.793313 
-0.193795 -0.572999 0.218530 -0.263491 -0.360789 0.893802 
0.537117 0.147715 0.157515 0.755562 0.104815 -0.624963 
-0.309639 0.213502 0.443437 -0.413235 -0.137142 0.891547 
0.645106 0.291659 0.462654 -0.443844 -0.470904 0.739111 
1.244596 -0.264683 0.926282 -0.477089 -0.595157 0.512182 
-0.367222 1.202646 1.564940 0.592912 -0.660057 0.311781 
1.454398 1.149007 2.689613 0.514546 0.578032 -0.632350 
-0.132258 -0.873940 0.052430 0.044559 -0.448918 0.865347 
-0.838305 0.653293 1.625642 -0.678589 0.653975 -0.286787 
-1.104890 0.565500 2.181361 -0.449538 0.876656 0.058655 
-0.301191 1.367078 1.690275 0.667278 -0.630403 0.394401 
-0.495103 1.129391 1.947344 -0.862929 0.471367 -0.009564 
-0.027126 -0.627569 -0.010942 -0.237592 -0.076511 -0.961994 
-0.557336 -0.840136 0.185152 0.333401 -0.236046 0.886092 
0.595417 0.812594 1.386778 0.803873 0.547667 -0.153243 
1.201484 0.126541 1.117803 -0.641804 -0.594593 0.160525 
1.165264 0.149829 1.046132 -0.669567 -0.565675 0.286519 
-0.149652 -0.416539 -0.100101 -0.357504 -0.251954 -0.876962 
0.445908 0.145547 0.031964 0.681489 0.033640 -0.712718 
0.735167 0.608481 1.327562 -0.589970 -0.684904 0.396755 
1.575657 -0.089238 1.252325 0.538488 0.737675 -0.341874 
0.931763 -0.063751 0.692440 0.695228 0.369826 -0.539432 
0.098036 -0.326742 -0.138275 0.386350 -0.199223 -0.884624 
1.539927 0.725438 2.379677 -0.506681 -0.525510 0.661548 
1.422108 1.390340 2.879020 0.533252 0.537081 -0.649871 
0.659625 0.988046 1.763024 0.707588 0.574377 -0.319476 
0.117608 -0.826135 0.081457 0.013504 -0.454752 0.866876 
1.663748 1.124097 2.830182 -0.492004 -0.592534 0.637751 
-0.445757 -0.257839 0.159109 -0.789038 0.025528 -0.586156 
-0.642009 -0.689851 0.283724 0.388179 -0.267792 0.830753 
0.627427 0.569063 0.475842 0.741886 0.627362 -0.229296 
0.330159 -0.536100 0.020540 0.681011 -0.032900 -0.695360 
0.768329 -0.264057 0.495923 -0.433231 -0.364854 0.723301 
0.557355 -0.220224 0.259860 -0.212551 -0.294760 0.881469 
-0.450188 1.269987 2.132537 -0.852697 0.484659 -0.043592 
-0.760983 0.116957 0.430218 -0.764331 0.229950 -0.549557 
1.407023 -0.002609 1.133294 -0.575953 -0.669799 0.402689 
-0.959678 0.612484 1.894013 -0.491414 0.864423 0.101494 
-1.023892 0.472810 0.939474 -0.790939 0.486451 -0.296857 
1.398925 0.123657 1.920669 -0.729981 -0.486348 0.445248 
0.656924 0.744568 1.378786 0.789487 0.564896 -0.165541 
0.175225 1.285284 1.495195 -0.077210 0.550439 -0.637601 
-0.798553 0.378852 0.596029 0.455829 -0.545699 0.653630 
-0.989079 0.541864 2.315094 -0.598643 0.768570 -0.172612 
0.430412 -0.242461 0.199177 0.076658 -0.222178 0.937152 
0.445495 0.411446 0.403677 -0.577071 -0.399475 0.666170 
0.963705 0.318440 0.828651 0.755049 0.514224 -0.370263 
1.276007 0.085854 1.708513 0.764597 0.391593 -0.212322 
0.091790 -0.764623 0.128485 0.125477 -0.449144 0.860601 
-1.389336 0.331364 1.616987 -0.282061 0.668964 -0.508508 
0.386745 -0.655433 0.122946 0.037052 -0.250432 0.924129 
0.339973 1.057828 1.522583 -0.411475 -0.747899 0.486410 
-1.431420 0.410203 2.098033 -0.371842 0.915300 0.022437 
0.877055 1.519875 2.542482 0.414450 0.784087 -0.454701 
1.028005 0.750459 1.963775 -0.548384 -0.408132 0.697010 
-0.053211 -0.190063 -0.162470 -0.379577 -0.149397 -0.892814 
0.451046 -0.588385 0.142305 0.618859 0.071083 -0.718406 
0.193586 -0.684322 -0.022268 0.033315 -0.102711 -0.990286 
-1.598567 0.271266 1.733068 0.377690 -0.855902 0.216172 
-0.864867 0.679337 2.086250 -0.523469 0.841664 0.065043 
-0.555190 0.996446 1.811173 -0.832007 0.492157 -0.021600 
-0.311030 -0.031847 -0.043899 -0.507082 -0.084518 -0.846965 
-0.929510 -0.655161 0.531148 -0.496086 0.319813 -0.727535 
-1.436913 0.355955 1.777642 0.385162 -0.802317 0.380771 
-0.669708 0.386138 0.279727 -0.710696 0.265635 -0.615106 
-0.196378 0.269619 -0.102157 -0.440693 -0.013012 -0.894228 
0.320992 0.027663 0.381061 0.426648 -0.237871 0.867163 
-1.271471 0.256427 1.095419 -0.723892 0.472907 -0.471793 
-0.164829 0.108000 -0.121308 -0.468741 -0.027438 -0.876378 
-0.668539 0.824661 1.350987 0.564187 -0.770186 0.259634 
0.259311 -1.015818 0.017825 -0.321210 -0.292312 0.893627 
-0.234517 0.134531 -0.082645 -0.459562 -0.051470 -0.881337 
-0.544912 0.962182 1.616510 0.600299 -0.676691 -0.069384 
-0.251852 0.460406 0.457697 -0.273659 0.050146 0.957570 
0.457387 0.344430 0.380592 -0.076298 -0.263757 0.867689 
-1.262871 0.418904 1.717343 0.416413 -0.864754 0.000857 
1.076703 1.304866 2.536465 -0.527149 -0.590287 0.609171 
-0.506725 1.065409 1.200665 -0.877129 0.439974 0.089729 
1.111571 0.890938 2.150867 0.583295 0.440427 -0.647771 
-0.394075 -1.108218 0.027361 -0.214343 -0.047626 0.807525 
-1.526875 0.025095 1.328749 0.680116 -0.361269 0.627417 
0.590721 0.591145 0.736363 -0.818866 -0.472626 0.245158 
1.231373 0.965074 2.345863 0.517477 0.716371 -0.464424 
0.125892 1.076551 0.508273 -0.097531 0.038475 0.927748 
-0.525064 1.093599 1.461414 -0.844986 0.433405 0.084438 
-0.830765 0.646842 1.298960 -0.714867 0.677966 -0.057080 
-0.629006 0.294241 0.388660 0.315255 -0.487306 0.787332 
-1.205277 0.456285 2.405408 -0.522772 0.820976 -0.129295 
0.274887 0.590108 -0.080667 0.506276 0.109727 -0.836602 
1.675032 0.841133 2.564080 -0.469039 -0.508664 0.715944 
-0.368636 -0.033749 0.336728 -0.468625 -0.240874 0.844772 
0.223584 -0.660426 0.168712 0.215658 -0.352242 0.882797 
-0.680714 -0.153761 0.383600 -0.748760 0.169565 -0.567788 
-1.224058 0.354476 1.434168 -0.211573 0.526194 -0.587492 
-0.212733 1.065815 0.538162 -0.268554 -0.606815 0.702922 
-1.176354 0.091206 0.895617 0.696936 -0.414293 0.539228 
0.644776 1.122200 1.922727 -0.438134 -0.713502 0.511915 
-0.376441 -0.706420 0.045543 -0.589015 0.030432 -0.767296 
-0.810305 0.655502 1.540088 0.608470 -0.747222 -0.029923 
1.503801 0.855863 2.449039 -0.474644 -0.462399 0.744067 
-0.215930 -0.748314 0.133457 -0.064210 -0.357401 0.882173 
-0.848972 0.707632 2.435743 -0.683125 0.685212 -0.210034 
0.665373 -0.478799 0.374232 0.581972 0.221446 -0.697630 
-0.469220 0.039986 0.096475 -0.744304 0.085801 -0.643728 
-0.224459 0.404747 0.491449 -0.300143 0.031756 0.950753 
0.798860 0.026620 0.568899 -0.453207 -0.416334 0.691085 
0.448030 1.431600 1.992612 0.372009 0.788741 -0.399547 
-0.638079 0.664814 0.731696 -0.283987 0.779781 -0.505965 
0.854787 0.717330 1.681104 0.595379 0.406591 -0.643317 
0.344352 0.944827 1.240994 -0.678084 -0.681121 0.235420 
-0.609202 0.417909 0.244477 -0.698108 0.278960 -0.612714 
-1.296358 0.067085 1.020917 0.722240 -0.383007 0.542561 
-0.657551 0.609908 0.689082 -0.146421 0.885110 -0.394169 
-0.125285 1.253508 0.219066 -0.734837 0.594275 -0.128172 
-0.303092 0.084268 0.412549 -0.397161 -0.239084 0.879665 
1.209982 1.300635 2.633427 0.544802 0.536060 -0.641937 
1.112796 0.197410 1.020209 -0.699325 -0.542119 0.409948 
-0.776027 -0.126141 0.471039 -0.721888 0.230968 -0.569501 
0.713610 0.300730 0.359150 0.743236 0.238026 -0.582406 
0.185944 -0.532208 0.237806 0.229077 -0.350653 0.903948 
1.150461 1.340016 2.621847 0.552493 0.524844 -0.644782 
0.556281 0.828297 1.255666 0.803784 0.566320 -0.088299 
0.627267 0.425965 0.367959 0.739364 0.348226 -0.463154 
0.558852 0.792950 0.977793 0.511175 0.750061 -0.412419 
-0.369303 0.118406 0.388733 -0.444236 -0.216870 0.867230 
-0.171599 1.100370 0.464238 -0.820003 0.333792 -0.291349 
0.484073 -1.012246 0.073483 -0.084194 -0.242954 0.851868 
-0.709282 0.933629 2.427390 0.717848 -0.604531 0.336481 
0.286308 -0.746679 0.117520 0.116605 -0.290589 0.890301 
-1.316950 0.937780 3.290254 0.545287 -0.624192 0.558798 
1.206798 0.894412 2.274353 -0.564057 -0.637360 0.518288 
0.715569 1.173047 2.047125 -0.518702 -0.480227 0.695664 
0.669875 0.516744 0.873975 -0.528187 -0.730819 0.416999 
-0.811681 0.609085 0.788514 -0.695578 0.635112 -0.313503 
1.231947 0.093891 1.652565 0.775491 0.387430 -0.128930 
-1.481894 0.355538 1.902596 0.374351 -0.859920 0.215131 
0.470892 0.316806 0.048047 0.667179 0.057268 -0.721778 
0.759755 1.328875 2.239697 -0.498129 -0.574144 0.639935 
0.343985 1.153994 1.631178 -0.312670 -0.657249 0.642060 
