-0.660295 0.377180 0.483493 0.651414 0.344052 0.668869 
-2.259218 0.580270 1.706627 -0.678919 -0.020306 -0.731877 
-0.038793 0.816011 -0.196777 -0.415793 0.369534 -0.825122 
1.356703 -0.713288 1.487484 0.691764 -0.565962 -0.413880 
-1.783218 -0.012620 1.464237 0.301937 0.132140 0.937498 
-1.588086 0.307704 1.359355 0.657729 -0.102882 0.701567 
1.341891 0.234356 1.030082 0.745933 -0.268999 -0.608315 
0.328068 -0.097044 -0.136299 0.661872 -0.190402 -0.679182 
1.940558 0.731027 1.835901 0.851511 0.387222 -0.255950 
1.903524 -0.329523 2.121121 -0.880220 0.364491 0.177795 
-0.982630 -0.462664 0.866875 0.769572 0.145841 0.600358 
0.132940 -0.597100 -0.118589 0.161523 -0.437774 -0.879638 
-1.624993 -0.162967 1.349469 -0.365288 -0.229157 -0.864177 
-0.458281 0.132705 0.228802 0.482500 -0.201287 0.817784 
-2.772009 0.401822 2.315712 -0.933341 0.142774 -0.265601 
-2.204140 0.640334 1.716426 0.485505 0.061205 0.836902 
-1.507605 0.766581 1.339462 0.706836 0.162876 0.668246 
0.580882 0.305379 0.407688 -0.592048 -0.127848 0.780953 
-0.326790 -0.383166 -0.128531 -0.669024 -0.203623 -0.690636 
-0.388139 -0.087834 0.102597 0.170916 -0.151925 0.929231 
0.281044 0.411840 -0.258260 0.641021 0.102763 -0.748250 
-0.327572 -0.303847 -0.127935 -0.667403 -0.204123 -0.685558 
-1.304380 0.229469 1.078747 -0.693799 -0.298464 -0.648598 
2.091148 0.009227 2.334574 -0.974937 0.176035 -0.054701 
-0.614489 0.291217 0.231070 -0.839459 -0.019140 -0.533732 
-0.883643 -0.358609 0.701212 -0.789969 -0.134146 -0.587174 
-2.091329 -0.236630 1.688483 0.544250 0.311681 0.762648 
-2.694315 0.050366 2.413276 -0.877060 -0.277843 -0.372937 
0.277982 -0.451793 -0.166288 0.511666 -0.299573 -0.801360 
0.128698 -0.212790 -0.288241 0.454036 -0.223421 -0.836658 
1.857459 -0.006841 1.695477 -0.818290 0.140137 0.535466 
1.008145 -0.472639 0.761805 0.765202 -0.145308 -0.618730 
-0.464429 0.537511 0.310915 0.624403 0.300229 0.709970 
1.426477 0.066125 1.111569 0.750858 -0.273941 -0.599903 
-0.852599 -0.693085 0.673116 -0.806496 -0.072560 -0.570523 
-0.588616 0.286339 0.412823 0.596056 -0.164095 0.776858 
-0.878004 0.177874 0.616901 -0.783696 -0.175430 -0.591466 
0.699502 0.330716 0.521555 -0.639754 0.162351 0.717104 
-1.254576 0.201122 1.028879 -0.707373 -0.292497 -0.636472 
-1.629713 -0.414242 1.473885 -0.350168 -0.431030 -0.809792 
-2.361460 -0.493104 2.258403 -0.725827 -0.437563 -0.503045 
-2.027864 0.412785 1.573119 -0.487529 -0.309514 -0.790788 
-0.338071 -0.609350 -0.029338 -0.672995 -0.170235 -0.695931 
0.010563 -0.312298 0.209031 0.126231 0.042934 0.989809 
-0.013672 -0.841446 0.141057 -0.442531 -0.121408 0.885697 
1.918361 0.521543 1.851294 -0.807039 0.018646 0.482242 
0.517153 -0.248760 0.123000 0.768505 -0.104399 -0.626887 
2.098816 0.112250 2.657578 0.949817 -0.270701 0.078796 
1.178373 0.567011 0.961702 -0.630562 -0.072753 0.747326 
-0.747422 -0.032880 0.469371 -0.799196 -0.104383 -0.589349 
-0.000618 -0.609839 -0.129206 -0.752648 -0.303628 -0.575828 
-2.419191 -0.160819 2.032048 0.814965 0.225463 0.487687 
-1.912189 -0.578591 1.772874 -0.639267 -0.456397 -0.614073 
1.537919 0.403076 1.258960 -0.693823 -0.154533 0.645507 
-2.682602 0.242969 2.194409 -0.855681 -0.220473 -0.455841 
-0.098261 -0.570714 0.158151 -0.217747 -0.161052 0.960953 
-0.890604 -0.057620 0.692544 0.718048 -0.030578 0.674526 
-2.507232 0.212511 1.930554 -0.827754 -0.037793 -0.523760 
-2.223330 0.106772 1.686553 -0.470288 -0.281937 -0.821085 
-0.241755 -0.924520 0.115598 0.000910 0.085046 0.958279 
2.016335 0.296445 1.907731 0.761775 -0.332126 -0.534099 
-0.909555 0.279765 0.643483 -0.781161 -0.202241 -0.587083 
-1.318484 -0.191405 1.141787 -0.673349 -0.284524 -0.675322 
-0.055809 -0.364778 0.208816 -0.115843 -0.029596 0.990269 
0.321151 -0.376674 -0.137721 0.635378 -0.223304 -0.714257 
-0.834044 -0.204090 0.596676 -0.785445 -0.094856 -0.608565 
1.078660 -0.838280 0.951945 0.781401 -0.303367 -0.501207 
-0.891333 -0.454865 0.767933 0.788876 0.110222 0.587460 
1.106563 -0.321235 0.857401 -0.748763 0.112265 0.638253 
0.487066 -0.201350 0.178465 -0.319338 -0.085572 0.885048 
0.420097 0.052739 0.155646 -0.372381 -0.185986 0.870783 
-2.429161 0.389742 1.919747 0.693200 0.126662 0.636702 
0.042147 0.816892 0.367841 0.108557 -0.058257 0.988927 
0.187063 0.240767 0.259089 0.200502 -0.255164 0.944158 
2.186070 0.369054 2.369157 0.966962 -0.146731 -0.117319 
-1.138187 -0.860929 1.450397 0.663092 0.506691 0.540200 
1.393275 0.141182 1.079393 0.748511 -0.272005 -0.603708 
0.865115 -0.680262 0.615866 0.733790 -0.041377 -0.668534 
0.119281 0.083820 -0.348895 0.528077 -0.049927 -0.826835 
1.923505 0.401554 1.765544 0.781711 -0.339804 -0.493200 
0.473833 0.201419 0.050966 0.837134 -0.078922 -0.537023 
-0.148163 0.104190 0.216264 -0.187850 -0.199487 0.960761 
-0.975689 0.091607 0.781948 0.672774 -0.076586 0.706734 
-2.049332 0.753504 1.611419 0.368645 0.429818 0.775673 
2.072494 0.668274 2.051221 -0.820414 0.292995 0.438536 
1.565434 0.790422 1.330808 -0.753957 0.222790 0.605536 
-2.750478 0.127495 2.503052 -0.908410 -0.242301 -0.323608 
1.808777 -0.505326 2.423866 0.843409 -0.505482 -0.082159 
0.922598 0.251207 0.702830 -0.613178 -0.183941 0.757088 
-0.985226 -0.246792 0.803071 0.729736 0.093739 0.662009 
0.750214 0.093069 0.451818 0.778531 -0.119189 -0.611206 
0.293058 -0.369325 0.139007 0.592464 -0.088125 0.769565 
0.191408 1.246493 0.324437 0.857473 -0.404938 -0.273872 
0.217980 -0.750504 0.111546 0.133342 -0.058548 0.918089 
0.596046 -0.285788 0.299670 -0.417910 -0.033692 0.834513 
0.031615 0.375055 -0.389411 0.481647 0.167790 -0.842870 
-1.268543 -0.559727 1.278664 0.683564 0.331084 0.627667 
-0.870216 0.430492 0.659976 0.694350 0.366220 0.613311 
-1.395741 0.675701 1.087865 -0.681893 0.087958 -0.720009 
-1.267071 -0.760694 1.492042 -0.565454 -0.521851 -0.605738 
-1.462170 -0.200718 1.285482 -0.608724 -0.300460 -0.721652 
-2.012692 0.136729 1.557902 -0.502036 -0.053684 -0.856111 
-2.256241 -0.124045 1.800314 0.689634 0.238692 0.641407 
1.666745 -0.643098 1.973090 -0.735488 0.518219 0.349994 
1.843683 0.621864 1.767652 -0.770995 0.007253 0.505459 
1.009008 0.650376 0.751063 0.634474 0.177676 -0.743964 
-0.792728 -0.556756 0.549642 -0.784677 -0.029106 -0.611315 
-0.122799 -0.457719 -0.212919 -0.339293 -0.436106 -0.821397 
-1.678736 -0.119001 1.370360 -0.291725 -0.209808 -0.906563 
0.002081 0.248922 0.275004 0.011587 -0.278978 0.955333 
-0.215868 0.441121 -0.281951 -0.585707 0.156812 -0.775510 
-1.568566 0.804644 1.380742 0.521783 0.286896 0.750094 
1.940683 -0.280626 2.166898 0.820575 -0.506232 -0.246163 
-2.536970 -0.208792 2.306933 0.847983 0.285482 0.419686 
0.219058 0.451989 -0.279328 0.583064 0.162660 -0.778383 
0.920918 -0.453445 0.702415 -0.749178 0.067461 0.648649 
-1.906077 -0.784391 1.925802 0.552596 0.480916 0.671991 
-0.488443 -0.689379 0.283661 0.385954 0.047525 0.853581 
-1.242218 0.588115 0.943941 -0.697754 0.005232 -0.688159 
-0.867505 -0.033925 0.619190 -0.786109 -0.131777 -0.598118 
-0.650028 0.161897 0.314154 -0.814194 -0.118898 -0.564067 
0.504468 0.411796 0.382462 -0.637640 0.073884 0.750932 
-0.384759 0.575965 0.204144 -0.212729 0.217550 0.842855 
-0.308852 0.782394 0.270510 -0.690777 0.333179 0.572739 
1.606116 0.434442 1.334583 -0.763645 -0.186671 0.520884 
-0.942877 0.035386 0.747429 0.690002 -0.059499 0.694494 
1.411058 -0.013172 1.099026 0.755005 -0.272986 -0.595311 
1.689594 -0.593257 1.922713 0.826074 -0.519498 -0.202267 
-2.146191 0.622319 1.642929 -0.687387 -0.028737 -0.723353 
-2.044206 0.079857 1.586335 0.491626 0.078078 0.864037 
1.980283 -0.153794 2.098481 -0.911083 0.276420 0.163060 
0.521076 0.584639 0.176392 0.831234 0.381025 -0.362459 
-2.218042 0.188335 1.676137 -0.440908 -0.238406 -0.847317 
0.439671 0.429231 -0.040184 0.819515 0.105245 -0.523987 
0.451131 -0.260809 0.025753 0.772776 -0.116606 -0.619614 
-0.696027 0.293718 0.545610 0.652497 -0.058361 0.750568 
0.857703 -0.418316 0.611671 0.749135 -0.072125 -0.652985 
-0.489563 -0.624024 0.256281 0.357021 0.032751 0.863910 
1.304334 -0.752946 1.445494 0.706727 -0.573882 -0.379374 
1.095404 0.082712 0.854407 -0.651443 -0.066400 0.712885 
0.956850 -0.012354 0.727569 -0.671436 -0.063138 0.712553 
0.275385 -0.246067 -0.205993 0.551666 -0.228069 -0.782748 
-0.715958 -0.263452 0.435344 -0.784878 -0.093112 -0.610958 
-0.143184 -0.913970 0.024850 -0.038259 -0.309104 -0.942203 
-1.781834 -0.066601 1.400539 -0.625453 -0.151197 -0.760389 
0.339799 0.316924 -0.197388 0.742475 0.005375 -0.655797 
1.419140 -0.676335 1.558403 0.672885 -0.559224 -0.454346 
1.881799 0.555200 1.666994 0.899316 -0.110118 -0.418384 
2.040791 -0.047512 2.498472 -0.896370 0.419669 0.046817 
-0.197289 0.726340 0.349525 -0.316661 0.244367 0.891428 
2.001453 -0.038555 1.944423 0.832591 -0.359043 -0.398007 
0.896551 0.245523 0.614147 0.761908 -0.180438 -0.618505 
-2.273909 0.371920 1.717813 0.531109 0.013059 0.834638 
-0.222370 -0.953466 0.052316 -0.085534 -0.331181 -0.935834 
-0.206021 0.177961 0.224605 -0.184802 -0.236710 0.952158 
1.421664 0.400695 1.100100 0.735670 -0.273820 -0.618488 
0.938815 -0.054767 0.669135 0.746786 -0.123481 -0.645377 
0.584813 0.144880 0.378425 -0.596065 -0.182661 0.767297 
1.198264 0.452048 0.956547 -0.594401 -0.231351 0.746905 
1.833126 0.698331 1.626107 0.953850 -0.042333 -0.294238 
-1.287348 0.599387 0.999788 -0.737909 -0.123243 -0.634607 
0.759143 0.502543 0.509286 0.671303 0.271771 -0.649465 
2.053807 0.084965 2.027551 0.792895 -0.392937 -0.435830 
-1.572458 0.762729 1.269979 -0.685086 0.005634 -0.709553 
-1.109757 -0.299926 0.948837 0.711072 0.154825 0.668770 
1.259259 -0.612624 1.024384 0.777328 -0.263820 -0.558263 
-0.123728 0.639337 0.383763 -0.100241 0.218735 0.968658 
0.156033 -1.322232 0.192727 -0.767054 -0.239496 0.322847 
-2.092205 -0.592455 1.902026 -0.618354 -0.449930 -0.639483 
0.106166 0.670440 0.376240 0.095913 0.173192 0.975363 
2.141250 0.498527 2.228628 -0.908333 0.153758 0.325976 
-1.430034 -0.042903 1.278029 0.627447 0.114507 0.724010 
0.706017 -0.037550 0.395999 0.777714 -0.074244 -0.618019 
0.381475 0.491333 0.291612 -0.566820 0.142678 0.766708 
-2.148861 -0.646539 2.006678 0.627111 0.453817 0.626323 
-0.373384 -0.813345 0.133052 -0.566749 -0.200030 -0.777112 
-1.524753 0.584206 1.271940 -0.641303 -0.327063 -0.692661 
-0.791512 0.004141 0.532314 -0.791158 -0.122282 -0.597436 
-2.335385 -0.302801 2.015445 0.758345 0.290973 0.530918 
-1.981521 -0.186889 1.581731 -0.649495 -0.267499 -0.694902 
1.631710 0.168528 1.312268 0.688255 -0.238587 -0.676042 
-1.220885 0.598682 1.042525 0.667923 -0.023332 0.716580 
-0.464249 -0.017916 0.045658 -0.820901 -0.094432 -0.558873 
0.459350 -0.052277 0.034743 0.803180 -0.094672 -0.581119 
1.153382 -0.276319 0.896405 -0.746399 0.119507 0.637508 
0.016144 -0.758566 0.154106 0.433850 -0.124548 0.889866 
-2.567444 0.390825 1.960887 -0.754806 -0.116202 -0.621106 
-0.061139 1.332693 0.050526 -0.624423 0.729786 0.257746 
-0.379976 0.271583 0.208555 0.230244 -0.250478 0.880345 
0.890176 0.066076 0.618690 0.750734 -0.133541 -0.640280 
1.766115 0.322823 1.520068 0.870969 -0.183001 -0.390324 
0.616422 0.402659 0.444807 -0.638307 0.320081 0.691335 
1.593568 0.098856 1.273621 0.711201 -0.253499 -0.647099 
1.747847 0.619497 1.496728 0.816098 -0.371811 -0.413066 
1.484658 0.142397 1.204403 -0.712872 -0.018526 0.633185 
-1.365878 -0.722534 1.530103 -0.495828 -0.517188 -0.657618 
-2.369588 -0.232518 2.009682 0.783773 0.256656 0.513636 
0.277973 0.773242 -0.091846 0.605878 0.499180 -0.592359 
-2.107496 0.059608 1.629977 0.521469 0.124921 0.835898 
-2.424321 -0.450248 2.335527 -0.755460 -0.426832 -0.469787 
-0.838129 0.100981 0.638171 0.691476 -0.112727 0.699580 
-1.230352 0.375337 0.982106 -0.720177 -0.291395 -0.622706 
1.876786 0.574165 1.816061 -0.789295 0.016014 0.479580 
0.112892 0.279472 0.284720 0.145390 -0.277888 0.941853 
1.798984 0.653107 1.680118 -0.745840 -0.019319 0.559706 
-1.200628 -0.858717 1.522760 0.642304 0.527373 0.550176 
-0.564811 -0.102696 0.199921 -0.808962 -0.092630 -0.577005 
1.902542 0.320988 1.754131 -0.803777 -0.030415 0.532936 
-1.004363 -0.622004 0.929760 -0.796320 -0.226487 -0.543572 
0.397017 -0.839764 0.200229 0.519953 -0.213357 -0.809013 
-2.753448 -0.006307 2.667996 -0.917923 -0.282787 -0.270995 
0.189289 -0.642743 0.127919 0.210759 -0.137997 0.940014 
-1.356952 0.624414 1.159118 0.583081 -0.277800 0.758468 
-1.294484 -0.276740 1.145922 0.665159 0.209334 0.701175 
-2.202932 0.389341 1.664327 -0.425172 -0.326050 -0.836379 
1.709704 0.301721 1.378850 0.912035 -0.129100 -0.363232 
0.643195 -0.455743 0.434441 -0.541896 0.016903 0.782591 
2.141882 0.229906 2.245773 0.974123 -0.019376 -0.065556 
1.855232 -0.368283 2.720201 0.870883 -0.472251 0.048151 
-2.664967 -0.028958 2.426893 0.834236 0.342541 0.390962 
1.342179 -0.828697 1.694969 -0.761039 0.561078 0.275316 
-0.849901 -0.426680 0.715110 0.793147 0.088292 0.588770 
0.779651 -0.506057 0.526825 0.710686 -0.034414 -0.693419 
-0.216517 1.264764 0.354422 -0.810712 -0.452514 -0.332256 
-0.345549 -0.880600 0.126279 0.187805 0.054535 0.962044 
-2.411973 -0.001584 1.907098 0.810615 0.159184 0.522340 
0.370327 0.619774 0.237449 0.368123 0.144788 0.802423 
-0.482588 -0.116263 0.076688 -0.808110 -0.101122 -0.576194 
2.179743 0.324111 2.675255 0.970960 -0.195009 0.090322 
0.676606 0.110008 0.467319 -0.633328 -0.152064 0.746634 
-1.660398 -0.051020 1.386453 0.745868 0.060336 0.643796 
-0.277548 -0.094341 0.160337 -0.389688 -0.176334 0.855218 
-2.334783 0.433050 1.853649 0.637403 0.097460 0.680178 
-2.460143 0.058773 1.921728 -0.552980 -0.472105 -0.676253 
0.157508 -0.793512 0.121499 -0.006695 -0.058608 0.960632 
1.899654 -0.363696 2.184921 -0.883522 0.375521 0.129698 
-2.748749 0.192276 2.421907 -0.903645 -0.222766 -0.349507 
1.739830 -0.157396 1.580210 -0.672141 0.252750 0.657742 
-1.382747 -0.636972 1.476238 -0.504805 -0.484495 -0.671306 
-0.301006 0.131172 -0.243548 -0.672690 -0.064724 -0.718803 
-0.298261 0.901953 0.186719 -0.896614 0.271889 0.230129 
1.994044 -0.178972 2.354584 0.821042 -0.526455 -0.178092 
-0.323785 -0.625409 0.066730 -0.103384 -0.040514 0.947908 
2.060000 0.080454 2.098043 -0.918350 0.179745 0.236783 
-0.650027 0.263309 0.286781 -0.831287 -0.049302 -0.550824 
1.342030 -0.758407 1.544391 0.692533 -0.577084 -0.401996 
-1.934697 -0.271964 1.606772 0.313040 0.324497 0.843235 
0.292689 0.916175 0.208816 0.892865 0.270176 0.312516 
-1.016426 -0.163677 0.798559 -0.745349 -0.170963 -0.630185 
-1.562380 -0.427287 1.452902 0.731068 0.358557 0.563405 
0.048189 0.789833 -0.198725 0.416854 0.365853 -0.823644 
-1.444987 0.578975 1.253325 0.585823 -0.236859 0.752436 
1.165103 0.123614 0.870453 0.751260 -0.232056 -0.612686 
-1.171025 0.583247 0.885874 -0.523199 0.322633 -0.721863 
-1.971699 0.383539 1.541047 -0.506673 -0.253068 -0.793726 
-1.871001 0.141545 1.479767 -0.625419 -0.102559 -0.742473 
-1.521843 -0.574176 1.532897 0.730859 0.428858 0.516497 
1.638381 0.277748 1.315209 0.686422 -0.242200 -0.677677 
1.461963 0.700937 1.106309 0.588296 0.214780 -0.751046 
-1.006268 -0.841415 1.055292 0.812619 0.273279 0.498467 
1.577937 -0.455088 1.513431 -0.897938 0.420660 0.079866 
0.234522 -0.941442 0.122239 -0.005040 0.113903 0.961053 
0.309215 0.014691 -0.204913 0.655713 -0.124000 -0.713136 
2.066010 0.413978 2.188549 -0.899022 0.123943 0.239523 
0.194935 1.081831 0.200486 0.357310 0.764559 0.312182 
-0.382602 0.387824 -0.122614 -0.761100 0.053800 -0.611080 
-0.532522 0.637806 0.305153 -0.790104 0.480459 -0.320475 
0.347561 -1.002761 0.163595 -0.199417 0.072264 0.956180 
0.326804 -0.535106 -0.076991 0.639629 -0.205020 -0.717204 
-2.161005 0.541667 1.646210 -0.697971 0.005306 -0.707847 
0.888187 0.168997 0.610437 0.758190 -0.159970 -0.626903 
0.509326 -0.342995 0.112868 0.755143 -0.114998 -0.643687 
0.270413 0.462551 0.286481 0.115846 -0.211616 0.964181 
-0.882337 0.143568 0.681729 0.679022 -0.125538 0.706550 
0.025915 0.687391 0.373396 0.049148 0.135053 0.983829 
-1.754572 0.655444 1.446624 0.365796 -0.330317 0.834038 
-0.606268 -0.035011 0.386398 0.607056 -0.100346 0.738721 
-2.497256 0.038527 1.981939 0.878692 0.124938 0.450717 
-1.623047 -0.571014 1.589387 -0.333540 -0.480519 -0.795468 
-1.507134 0.641793 1.313694 0.581414 -0.261964 0.752616 
-0.421757 0.329811 0.239464 0.550154 -0.192509 0.793395 
-0.041480 0.442967 -0.361667 -0.471106 0.234289 -0.832553 
1.487494 0.250418 1.209811 -0.699706 -0.077705 0.643742 
1.198704 -0.327242 0.916128 0.760186 -0.185338 -0.611742 
1.552205 -0.219943 1.269538 -0.835583 0.165434 0.462917 
0.335925 0.651314 -0.159126 0.576801 0.423468 -0.673867 
-0.234608 0.598441 -0.228912 -0.515467 0.337129 -0.766664 
0.925172 -0.643244 0.692353 0.759771 -0.111699 -0.630132 
1.949059 0.503958 1.953539 -0.831300 0.053698 0.391536 
2.084233 0.044744 2.530169 -0.881347 0.436182 0.065499 
-1.053720 -0.143964 0.875583 0.696312 0.065252 0.685582 
0.430537 0.637704 0.203602 0.032435 0.482422 0.717357 
1.571884 -0.270443 1.327310 -0.859732 0.218542 0.367724 
0.436416 -1.080243 0.173940 0.457303 0.153754 -0.857558 
-0.391321 0.460481 -0.127241 -0.735925 0.128045 -0.629465 
-0.431079 -1.102479 0.160582 0.356554 -0.221018 0.854453 
-0.469257 0.637670 0.041380 -0.771790 0.512626 -0.321414 
-2.615261 0.063040 2.204962 -0.893102 -0.189445 -0.388982 
-0.408184 -0.003527 -0.039197 -0.823347 -0.098221 -0.554323 
0.429244 0.626208 -0.034373 0.718159 0.431094 -0.469269 
0.366238 -0.291363 0.055978 0.118072 -0.094450 0.937408 
1.282329 -0.404819 1.017599 -0.767206 0.187076 0.603881 
0.377058 0.706929 0.198777 0.614940 0.443414 0.517098 
1.649258 -0.221573 1.450099 -0.931861 0.204693 0.178825 
0.526889 0.188151 0.127494 0.826403 -0.088612 -0.550313 
-0.216455 0.522447 -0.255612 -0.536245 0.231171 -0.781557 
1.171865 -0.882056 1.398012 -0.757151 0.584671 0.284559 
-1.918057 -0.220675 1.560941 -0.668547 -0.284088 -0.666866 
0.092980 0.027673 0.211474 0.148878 -0.154418 0.972300 
-0.170062 -1.169034 0.119334 0.140246 -0.276955 -0.896945 
1.083262 0.509966 0.753734 0.635014 0.112261 -0.754315 
1.862990 0.065208 1.684983 -0.825219 0.069510 0.556769 
-1.210712 -0.124736 1.048552 0.657515 0.106919 0.710151 
-2.429029 -0.100147 1.989274 0.829888 0.190734 0.483901 
0.934960 0.355934 0.716018 -0.593066 -0.221627 0.769583 
-1.260480 0.280434 1.025693 -0.708270 -0.293932 -0.634731 
1.672885 0.224148 1.354759 0.663044 -0.221234 -0.707978 
1.333838 -0.118988 1.062533 -0.711675 0.099520 0.644287 
-2.571970 -0.349963 2.517072 -0.825255 -0.401543 -0.391482 
0.439411 0.461072 0.336773 -0.645680 0.143511 0.742398 
-2.359708 -0.343970 2.103983 0.759283 0.322576 0.515960 
0.776779 0.574996 0.533792 0.670706 0.154406 -0.706189 
-0.042044 -0.326112 -0.296073 -0.364733 -0.345249 -0.843214 
-0.246479 -0.194341 0.163910 -0.461219 -0.134231 0.831710 
-0.281377 -0.582316 -0.104256 -0.518019 -0.278542 -0.803715 
1.432688 0.645473 1.171310 -0.633691 -0.303692 0.700818 
-0.042783 1.360985 -0.023306 -0.602797 0.642340 -0.370015 
1.336473 -0.694069 1.415323 -0.820763 0.512826 0.192498 
0.527908 0.322127 0.356790 -0.581186 -0.128919 0.783634 
1.580514 -0.417023 1.438627 0.659421 -0.456046 -0.582245 
0.372481 -0.378274 0.039126 0.143665 -0.064704 0.922372 
-1.518266 -0.396129 1.385034 -0.492004 -0.379855 -0.751600 
0.638397 0.166701 0.287975 0.804292 -0.110653 -0.577432 
0.808634 -0.889292 0.545261 -0.683073 -0.072834 0.721345 
0.618008 -0.033531 0.268594 0.791391 -0.066342 -0.600539 
-0.764731 0.431137 0.551758 0.669872 0.281610 0.665458 
-0.320506 -0.447371 0.097316 -0.475664 -0.102808 0.819512 
-1.436107 -0.644880 1.526275 0.710432 0.454028 0.523093 
1.066604 -0.253420 0.819255 -0.737563 0.082838 0.652910 
-2.022802 -0.115566 1.582253 -0.635671 -0.211226 -0.725887 
0.169046 -0.001757 0.200738 0.244631 -0.164088 0.938709 
-0.701342 0.495507 0.484299 0.648694 0.301216 0.676462 
0.212205 0.775045 -0.137702 0.529867 0.466404 -0.695532 
-0.829104 -0.448431 0.620127 -0.798683 -0.078950 -0.588421 
0.019924 0.352112 0.309623 0.014366 -0.328431 0.940763 
1.378447 0.749601 1.102072 -0.645735 0.528790 0.422781 
0.194292 -0.191245 -0.263711 0.508029 -0.187459 -0.821124 
-0.741627 -0.120246 0.465924 -0.801076 -0.085905 -0.590499 
-1.659683 -0.694923 1.715269 0.256264 0.446509 0.813390 
-0.277661 -0.015588 0.165742 -0.307329 -0.197822 0.890830 
-2.335045 -0.413320 2.127115 0.737436 0.358794 0.527874 
-2.089037 -0.684112 1.962942 -0.610313 -0.479017 -0.629734 
-2.124515 -0.400354 1.814868 0.598995 0.365511 0.700979 
1.084770 0.163291 0.847113 -0.630211 -0.107414 0.729499 
0.017373 0.858687 -0.184698 0.397191 0.360395 -0.837303 
0.434299 -0.120649 0.129952 -0.293984 -0.124188 0.900593 
-0.707900 0.345412 0.351624 -0.836412 0.045429 -0.528964 
1.915042 -0.279954 2.601079 0.853458 -0.490893 -0.030429 
-1.766283 0.163782 1.453285 0.319916 0.002198 0.910245 
-2.394130 0.473890 1.773771 -0.656832 -0.018951 -0.752145 
-0.870691 -0.661257 0.740992 0.805002 0.079872 0.567645 
0.432612 -0.000097 -0.005500 0.813436 -0.093989 -0.567315 
-0.716714 0.278303 0.375006 -0.827743 -0.022867 -0.556967 
-2.425731 0.469695 1.884893 0.643693 0.123579 0.702065 
-2.407926 -0.416760 2.268201 -0.724746 -0.439699 -0.500806 
-0.336230 -0.046492 0.127317 -0.197190 -0.191246 0.922437 
-0.182501 -0.615728 0.130768 -0.235263 -0.163065 0.944830 
-0.279441 -0.356240 -0.183145 -0.538990 -0.275169 -0.786032 
0.218046 0.177504 0.219676 0.179788 -0.241136 0.952109 
1.422132 -0.467878 1.231119 0.751750 -0.370595 -0.509298 
0.500311 -1.044671 0.240411 -0.436906 -0.164166 0.856691 
0.199695 -1.417950 0.203308 -0.228868 -0.799193 -0.031078 
0.307671 -0.207263 -0.156225 0.604848 -0.228268 -0.726610 
-1.614739 0.565241 1.324152 -0.545543 -0.285916 -0.749662 
0.765064 -0.045489 0.550705 -0.685743 -0.080218 0.715449 
1.495808 -0.023263 1.209968 -0.737311 0.074503 0.612604 
0.375493 0.548038 0.220817 0.120917 0.135734 0.864469 
-1.282816 0.569340 1.085819 0.587012 -0.259156 0.759182 
-1.234967 -0.571156 1.206860 0.713015 0.292459 0.614680 
-0.335050 0.162131 -0.183350 -0.729782 -0.072202 -0.653672 
1.521917 0.438761 1.191689 0.730616 -0.279795 -0.621746 
-0.156756 -0.691491 0.128804 -0.128750 -0.125355 0.959225 
1.163581 0.417689 0.861906 0.743408 -0.258496 -0.616505 
1.324127 0.303185 1.065134 -0.648115 -0.130769 0.695584 
-2.086374 0.464760 1.606838 -0.466592 -0.385544 -0.783545 
0.354629 0.437811 -0.178827 0.697501 0.099127 -0.687453 
-1.947450 -0.110203 1.536304 -0.688643 -0.183784 -0.683646 
-0.031790 -0.756911 -0.034077 -0.259606 -0.355753 -0.886409 
1.655885 -0.499172 1.731869 -0.570610 0.464379 0.603847 
-1.559577 0.223023 1.311861 -0.544551 -0.291831 -0.755679 
1.323422 0.742104 1.049926 -0.651427 0.451537 0.474762 
-0.611622 0.415035 0.441626 0.645562 0.331413 0.679102 
0.126062 -0.105698 0.205421 0.190594 -0.096221 0.970465 
1.035104 0.448872 0.725837 0.723138 -0.109485 -0.652687 
0.471120 0.378875 0.324956 -0.598434 -0.034198 0.770526 
1.930901 -0.098504 1.808380 0.865599 -0.252051 -0.409890 
-0.688837 0.235102 0.494061 0.637194 -0.185168 0.743541 
-0.455297 0.492112 -0.033020 -0.808959 0.169872 -0.523154 
1.835231 0.127105 1.645346 -0.802200 0.024248 0.571711 
-1.454138 -0.509273 1.439270 0.701714 0.385310 0.578759 
0.327389 0.427666 0.247117 0.062501 -0.190913 0.977724 
2.128510 0.433928 2.255070 -0.917799 0.151851 0.254059 
0.107856 -0.707591 -0.068736 0.027358 -0.423623 -0.899425 
-2.030303 -0.676728 1.922856 0.544733 0.458326 0.675384 
-2.593537 0.102975 2.127223 0.743870 0.358507 0.532338 
1.875674 -0.394675 2.103731 0.827428 -0.487830 -0.251993 
1.256400 -0.774562 1.377408 0.721900 -0.577286 -0.348748 
1.169393 -0.841393 1.311780 -0.775276 0.570117 0.259443 
1.574930 -0.574805 1.709777 -0.577492 0.487303 0.584905 
0.438875 -0.116952 0.005502 0.795399 -0.104466 -0.590461 
-1.398411 -0.883199 1.676190 -0.504308 -0.533616 -0.658539 
0.813390 -0.697687 0.561864 -0.701923 -0.056609 0.708937 
-1.264466 -0.338343 1.124600 0.682951 0.221079 0.683301 
1.380643 -0.885005 1.855761 -0.732494 0.589855 0.325296 
1.627306 0.869798 1.315312 0.123658 0.166067 -0.905923 
1.554967 0.473849 1.277429 -0.694725 -0.193493 0.637561 
-2.342998 0.320512 1.746471 -0.731195 0.118572 -0.662799 
1.408889 0.461464 1.145136 -0.650919 -0.205664 0.688211 
0.126399 1.253795 0.198286 0.154842 0.906926 0.204716 
-1.291824 0.171839 1.120857 0.613556 -0.031384 0.740188 
0.175672 0.398413 -0.303117 0.585043 0.149501 -0.764718 
-2.042180 -0.493862 1.802984 -0.625288 -0.418702 -0.649992 
-2.505155 -0.381474 2.420257 -0.786533 -0.416113 -0.433856 
0.057291 -0.151432 0.208033 0.140384 -0.058604 0.981191 
-2.223465 -0.419929 1.941847 0.682457 0.348578 0.602131 
-0.329313 0.388292 -0.221902 -0.687833 0.061048 -0.712378 
-0.535421 0.398598 0.416524 0.656258 0.070171 0.738597 
-0.198130 -0.424261 -0.210945 -0.458281 -0.338449 -0.813944 
-0.023296 1.249210 0.224741 0.019801 0.821575 0.546109 
-0.183058 1.260505 0.292177 0.366397 0.846528 0.237027 
-0.613150 -0.222447 0.350025 0.511333 -0.036713 0.774976 
0.699211 -0.196419 0.390876 0.759584 -0.068851 -0.643304 
-0.458316 -0.354442 0.048498 -0.777871 -0.123459 -0.615551 
-2.762642 0.320972 2.337415 -0.903713 -0.179971 -0.375562 
-2.495479 0.287045 1.901106 -0.783400 -0.008983 -0.587575 
-1.607088 -0.926905 1.848077 -0.494948 -0.523624 -0.687499 
-1.738321 -0.086724 1.465748 0.630543 0.124993 0.747289 
0.084133 -0.474694 -0.213448 0.271009 -0.491464 -0.824172 
0.355814 -0.582748 -0.013988 0.666436 -0.176242 -0.701125 
2.082533 0.232859 2.909956 -0.953054 0.139273 -0.195590 
0.444676 -0.534841 0.109832 0.670021 -0.155864 -0.702546 
-0.847767 0.504334 0.632735 0.703544 0.258966 0.639298 
0.031738 -0.034246 -0.367548 0.431862 -0.142115 -0.856721 
2.161679 0.508381 2.157163 0.945935 0.002323 -0.322731 
0.433837 -1.020530 0.211891 -0.325529 -0.042298 0.902306 
-2.590339 0.243711 2.014704 0.759646 0.210907 0.589501 
-1.171684 -0.312435 1.018269 0.699293 0.180674 0.675420 
1.396774 0.316145 1.078940 0.740370 -0.272300 -0.613495 
0.273532 0.304006 0.239987 0.144130 -0.249207 0.953762 
-0.173861 0.149187 -0.324378 -0.586411 -0.031558 -0.787291 
-0.450869 0.195612 0.018063 -0.848389 -0.077546 -0.522263 
-1.443247 0.225930 1.274347 0.609430 -0.036230 0.735999 
0.355731 -0.683740 0.042585 0.612875 -0.193095 -0.739889 
1.018248 -0.353583 0.757496 0.757926 -0.132988 -0.629199 
1.705948 0.354765 1.425967 0.903677 -0.239565 -0.278325 
-1.536301 0.697710 1.270696 -0.641683 -0.329471 -0.690998 
-2.024819 0.678374 1.576456 -0.699637 -0.034763 -0.711337 
0.107648 0.866075 0.367130 0.242321 -0.046158 0.964309 
1.255054 -0.707077 1.267116 0.748986 -0.514480 -0.365608 
-0.358564 0.329456 -0.155834 -0.758489 0.002028 -0.628561 
0.472756 0.658032 0.144671 0.767043 0.569623 -0.283812 
1.461855 0.479227 1.192969 -0.663144 -0.207698 0.675070 
0.394110 -0.953021 0.199047 0.508323 -0.201637 -0.819592 
1.974900 -0.118632 1.917168 0.858719 -0.350505 -0.357336 
1.971862 0.699953 1.895656 -0.777363 0.311081 0.448066 
-0.655284 0.508004 0.416580 -0.725649 0.430354 -0.475221 
-1.353719 -0.345283 1.202716 -0.661052 -0.285919 -0.686787 
-1.025890 -0.074240 0.800847 -0.748429 -0.186435 -0.622697 
-0.160284 1.180160 0.289415 -0.913104 -0.010891 -0.295406 
1.253157 -0.241090 0.960333 0.758893 -0.207873 -0.607270 
1.710027 -0.489374 1.791638 0.852916 -0.482860 -0.183669 
-2.597050 0.442898 2.006435 0.743707 0.112371 0.610587 
0.021751 1.346053 0.057111 0.372218 0.736643 0.497211 
1.565190 -0.027707 1.285443 -0.811063 0.062752 0.485882 
1.091925 -0.485018 0.838213 0.767800 -0.172804 -0.608230 
-2.689198 -0.118787 2.569560 0.884740 0.318813 0.330009 
0.502240 0.592792 0.100480 0.829907 0.375482 -0.364509 
-1.312522 -0.682758 1.469768 0.677756 0.458255 0.558122 
-0.211255 -0.062607 0.182425 -0.354128 -0.167399 0.881843 
-0.422693 -0.025372 0.142634 0.340420 -0.160464 0.880902 
1.145005 -0.094320 0.893951 -0.698967 0.031542 0.673038 
1.325178 0.647388 0.998991 0.472208 0.353124 -0.712551 
-2.266452 -0.178230 1.845092 0.701778 0.254935 0.618782 
0.108185 -0.518400 -0.160370 0.193220 -0.579621 -0.785521 
2.158954 0.395790 2.771398 -0.880766 0.400490 0.014908 
0.396622 0.089628 -0.059960 0.830153 -0.091148 -0.545024 
0.096221 0.106008 0.220725 0.138146 -0.196911 0.966746 
-0.297275 0.636358 -0.196875 -0.543574 0.378678 -0.743322 
0.782537 0.419754 0.523691 0.652838 0.333326 -0.656158 
-2.697881 0.464905 2.116709 -0.849697 -0.089104 -0.484338 
-1.800029 0.816563 1.473849 0.281282 0.478904 0.780640 
1.985609 0.025017 3.055062 -0.925565 0.317433 -0.196503 
-0.262526 -0.430306 -0.182498 -0.502937 -0.313253 -0.802890 
-2.092127 -0.327267 1.744259 0.551304 0.342832 0.740442 
-0.277661 0.976838 0.209109 -0.900315 0.297148 0.253459 
1.245256 -0.464650 0.988805 -0.770306 0.183316 0.602029 
1.872556 0.377437 1.686470 0.806980 -0.268960 -0.482529 
-0.447220 -0.591697 0.169771 0.255822 0.014317 0.911627 
-0.740967 -0.056332 0.539566 0.717609 -0.060369 0.678142 
1.291122 0.416707 0.979462 0.739244 -0.266073 -0.617898 
1.252738 0.248559 0.947624 0.748223 -0.263709 -0.608095 
-0.826444 -0.108952 0.623415 0.741247 -0.025811 0.658821 
-0.393649 0.308344 -0.084634 -0.817371 -0.024166 -0.551866 
1.928813 0.517330 1.773257 0.961957 0.063909 -0.234317 
-2.437096 -0.337451 2.245940 0.788133 0.338639 0.472392 
-1.245638 -0.620446 1.306911 -0.672936 -0.389243 -0.604669 
-0.527839 -0.618970 0.319126 0.432139 0.041515 0.826774 
-1.094032 -0.837248 1.288070 0.722142 0.406826 0.528705 
2.069186 0.266537 3.010184 0.933824 -0.076077 0.243391 
-0.679797 0.423237 0.369420 -0.733182 0.386201 -0.525163 
1.960106 0.581878 1.942545 -0.822913 0.064057 0.444656 
0.593399 -0.754205 0.367974 0.610666 -0.110935 -0.756719 
-0.238078 0.167377 -0.287493 -0.636718 -0.036348 -0.749426 
1.888290 -0.380313 2.280353 -0.881995 0.394462 0.094254 
0.576429 -1.009401 0.314359 -0.499527 -0.146423 0.822792 
-0.103664 0.463261 -0.325629 -0.507357 0.229727 -0.808765 
-1.517240 -0.910853 1.781180 0.526033 0.501641 0.668785 
0.203767 0.067169 0.193703 0.218206 -0.202126 0.941217 
-0.758317 -0.267814 0.509148 -0.776118 -0.091220 -0.617701 
2.091652 0.306236 2.943563 -0.891791 0.368216 -0.068997 
-0.305017 -0.518925 0.080248 -0.326237 -0.099931 0.900141 
1.112117 -0.808209 1.010136 -0.783255 0.313963 0.479783 
-1.588537 1.036796 1.364631 0.836830 0.260840 0.249121 
-2.301283 -0.545948 2.197063 -0.703541 -0.445172 -0.528972 
1.902257 -0.034523 1.770587 -0.850585 0.179482 0.471388 
0.605452 -0.850761 0.376491 0.609243 -0.091083 -0.760826 
1.740911 -0.563293 1.983411 -0.734273 0.491372 0.368214 
0.146201 0.887183 -0.109694 0.566359 0.340979 -0.727090 
1.840424 0.314987 1.657434 -0.782349 -0.073701 0.558074 
0.615270 0.495783 0.300664 0.763135 0.403269 -0.455568 
1.802387 0.649297 1.546327 0.904242 -0.107380 -0.403971 
0.384792 0.385736 -0.116644 0.766064 0.052835 -0.605738 
-0.014957 -0.843081 -0.009560 -0.415437 -0.282124 -0.834003 
1.494143 -0.572515 1.547581 -0.856021 0.465045 0.139973 
1.121893 -0.060134 0.835990 0.752437 -0.188417 -0.621447 
-2.572501 0.168910 2.020150 0.722389 0.329938 0.584176 
2.048193 0.218570 1.957775 0.762225 -0.308255 -0.546753 
1.164408 0.374886 0.924222 -0.595080 -0.193745 0.748384 
-1.042748 -0.766701 1.025218 -0.807351 -0.268039 -0.513905 
0.916122 -0.826255 0.680250 -0.739837 0.039013 0.655928 
-1.979230 0.755192 1.582516 0.410325 0.277112 0.805007 
-0.078119 1.177950 -0.063752 -0.537216 0.199623 -0.811182 
0.622065 -0.112456 0.275768 0.779224 -0.073447 -0.616147 
-1.776804 0.495501 1.435043 -0.572304 -0.258986 -0.743857 
1.322664 -0.033967 1.054860 -0.691233 0.055022 0.660543 
-1.497358 0.153829 1.320572 0.627241 0.003167 0.722497 
-0.069777 0.295235 0.289488 -0.083462 -0.297934 0.942211 
0.026422 -0.671556 -0.063219 0.270659 -0.414935 -0.867293 
-0.879438 0.018732 0.677811 0.707231 -0.071946 0.683356 
-0.977430 0.358562 0.777436 0.623368 -0.204973 0.745711 
-0.525506 0.341163 0.099344 -0.854149 0.023969 -0.498259 
-0.456423 -0.173915 0.039337 -0.801009 -0.108341 -0.584955 
2.148147 0.256728 2.665365 -0.965203 0.125962 -0.104624 
-0.361822 -0.191718 0.067498 -0.024697 -0.127660 0.978971 
0.111120 0.832254 -0.155286 0.485547 0.386399 -0.768908 
-0.261139 -0.459560 0.141703 -0.483511 -0.118508 0.853421 
0.249297 -0.175067 0.162857 0.463748 -0.143374 0.826814 
1.061350 -0.839287 0.878416 0.786736 -0.238072 -0.553139 
-2.210923 -0.195580 1.791038 0.656858 0.274210 0.667505 
1.662984 -0.016235 1.353477 0.664005 -0.210853 -0.708315 
-0.996459 0.010045 0.807460 0.682333 -0.029513 0.698537 
-1.273812 -0.506746 1.200143 0.705811 0.272258 0.637089 
1.741775 -0.507821 1.890224 0.844420 -0.485361 -0.204872 
0.129808 1.169188 -0.045155 0.606536 0.337705 -0.681429 
1.026658 -0.679863 0.801627 0.778650 -0.177906 -0.596503 
-0.300020 0.920285 0.089858 -0.919763 0.330475 -0.182173 
-2.581006 -0.255344 2.447520 0.809654 0.391023 0.421569 
1.060196 0.543331 0.856749 -0.712201 0.213277 0.633334 
1.642391 0.722313 1.370714 -0.640885 -0.402950 0.632158 
-0.432707 -0.149246 0.125924 0.285259 -0.116714 0.900565 
1.935021 0.459283 1.820788 -0.734783 0.192444 0.597448 
0.600155 -0.240424 0.245361 0.762117 -0.089723 -0.637326 
-0.408394 0.081853 0.157383 0.349559 -0.200531 0.870963 
-1.163178 0.598015 0.981574 0.698421 0.287594 0.552091 
1.067971 -0.768067 0.852222 -0.786689 0.168018 0.591140 
0.902749 -0.371261 0.681112 -0.740635 0.048317 0.660843 
-0.161620 0.796086 -0.147001 -0.503340 0.426196 -0.739068 
1.838272 0.717750 1.697390 -0.747935 -0.001259 0.615393 
-0.730772 0.431184 0.485408 -0.686340 0.395897 -0.571515 
2.176948 0.596412 2.283875 0.927448 0.225394 -0.192879 
-1.360435 -0.421420 1.287439 0.659141 0.301122 0.678648 
-1.611912 0.012844 1.337585 -0.420366 -0.246972 -0.831173 
-1.048724 -0.800431 1.096057 -0.785222 -0.313599 -0.511368 
-0.913594 -0.512843 0.810087 0.794383 0.132026 0.574308 
1.751457 -0.647637 2.125550 0.814196 -0.539721 -0.211996 
-0.177408 -1.312335 0.183179 0.633955 -0.144276 0.469474 
-1.861905 -0.752031 1.873462 -0.572978 -0.490723 -0.648150 
1.022720 0.248913 0.793871 -0.605952 -0.166151 0.753625 
2.046459 0.013148 2.062467 0.817205 -0.415220 -0.363359 
1.446433 0.764352 1.162992 0.242102 0.663118 -0.629098 
2.069767 0.054963 2.698609 0.945276 -0.271164 0.118702 
1.598896 -0.531396 1.655321 0.838518 -0.495769 -0.192916 
1.547546 -0.373958 1.351746 -0.840797 0.322628 0.329352 
-1.631526 -0.836504 1.799612 0.378672 0.482262 0.755337 
-0.698789 0.015021 0.498012 0.687213 -0.097805 0.699763 
-2.148473 0.121606 1.649323 0.523993 0.102563 0.840020 
1.628784 1.078986 1.354412 -0.821178 0.235235 0.346715 
-0.588707 -0.282308 0.302693 0.441276 -0.024656 0.807499 
1.391123 -0.282109 1.109351 -0.755852 0.193225 0.606095 
0.146751 -1.043190 0.076507 0.183457 -0.238287 -0.927548 
0.557282 0.524919 0.145331 0.835396 0.289769 -0.438977 
0.715210 0.426080 0.491246 -0.626760 0.366619 0.676932 
1.660645 -0.091424 1.353897 0.663819 -0.207222 -0.709044 
-0.372371 0.638067 -0.112783 -0.633119 0.413772 -0.603427 
-0.451146 0.368384 0.297702 0.593398 -0.073187 0.770030 
-1.221511 0.657343 0.972318 -0.421764 0.489989 -0.703279 
1.598140 -0.340747 1.394824 0.671074 -0.381696 -0.615627 
1.540685 0.748657 1.193249 0.501043 0.329549 -0.720529 
1.908175 0.246586 1.759363 -0.818096 0.007923 0.532126 
0.524510 -0.671845 0.328401 -0.407002 0.040769 0.851144 
0.331978 -0.420227 0.098850 0.528318 -0.099468 0.786430 
2.060168 0.023712 2.144124 -0.938745 0.189215 0.133343 
0.727935 0.610902 0.489860 0.695731 0.192183 -0.639739 
-0.138345 1.188775 -0.020854 -0.672420 0.423714 -0.555579 
-1.556469 0.069295 1.344376 0.671611 0.029177 0.693087 
0.518518 -0.586056 0.263836 0.624708 -0.154109 -0.738681 
-1.322299 -0.490321 1.280163 -0.662880 -0.345216 -0.648248 
-2.271715 -0.040362 1.761064 -0.555281 -0.364185 -0.734975 
-0.097899 -0.001145 -0.348476 -0.494889 -0.085389 -0.845819 
-1.381252 0.459301 1.194985 0.594037 -0.179668 0.749666 
1.989813 -0.013396 2.995809 -0.922835 0.334809 -0.182614 
-0.174277 0.927251 0.341280 -0.394730 0.052943 0.884910 
-1.046734 0.487273 0.742127 -0.671914 0.094017 -0.718868 
-0.791750 0.230412 0.509427 -0.797305 -0.124847 -0.586507 
1.364802 -0.506823 1.199727 -0.772871 0.341672 0.491579 
1.657377 -0.703249 2.049237 0.793785 -0.554793 -0.235230 
0.098871 0.417585 -0.337641 0.523081 0.194383 -0.800958 
0.028462 -0.476576 0.196251 0.192396 -0.167519 0.954675 
-0.232593 0.774605 -0.131148 -0.545756 0.481341 -0.676198 
-2.490996 0.421964 1.933458 0.688746 0.141881 0.664419 
-0.269894 0.224124 0.216991 -0.167555 -0.267759 0.947455 
-1.278021 -0.130009 1.123134 0.643242 0.131463 0.718845 
1.021678 -0.256567 0.749957 0.752050 -0.122363 -0.637901 
1.813086 0.576295 1.654984 -0.814151 -0.060161 0.544282 
-1.115841 -0.496681 1.003017 -0.747681 -0.238047 -0.598871 
0.076826 0.211139 0.256336 0.087774 -0.264457 0.951995 
1.663256 0.210769 1.426863 -0.820852 -0.014158 0.455053 
1.249447 -0.668527 1.161365 0.767086 -0.412175 -0.433685 
-0.804587 0.181899 0.606971 0.674436 -0.150610 0.716471 
-0.764554 -0.214194 0.555011 0.740397 0.007554 0.654110 
-1.327437 -0.920940 1.656687 -0.548439 -0.543259 -0.620869 
-2.309422 0.521425 1.812249 0.583693 0.091876 0.741872 
1.539214 0.512629 1.206076 0.726656 -0.280859 -0.626058 
-1.844882 -0.562478 1.730915 0.273429 0.420167 0.804731 
-2.264606 -0.338289 1.932007 -0.596182 -0.464493 -0.649357 
0.282324 -0.071273 0.160188 0.368943 -0.184317 0.861876 
2.119351 0.290590 2.867789 0.959523 -0.206201 0.151570 
1.403131 -0.213162 1.122030 -0.738392 0.164436 0.617619 
1.993708 -0.191884 2.284711 0.813700 -0.535005 -0.212361 
-0.486341 0.413569 0.366840 0.644418 0.067213 0.742495 
-1.698628 -0.403734 1.513465 -0.273393 -0.448253 -0.847315 
-0.358577 -0.565387 0.032872 0.028684 -0.023292 0.981794 
-1.760471 -0.582028 1.694637 0.223588 0.421503 0.828631 
-0.463713 -1.007151 0.233055 -0.557294 -0.049839 -0.782847 
-1.341064 -0.121315 1.190860 0.632988 0.143892 0.724291 
-2.320065 -0.138083 1.883076 0.743564 0.228257 0.577312 
1.781794 -0.174354 1.645178 -0.709060 0.277808 0.596392 
-1.108957 0.568778 0.937756 0.715633 0.204738 0.611143 
-0.350161 -0.384251 0.081127 -0.406596 -0.089245 0.823378 
0.132291 0.783595 0.351231 0.177095 0.045103 0.975432 
0.671568 -0.109071 0.348769 0.775178 -0.064851 -0.622676 
-1.922986 -0.354280 1.628944 -0.646752 -0.380068 -0.650929 
-0.390370 0.684501 0.215189 -0.491653 0.344511 0.703538 
0.002676 1.009301 -0.119313 0.261146 0.272800 -0.924301 
-0.551510 0.107032 0.347542 0.606168 -0.163939 0.750197 
1.226892 -0.924508 1.611420 0.717485 -0.615155 -0.320989 
-2.024123 0.339000 1.582975 0.466604 -0.064129 0.843802 
1.338351 -0.604481 1.272050 0.741373 -0.463753 -0.431254 
-0.240315 0.963226 0.285552 -0.742157 0.096384 0.628917 
-0.005205 0.510516 -0.360294 -0.424078 0.313341 -0.848578 
-0.548687 -0.000304 0.172082 -0.822248 -0.085400 -0.559083 
-1.849400 -0.155300 1.530854 0.296710 0.237119 0.896901 
-1.915583 0.716198 1.514396 -0.707006 -0.043693 -0.703838 
-1.337098 0.750638 1.098322 -0.378379 0.521282 -0.659643 
0.122918 0.230765 -0.367478 0.570265 0.014823 -0.805277 
-0.374267 -0.331552 -0.078758 -0.781706 -0.129027 -0.608507 
-0.277895 -0.518048 -0.135917 -0.516540 -0.289478 -0.802839 
1.131005 0.627792 0.879764 -0.705221 0.362567 0.553618 
-2.608190 0.545154 2.003177 -0.788303 0.156562 -0.535399 
-0.074270 0.347389 -0.374525 -0.521403 0.125960 -0.822041 
2.096910 0.106857 2.164224 0.787662 -0.460449 -0.368592 
0.297557 0.934649 0.127153 0.925972 0.334464 -0.069464 
-0.678688 -0.693288 0.459157 0.629946 -0.008065 0.709573 
0.274515 0.937144 0.044203 0.843858 0.300159 -0.349494 
-2.143105 0.446933 1.655166 0.370931 0.182039 0.883463 
-1.725788 -0.325943 1.536719 0.288924 0.326113 0.859648 
0.733279 0.276126 0.565202 -0.637391 -0.077997 0.765441 
-0.048886 -0.063204 -0.353834 -0.440577 -0.153924 -0.851637 
1.853510 -0.384630 2.645196 0.863113 -0.481337 0.011819 
-2.217865 0.500394 1.677736 -0.700252 0.023852 -0.703979 
-0.543013 0.247946 0.146088 -0.836174 -0.088973 -0.537266 
-1.057927 -0.857187 1.224276 0.749796 0.374989 0.513637 
-1.797296 -0.764370 1.842703 -0.564915 -0.492654 -0.652067 
0.289766 0.758261 0.308228 0.574147 0.297972 0.736449 
0.178383 1.180615 0.051063 0.821400 0.487435 -0.270601 
1.660430 0.671878 1.313668 0.951545 -0.108698 -0.284726 
2.188831 0.263706 2.435996 0.973557 -0.211366 -0.029649 
0.008510 0.540146 0.372271 0.041987 -0.278639 0.957625 
0.119122 -0.423402 0.196617 0.173389 -0.130318 0.975339 
0.644274 0.039265 0.303503 0.794429 -0.078941 -0.594805 
-0.968426 -0.113317 0.780324 0.710212 0.022308 0.677826 
1.498961 -0.753642 1.855847 -0.700026 0.548659 0.387632 
1.327884 0.147502 1.018999 0.750379 -0.268124 -0.603318 
0.039682 0.918927 -0.151290 0.405735 0.359389 -0.828462 
1.230963 -0.823659 1.422209 -0.775999 0.562147 0.257049 
-0.789515 0.520129 0.553065 -0.670143 0.214808 -0.687743 
2.017302 0.650674 1.938226 0.947741 0.008969 -0.312956 
1.776822 -0.572595 2.072097 -0.809973 0.493131 0.272219 
-0.549214 0.491598 0.373586 0.625936 0.339877 0.691946 
-0.725467 0.361611 0.521563 0.644062 0.391890 0.654819 
2.119317 0.113620 2.502121 -0.909580 0.366084 0.066072 
0.916903 -0.124119 0.651026 0.747059 -0.104998 -0.649419 
0.339896 0.734376 0.257230 0.724380 0.349314 0.505146 
0.565140 0.538139 0.219316 0.805231 0.372173 -0.413874 
1.618811 0.941024 1.315467 -0.079589 0.020702 -0.970305 
-0.375155 0.743398 0.095993 -0.870202 0.446185 -0.081612 
1.613768 -0.116758 1.304027 0.693374 -0.229413 -0.671344 
-0.511338 0.157016 0.109633 -0.838367 -0.084401 -0.535636 
-0.730362 0.158533 0.532791 0.667933 -0.151927 0.720561 
-1.745705 -0.724880 1.787858 0.358403 0.458187 0.764650 
-1.522270 0.298753 1.332035 0.621996 -0.078794 0.725514 
0.340083 -1.154831 0.169146 0.031023 0.000715 0.799836 
1.780931 -0.325726 1.707829 0.871586 -0.402351 -0.246982 
-0.952501 -0.208944 0.730714 -0.757565 -0.140184 -0.625673 
0.063980 0.569512 -0.303468 0.415182 0.349910 -0.819630 
0.390991 0.183764 -0.066723 0.830024 -0.091004 -0.536481 
0.589112 -0.084391 0.342044 -0.521784 -0.103433 0.793793 
-0.219355 0.841663 -0.100539 -0.591114 0.413269 -0.683136 
-0.158480 -0.739789 -0.044033 -0.088343 -0.392743 -0.906441 
1.471330 -0.742425 1.791040 -0.662524 0.542804 0.442793 
1.292027 -0.618616 1.189077 0.765336 -0.413882 -0.437972 
1.546611 -0.072868 1.229426 0.737518 -0.266347 -0.614503 
0.380369 0.359706 0.233307 -0.226519 -0.227638 0.896788 
2.011642 0.029884 1.924089 0.809943 -0.343418 -0.458620 
-0.327212 0.840721 0.131383 -0.882725 0.385472 -0.002725 
-0.953562 0.132459 0.699908 -0.777489 -0.185636 -0.592167 
-2.551596 -0.249294 2.376179 0.845586 0.314162 0.410229 
-1.146129 -0.531089 1.061570 0.744921 0.222370 0.607628 
2.044720 0.316542 1.974593 -0.855824 0.077007 0.475759 
-0.098212 0.713238 0.365627 -0.102460 0.113794 0.983082 
0.294334 -0.145963 -0.200596 0.596623 -0.189716 -0.751453 
0.997393 0.499122 0.813168 -0.711600 0.109071 0.691810 
2.197797 0.473002 2.502366 -0.959134 0.003436 -0.004369 
-1.803559 -0.620657 1.737362 -0.617901 -0.463916 -0.624696 
-0.308183 0.724204 0.312443 -0.585813 0.301474 0.734202 
0.256552 -1.370923 0.219922 0.774346 -0.063219 0.499158 
-0.604945 -0.906612 0.377672 -0.670616 -0.075521 -0.698207 
-2.794830 0.142843 2.682015 -0.931916 -0.227372 -0.264133 
0.519713 -0.420553 0.172923 0.712222 -0.126343 -0.675391 
0.601705 -0.361126 0.278620 0.723607 -0.105002 -0.670856 
1.981128 0.076583 3.130772 0.922949 -0.301347 0.230453 
-2.570779 0.502448 1.955308 -0.749061 -0.048929 -0.634656 
-0.546777 -0.902325 0.331532 0.465502 0.008084 0.803066 
1.977716 -0.194006 2.438695 0.831239 -0.515036 -0.131253 
1.094415 -0.553595 0.861683 -0.768976 0.144044 0.612647 
1.121011 -0.219053 0.868978 -0.730479 0.082948 0.652480 
0.765825 -0.178096 0.488904 0.756196 -0.055925 -0.649469 
0.136701 -0.182481 0.202319 0.207662 -0.061279 0.970650 
2.162586 0.382256 2.208815 0.950665 -0.053186 -0.244240 
-0.466740 -0.024375 0.201928 0.406267 -0.147125 0.846052 
1.621550 -0.348744 1.481408 -0.908326 0.334314 0.131179 
-0.203052 -1.022340 0.083459 -0.004137 -0.299839 -0.952972 
-0.161881 0.608131 -0.251706 -0.458963 0.366483 -0.787038 
1.143175 -0.511028 0.901885 -0.768159 0.154595 0.610838 
-0.861507 -0.763420 0.693910 -0.809279 -0.074632 -0.563749 
-1.961849 -0.506787 1.755214 -0.645300 -0.432812 -0.623574 
0.649573 -0.777183 0.414352 0.633974 -0.074913 -0.744754 
-1.101994 -0.430073 0.982477 0.736540 0.182400 0.629655 
0.191887 1.084949 -0.023870 0.693565 0.314174 -0.585391 
0.004594 0.461725 0.345741 0.017895 -0.301263 0.951403 
-0.590538 0.219677 0.222924 -0.823965 -0.115804 -0.550266 
-0.221130 1.110706 0.035785 -0.858512 0.399567 -0.316646 
1.528549 -0.430626 1.392518 -0.854092 0.369537 0.247957 
1.702114 0.668838 1.426647 0.826347 -0.373353 -0.393268 
-0.802527 -0.128801 0.556356 -0.790568 -0.098962 -0.603270 
-1.203577 0.149071 1.030840 0.615375 -0.033544 0.743040 
2.013911 -0.131312 2.419113 0.826232 -0.519875 -0.152970 
-1.640139 0.353461 1.339483 -0.446397 -0.264481 -0.812571 
1.963213 -0.003299 1.848410 0.835766 -0.262929 -0.451569 
-2.653987 -0.170853 2.535383 -0.876911 -0.330657 -0.336551 
0.413291 -0.504477 0.039546 0.693842 -0.155176 -0.683885 
-1.942006 0.188999 1.519853 -0.535628 -0.082112 -0.821838 
0.661423 -0.144443 0.421440 -0.584928 -0.067645 0.761164 
0.505955 0.155083 0.294284 -0.544926 -0.202349 0.793121 
0.630912 -0.991049 0.362674 0.576463 0.118902 -0.786786 
0.157274 0.919367 0.351406 0.327371 0.008391 0.923396 
-1.481711 -0.103717 1.312054 0.652620 0.140348 0.706387 
-2.604974 0.323036 2.014655 -0.790615 -0.172441 -0.569025 
2.153193 0.175570 2.471052 0.971484 -0.206298 0.036685 
1.998771 -0.035476 2.914642 -0.915768 0.360477 -0.146802 
0.108906 0.360623 0.316610 0.145308 -0.307019 0.933168 
0.522468 0.644702 0.293190 0.789414 0.493466 -0.315286 
0.141165 -1.202918 0.122724 -0.741918 -0.021743 0.491776 
0.983002 0.400904 0.677884 0.763175 -0.156500 -0.612557 
0.370689 0.154469 0.173149 -0.139963 -0.240568 0.903005 
0.912671 0.434925 0.716103 -0.684217 0.207744 0.682068 
0.109798 0.159944 -0.365524 0.541746 -0.014115 -0.822067 
1.911818 0.042726 1.756464 0.849156 -0.129896 -0.485198 
-0.057215 0.594320 -0.295236 -0.394041 0.375128 -0.820167 
1.414476 -0.787233 1.762679 -0.658418 0.555834 0.443315 
-1.595951 0.188410 1.361666 0.677962 -0.043814 0.688431 
-0.648680 -0.859734 0.417178 -0.697341 -0.058536 -0.677859 
1.529322 -0.605264 1.653845 0.814316 -0.517764 -0.219100 
-1.817968 -0.700852 1.813708 0.393565 0.455137 0.747753 
0.370124 0.580671 -0.135769 0.652474 0.290994 -0.663733 
-2.771546 0.152594 2.587881 0.932064 0.165687 0.283409 
0.561398 -0.151444 0.186828 0.778978 -0.087418 -0.614777 
1.679678 0.831202 1.355335 0.878583 0.032788 -0.455229 
-2.599319 -0.014607 2.259731 0.761479 0.392457 0.479173 
-1.660432 -0.177578 1.411550 0.756865 0.153798 0.611856 
0.103695 -0.023551 -0.341662 0.487821 -0.099634 -0.846806 
-1.522182 0.492152 1.333530 0.596297 -0.178304 0.742056 
1.311406 -0.890459 1.739664 0.690324 -0.610215 -0.374723 
1.096655 -0.691408 0.865600 0.780897 -0.201035 -0.587613 
1.355789 0.441854 1.097133 -0.638895 -0.202631 0.701195 
-2.772419 0.193629 2.525172 -0.916592 -0.216903 -0.315300 
-0.197089 -1.248076 0.124167 -0.061831 -0.202941 -0.976440 
1.162719 0.566488 0.842742 0.528597 0.281199 -0.737402 
