0.985766 -0.419363 2.432792 0.842312 -0.506704 0.119655 
-0.802283 0.192351 1.121431 0.859276 -0.051361 0.444471 
1.080615 0.555081 1.702296 -0.865193 -0.107822 0.362002 
0.183859 -1.298574 0.192933 0.917408 0.063935 -0.012005 
0.539817 0.574041 0.366341 0.868737 0.418132 -0.177203 
-0.475062 -0.803523 0.406900 0.627038 0.017751 0.619969 
-0.749203 0.540987 1.011791 0.928140 0.111109 0.341560 
-0.581270 -0.313457 0.585816 0.852123 0.048901 0.413331 
0.374877 0.512587 -0.189072 0.684986 0.175660 -0.660600 
-0.647516 0.449240 0.675820 0.875562 0.318431 0.327917 
1.066855 -0.071258 1.624300 -0.942897 0.111999 0.076450 
-0.647720 0.098208 0.594076 -0.938038 -0.157233 -0.304560 
-0.068491 -0.627157 -0.112408 -0.121339 -0.401309 -0.898652 
-1.004923 -0.346173 1.679321 -0.740524 -0.395435 -0.499225 
0.124937 0.850881 -0.185899 0.499564 0.434948 -0.733947 
0.346933 -0.314445 -0.141200 0.695654 -0.230477 -0.634107 
0.565175 -0.893431 1.910672 -0.758899 0.648944 -0.016840 
-0.284383 0.601932 0.269938 -0.420830 -0.188447 0.843080 
1.250883 0.645113 2.709030 0.956829 0.182058 0.147474 
0.916882 -0.474062 1.451344 -0.903275 0.347306 0.145318 
0.765035 -0.661949 1.901037 -0.795961 0.547759 -0.158406 
-0.798145 0.477023 0.894042 -0.914528 -0.069324 -0.330009 
1.078999 -0.209152 1.951449 -0.819536 0.355311 0.372984 
0.521133 0.461032 0.038201 0.923429 0.126291 -0.328698 
1.172962 0.420287 2.632641 -0.914300 0.126461 -0.161323 
0.811110 -0.619851 1.088656 0.941540 -0.230277 -0.227328 
0.690919 0.243784 0.669186 0.932673 -0.192833 -0.301316 
1.000508 -0.397410 2.102123 -0.763578 0.488061 0.277878 
-0.309243 0.662093 -0.226667 -0.547070 0.368944 -0.746052 
0.757394 -0.167874 3.133770 -0.755251 0.452648 -0.462580 
-0.094112 0.208840 -0.409426 -0.531180 -0.011279 -0.835797 
0.860428 0.068735 1.077612 0.925570 -0.243456 -0.271397 
0.696174 0.297838 0.618741 0.954187 -0.067267 -0.282531 
0.940080 0.420524 3.252543 -0.772189 0.395874 -0.421691 
0.049807 1.114627 -0.098575 0.375631 0.341038 -0.851454 
-0.509173 0.455948 0.413666 0.817235 0.358449 0.433321 
-1.789515 0.443090 3.000160 -0.972043 0.109445 0.122237 
-0.049424 1.001561 -0.136215 -0.372402 0.407588 -0.814037 
1.019641 -0.162077 2.719378 -0.835108 0.325445 -0.366770 
0.137793 1.155478 -0.052562 0.552157 0.387888 -0.718743 
-0.995757 -0.534478 1.924147 0.853534 0.443634 0.211391 
-0.112425 -0.462621 -0.226658 -0.288703 -0.469975 -0.823856 
0.984573 -0.185439 1.418856 -0.918175 0.187603 0.262813 
-1.707609 0.339991 3.218353 0.927875 0.293861 -0.026203 
-0.009899 1.400135 -0.024285 -0.292852 0.688122 -0.575072 
0.208899 -0.229233 -0.271143 0.490184 -0.228797 -0.823765 
-0.788705 -0.194612 1.056688 -0.906221 -0.214822 -0.340424 
0.898154 -0.104588 2.980148 -0.797443 0.334826 -0.471349 
0.422914 -0.499412 0.143664 0.777523 -0.177630 -0.560130 
0.518238 0.118615 0.184349 0.904319 -0.094169 -0.412613 
-0.890172 -0.459447 1.663827 0.858590 0.391615 0.288668 
0.307486 0.183268 -0.275999 0.653797 -0.058369 -0.740870 
1.035112 -0.274552 1.491459 0.926539 -0.306520 -0.217128 
-1.648501 0.437738 2.360307 -0.914889 0.035471 -0.384384 
-0.660538 0.338838 0.760428 0.874373 -0.157742 0.452394 
1.138677 0.643116 1.883858 -0.874491 -0.272091 0.273698 
-0.214186 -0.369817 -0.235556 -0.463782 -0.314154 -0.816913 
0.122571 1.072416 0.344222 0.029735 0.036492 0.945419 
0.952774 0.507515 1.249424 0.917931 -0.280965 -0.278114 
-0.785148 -0.915055 2.071021 0.714777 0.549191 0.414501 
-0.423762 0.585263 0.224798 0.705793 0.351231 0.526190 
-1.555666 0.557340 2.359333 0.821651 0.107159 0.457082 
1.253984 0.611423 2.555892 0.993170 0.001945 0.111146 
0.021372 0.570028 -0.363878 0.401775 0.326356 -0.847751 
-0.484684 0.511095 0.347268 0.801372 0.360811 0.460952 
1.029335 0.367955 1.430674 0.916342 -0.293215 -0.269086 
-0.144948 -0.900509 0.005983 -0.211208 -0.314105 -0.910943 
1.177394 0.303043 2.918215 -0.901681 0.218606 -0.364939 
-1.025952 -0.008912 1.603731 -0.796254 -0.307820 -0.475136 
0.876888 -0.536409 1.979958 -0.731155 0.538054 0.311427 
-0.855432 -0.794923 2.023848 -0.657772 -0.551890 -0.490647 
-1.240400 0.238051 1.875957 0.684093 -0.018854 0.678666 
-0.911578 -0.364886 1.581360 0.862503 0.331950 0.364608 
1.173047 0.064706 2.696022 0.836417 -0.524123 0.123396 
-0.980328 0.708223 1.350533 -0.690265 0.386645 -0.461658 
0.255111 -0.995167 0.088359 0.535707 -0.272091 -0.794608 
-0.639331 -0.825023 1.119695 -0.952276 -0.281425 -0.109781 
-0.800528 0.328207 1.100916 0.849485 -0.126136 0.463846 
-1.374953 0.072469 2.032352 0.777409 0.104249 0.612970 
0.250428 0.388792 0.235886 0.190156 -0.228871 0.949191 
0.520025 0.085000 0.402434 -0.786094 -0.130100 0.558469 
-1.505194 -0.079372 2.308092 0.873488 0.261859 0.340073 
0.342364 -0.420530 0.077110 0.462376 -0.083502 0.795779 
-0.986969 -0.504104 1.852223 -0.611178 -0.511340 -0.569377 
0.438230 0.525483 0.286829 -0.797244 0.318874 0.498640 
1.046551 -0.225825 1.862001 -0.902946 0.315624 0.044399 
0.324970 -0.789157 0.077432 -0.248782 0.065829 0.953681 
1.142143 -0.023056 1.757348 0.878215 -0.215609 -0.416884 
0.531112 0.564325 0.190810 0.898582 0.343068 -0.208355 
-0.300727 -0.937701 0.122650 0.282188 0.070306 0.934207 
-0.534222 0.360413 0.514264 0.855486 0.181341 0.433602 
1.155243 -0.167059 2.318285 0.916470 -0.382220 0.041377 
1.206991 0.082729 2.415181 -0.953176 0.241500 -0.011303 
1.258436 0.415763 2.485057 0.975391 0.088402 0.159817 
0.409349 -0.378266 -0.024303 0.830438 -0.173862 -0.523984 
0.556985 0.333215 0.205290 0.927142 0.001149 -0.345285 
0.076593 0.050846 0.191656 0.148570 -0.142388 0.974213 
-1.687794 0.365849 2.468393 -0.933496 0.000931 -0.301180 
-0.575950 0.303815 0.280937 -0.933687 -0.027511 -0.333780 
-0.021125 -0.953219 0.064112 -0.398576 -0.096183 0.909425 
0.335902 -1.133566 0.170790 -0.193743 -0.123633 0.777237 
0.945532 0.352380 3.225475 -0.778525 0.075415 -0.595021 
-0.669458 0.211650 0.637839 -0.938285 -0.186597 -0.288740 
-0.624761 0.486783 0.613015 0.885159 0.234869 0.358513 
-0.916607 -0.033602 1.391272 -0.877127 -0.319211 -0.349238 
0.980702 -0.417997 1.417676 0.927346 -0.304090 -0.202950 
0.175951 -0.903706 0.094807 -0.407689 0.016742 0.812406 
-1.366139 -0.235802 2.156045 0.741723 0.349405 0.521150 
-0.468691 -1.052459 0.275113 -0.628056 0.271560 -0.673767 
0.037276 0.986954 -0.149415 0.362641 0.416595 -0.818009 
-1.072297 0.926446 1.665127 0.893241 0.107122 -0.187624 
0.794722 0.625572 0.937923 0.822498 0.267499 -0.472684 
0.013126 -1.004914 -0.018261 0.467318 -0.177792 -0.843623 
-0.848132 0.247946 1.129270 -0.909316 -0.297761 -0.277827 
-1.686406 0.581928 2.481517 0.854901 0.152228 0.469784 
-0.634953 -0.690768 0.967743 0.955291 0.174975 0.181884 
1.151004 -0.171131 2.133674 0.922872 -0.339000 0.091879 
-1.185533 -0.279478 1.917885 -0.875048 -0.359089 -0.282161 
-0.637383 -0.686023 0.884629 0.951167 0.117125 0.222675 
0.450034 0.005085 0.195523 -0.580730 -0.124993 0.731599 
0.914020 -0.542188 1.293168 0.936889 -0.277880 -0.205586 
-1.257024 -0.172141 1.979778 0.613219 0.295950 0.684360 
0.214746 -0.067316 0.161076 0.381407 -0.147557 0.878785 
0.488177 0.288028 0.349226 -0.752492 -0.183565 0.607345 
0.046840 -1.149498 0.018289 0.301903 -0.203696 -0.927214 
-1.700779 0.178328 3.074057 -0.957711 -0.260097 0.033607 
-1.615278 -0.031063 2.661761 0.960981 0.202962 0.072100 
-1.516953 -0.268497 3.049598 -0.884694 -0.438698 -0.062032 
1.022417 0.381336 1.506236 -0.887663 -0.122281 0.331745 
0.541963 -0.264598 0.332694 0.882241 -0.117033 -0.442958 
-0.898695 -0.797095 2.089953 -0.732015 -0.538535 -0.396759 
0.739192 0.422778 0.749957 0.855435 0.275498 -0.410563 
-0.231678 0.105914 -0.309482 -0.590946 -0.080279 -0.781620 
0.080383 1.318803 0.091899 0.628310 0.702139 0.264301 
-0.018960 0.784765 -0.262510 -0.398969 0.380860 -0.830379 
-0.948681 0.218781 1.408877 -0.875103 -0.322961 -0.350575 
-0.748994 -0.629609 1.313202 0.915183 0.288191 0.229179 
-1.690906 0.122341 2.795924 -0.974365 -0.191247 -0.008927 
0.898439 -0.489840 1.242772 0.935297 -0.258108 -0.225058 
0.296278 0.886406 0.020799 0.860502 0.363992 -0.280556 
0.681116 -0.031160 0.766196 -0.892972 -0.045655 0.420599 
-0.166872 -0.674555 -0.085413 -0.185373 -0.407063 -0.889914 
0.628759 -0.626267 0.629090 -0.867827 -0.030337 0.455784 
0.077177 0.656322 0.340556 0.084964 0.115988 0.983556 
-0.630541 -0.431620 0.783084 0.947588 0.092563 0.271078 
-0.645746 -0.858458 0.839309 -0.946903 -0.085126 -0.241700 
-0.560190 -0.661664 0.523092 -0.850146 -0.078942 -0.434590 
-1.381248 -0.378194 2.340711 0.821703 0.394411 0.381190 
-1.146273 0.529795 1.762863 0.635423 -0.233159 0.676376 
0.744172 0.293489 0.907714 -0.846156 -0.170925 0.478626 
-0.475867 0.373279 0.419075 0.840360 0.039832 0.505264 
-0.546742 -0.960113 0.460215 0.750868 -0.136673 0.527959 
0.935530 0.726972 1.287383 -0.779413 0.521791 0.135348 
-1.186543 -0.589360 2.253828 0.650492 0.472250 0.510334 
-0.436036 0.451001 0.340589 0.827896 0.274316 0.473425 
-0.763196 -0.187621 0.979925 -0.913506 -0.194878 -0.334052 
0.030270 -0.799637 0.106789 0.352932 -0.142150 0.908776 
0.564915 0.371394 0.528757 -0.835728 0.360250 0.396107 
-1.478133 0.618760 2.241298 0.778653 0.074870 0.530473 
0.965133 -0.076516 1.320539 0.926841 -0.293943 -0.231098 
0.407865 0.444546 0.296140 -0.816292 0.138066 0.533011 
-0.403075 0.230042 -0.135451 -0.824860 -0.084144 -0.526856 
-0.638841 -0.453677 0.858947 0.947742 0.131570 0.248751 
-1.455594 0.537022 2.116377 -0.932946 0.042105 -0.337050 
0.911432 -0.509017 1.900350 0.789574 -0.575111 -0.150407 
1.263802 0.542165 2.542798 0.995622 -0.018163 0.084756 
0.477884 -0.532682 0.404538 -0.612898 0.046765 0.649283 
-0.973874 0.182338 1.486906 -0.865540 -0.329752 -0.371238 
0.483066 0.504107 -0.035086 0.854370 0.166879 -0.421330 
-0.120496 -0.287818 -0.291676 -0.414976 -0.300383 -0.834747 
0.444072 0.207738 0.221095 -0.675126 -0.200396 0.681436 
-1.287854 0.309947 1.922303 0.727540 -0.075813 0.634867 
0.234471 0.750437 0.299691 0.455028 0.195268 0.852626 
-0.648587 -0.415010 0.690687 -0.944126 -0.083536 -0.301362 
-0.538876 0.043894 0.266247 -0.917043 -0.099189 -0.379885 
-1.609104 0.379140 2.313935 -0.936874 0.114944 -0.317603 
0.780094 0.044600 0.981196 -0.882250 -0.030422 0.401869 
-0.697545 -0.694256 1.487892 -0.846460 -0.435701 -0.241721 
0.691913 0.146721 3.426855 -0.730376 0.290186 -0.613555 
-1.207659 0.479813 1.829783 0.679278 -0.199100 0.649071 
-0.726959 -0.667268 1.663390 0.822411 0.487746 0.253613 
0.654984 -0.001684 0.613053 0.927604 -0.125814 -0.344967 
-1.302196 0.226449 1.921587 -0.830094 -0.124056 -0.500694 
-0.282406 -0.710485 0.088037 -0.153307 -0.047806 0.912450 
-0.911598 0.308189 1.284240 -0.890392 -0.312378 -0.317172 
-0.225920 0.643181 0.313898 -0.359223 0.201741 0.869359 
0.317591 -0.190687 0.118767 0.504638 -0.142890 0.808164 
-0.621318 0.028911 0.648722 0.915149 -0.065600 0.381110 
-0.605317 -0.101387 0.495832 -0.932886 -0.102090 -0.340571 
0.887165 0.108706 1.133407 0.925972 -0.265882 -0.257263 
-0.904790 0.432031 1.352639 0.841220 -0.150379 0.463672 
1.002527 -0.063062 2.865239 0.791362 -0.533282 0.248611 
0.879561 -0.508610 2.571794 0.794893 -0.564561 0.195589 
0.659151 -0.796013 1.798930 0.759196 -0.636754 -0.015573 
-0.263066 0.825631 0.258714 -0.660354 0.203485 0.671120 
0.778401 -0.341310 2.918729 0.760486 -0.509844 0.364453 
1.095945 0.236497 1.599444 0.906367 -0.281669 -0.300157 
-0.813360 -0.742765 1.896462 0.791588 0.512271 0.281047 
0.779161 -0.189798 0.919108 0.924231 -0.158525 -0.321018 
0.913164 -0.537052 2.412381 0.811161 -0.556439 0.165603 
1.107534 0.067064 1.831869 -0.943308 0.106181 0.169938 
0.576693 -0.873412 0.544105 -0.755643 -0.035653 0.556062 
-0.873388 -0.522042 1.714328 0.855379 0.430324 0.241365 
-0.422246 0.080025 -0.084114 -0.876664 -0.114724 -0.462984 
0.407213 0.229029 -0.126912 0.832880 -0.085829 -0.516234 
0.148891 0.289129 -0.378051 0.572539 0.030109 -0.804147 
-0.134759 -1.059096 0.028615 -0.425316 -0.235498 -0.845515 
1.152271 0.527926 2.448504 -0.905736 0.089905 -0.045402 
-1.081813 0.827396 1.715518 0.689320 -0.132608 0.703238 
-1.647553 0.467059 2.509710 0.877968 0.146707 0.351480 
-1.025614 0.548456 1.526521 -0.860882 -0.336474 -0.376822 
-1.216460 -0.058530 1.790811 -0.769520 -0.197180 -0.566928 
-0.022946 -0.740186 0.126256 -0.405915 -0.152688 0.898842 
0.871340 0.154404 3.232948 0.767172 -0.300301 0.553290 
-0.001457 -0.173012 -0.365674 -0.356200 -0.275354 -0.857851 
0.173934 0.416192 0.293111 0.269172 -0.252434 0.927416 
0.761042 -0.059050 3.222185 -0.747339 0.397764 -0.520649 
0.723786 -0.737477 0.920328 0.943119 -0.185895 -0.247110 
-0.480697 -0.364537 0.224861 0.481531 0.022546 0.743193 
-0.495864 0.272241 0.072198 -0.910106 -0.067127 -0.395992 
0.605098 0.154628 0.596045 -0.874943 -0.132915 0.448921 
1.195447 0.253274 2.175081 -0.964036 0.036143 0.164439 
0.393530 -0.534538 0.078894 0.759632 -0.190673 -0.582736 
-0.229864 0.555351 -0.278968 -0.531422 0.244687 -0.787592 
-0.920538 0.240586 1.326886 -0.885142 -0.315684 -0.329074 
0.287955 -0.268371 0.128480 0.560443 -0.116023 0.786361 
-0.131140 -0.106273 -0.333713 -0.478633 -0.166602 -0.840694 
0.156013 -0.391461 0.178469 0.227247 -0.101805 0.964730 
0.432726 -0.166679 -0.002533 0.855592 -0.141237 -0.489443 
0.737593 -0.108538 0.886891 -0.904303 0.021936 0.379383 
1.158354 0.498447 3.020264 0.873902 -0.113353 0.445068 
0.381534 0.287321 -0.180235 0.784476 -0.039455 -0.589007 
-0.033561 0.318258 0.269440 -0.046404 -0.295943 0.946604 
-0.709076 -0.697521 1.308468 -0.902706 -0.339021 -0.199264 
0.059889 -0.576329 -0.143222 0.147563 -0.447874 -0.868935 
1.035812 0.424680 3.173186 0.822105 -0.162741 0.536135 
-0.890974 0.647575 1.166963 -0.672453 0.454458 -0.492481 
-1.464986 -0.332124 2.667278 0.886259 0.360648 0.171526 
-0.708100 -0.179844 0.890196 0.917447 0.081851 0.358032 
-0.589414 -0.048777 0.437933 -0.928792 -0.104647 -0.349315 
-0.898597 0.566224 1.178531 -0.903453 -0.304954 -0.286518 
-0.783513 0.120644 0.968707 -0.921501 -0.236423 -0.285527 
-0.688759 -0.529933 1.013716 -0.935592 -0.223384 -0.225279 
-0.126164 -0.986701 0.055158 0.297225 -0.069689 0.919937 
1.058002 0.030187 1.519821 0.920408 -0.303395 -0.242540 
0.818381 -0.399731 1.046972 0.931113 -0.197684 -0.275501 
0.941051 0.587624 1.217294 0.917215 -0.277939 -0.284262 
-0.080859 1.313438 0.072233 -0.657422 0.665388 0.218455 
0.146233 -1.192512 0.184056 -0.133515 0.313086 0.900571 
-0.151129 -0.129246 0.184836 -0.228487 -0.075353 0.966586 
0.597771 -0.367904 0.601764 -0.846534 0.015422 0.457764 
0.797798 -0.608833 1.935179 -0.782368 0.562405 0.163004 
-0.097238 -0.373652 0.188640 -0.150717 -0.053096 0.983535 
-0.824718 -0.694653 1.843773 -0.677507 -0.544885 -0.440715 
-0.090569 0.371650 0.289721 -0.154250 -0.283487 0.935217 
0.853674 -0.570906 1.412721 -0.886942 0.381318 0.107736 
-0.666906 -0.670989 1.067292 -0.943597 -0.251356 -0.170308 
-0.406377 0.347582 -0.139468 -0.801436 0.002097 -0.549476 
-1.045885 0.518747 1.589411 -0.853175 -0.341945 -0.393480 
-0.472418 0.036782 0.072885 -0.892823 -0.109242 -0.428881 
0.871828 -0.035636 3.086033 0.771259 -0.319438 0.525576 
-0.823127 0.494790 0.994194 -0.925963 -0.287569 -0.239714 
-1.100332 -0.302237 1.809304 -0.605398 -0.406230 -0.653316 
1.028545 0.339429 3.141583 0.817792 -0.207605 0.521927 
-0.622864 -0.543018 0.613220 -0.914595 -0.051909 -0.356782 
0.703100 -0.688261 0.837119 0.931224 -0.131886 -0.300594 
-0.926164 -0.522089 1.779979 -0.659783 -0.502705 -0.501644 
-0.436267 -1.076975 0.213727 -0.579294 0.292299 -0.727578 
0.087705 0.507626 -0.359054 0.478218 0.247482 -0.830217 
-0.766458 -0.317196 1.105318 0.910584 0.180340 0.339183 
-0.114110 0.961628 -0.134994 -0.515298 0.408000 -0.731827 
0.029459 -0.498178 -0.206781 0.108812 -0.639672 -0.749268 
1.227246 0.128743 2.360003 0.921109 -0.326930 -0.126962 
0.873323 0.336735 1.084861 0.924732 -0.274435 -0.261875 
-1.174185 0.770704 1.813534 0.631827 -0.054121 0.749144 
0.304516 -0.549162 0.065046 0.267125 -0.085484 0.896750 
0.348690 -0.553109 -0.057283 0.748904 -0.208207 -0.604725 
0.742774 -0.710729 1.678746 0.771845 -0.611470 -0.036286 
0.958707 -0.470551 2.391523 0.832497 -0.521108 0.139938 
-1.484863 -0.317123 2.885168 -0.856992 -0.461466 -0.141871 
-1.790199 0.476142 2.837317 0.975744 -0.004000 0.014647 
-1.735693 0.322842 2.638320 -0.953186 -0.145655 -0.192456 
1.064617 -0.011835 2.821924 0.801723 -0.543672 0.206227 
0.813166 -0.692690 1.204376 -0.930238 0.272862 0.170693 
0.154986 0.261210 0.251432 0.252093 -0.229241 0.937312 
0.967728 0.367825 1.388922 -0.875292 -0.129887 0.365852 
-0.466766 0.149802 0.028720 -0.897667 -0.097975 -0.425598 
-0.020937 1.173324 0.307151 0.040917 0.571375 0.792378 
0.032636 1.390593 0.064592 0.469495 0.765674 0.391365 
0.135290 -0.919032 0.008190 0.270185 -0.300055 -0.895319 
-0.080334 1.066693 -0.099670 -0.395869 0.391354 -0.813166 
0.810380 0.459478 1.052839 -0.830548 -0.225564 0.485651 
0.479346 -0.093477 0.115824 0.876584 -0.117335 -0.457443 
-0.765907 0.367711 0.864623 -0.933831 -0.248729 -0.247374 
-0.806157 -0.583482 1.671452 -0.758274 -0.485207 -0.371041 
0.172318 0.568457 -0.296105 0.486186 0.273160 -0.803771 
0.999482 0.228134 1.374480 0.920132 -0.292244 -0.256846 
1.169591 0.464199 2.045842 -0.918157 -0.118546 0.215281 
1.202735 0.738437 2.308513 -0.877487 0.353938 0.104416 
-0.787817 0.443893 1.049645 0.845729 -0.199297 0.474971 
-0.291984 0.486421 -0.270708 -0.599140 0.152136 -0.771824 
-0.371656 0.397294 -0.198739 -0.724436 0.050451 -0.650774 
0.453715 -0.437859 0.178668 -0.418470 0.027854 0.811731 
0.372072 0.422503 -0.200125 0.714342 0.076377 -0.658486 
0.458263 0.675224 0.002730 0.757387 0.595129 -0.253012 
1.059350 -0.164197 2.660630 0.812011 -0.563019 0.150794 
-0.833099 -0.510915 1.621317 -0.799175 -0.437663 -0.362162 
0.697529 -0.614699 0.815276 0.931198 -0.128721 -0.307250 
-0.250522 0.390773 0.235949 -0.190938 -0.228664 0.949098 
-0.007323 -0.723229 -0.084239 -0.575091 -0.267297 -0.733013 
0.477694 -0.216727 0.137558 0.865747 -0.132423 -0.471337 
-0.144286 -0.796622 0.107233 0.141658 -0.072121 0.892856 
0.811911 0.505415 0.883192 0.867880 0.173221 -0.453952 
1.147721 -0.053547 2.046662 -0.932362 0.237385 0.194535 
0.296142 0.932856 0.125111 0.920426 0.316465 0.041086 
0.932883 0.022989 1.241272 0.926530 -0.285379 -0.240586 
0.743437 -0.182480 0.839646 0.923745 -0.135990 -0.336950 
0.482308 0.163646 0.316641 -0.742143 -0.171339 0.612973 
-0.278639 -1.073657 0.125718 0.128813 0.057999 0.888474 
0.706093 -0.746679 1.751378 0.765497 -0.623258 -0.032903 
-1.740902 0.593212 2.571269 -0.930387 0.069588 -0.290684 
-1.662732 0.172594 3.258957 0.961033 0.195057 -0.119948 
1.152042 0.154965 1.965876 -0.939845 0.044166 0.258732 
0.979745 0.417985 1.316285 0.918030 -0.286071 -0.271658 
-1.485386 -0.306052 2.766073 -0.833335 -0.481019 -0.206452 
0.223413 0.919910 0.289669 0.671111 0.033508 0.728318 
1.124250 0.751901 1.949946 -0.905999 -0.026659 0.297972 
1.218265 0.249847 2.307745 -0.976622 0.094341 0.125484 
-0.242560 0.177381 -0.314254 -0.614025 -0.050204 -0.770838 
-0.410882 0.000229 0.098074 0.467673 -0.139764 0.815760 
-0.634882 -0.806686 1.688696 -0.760955 -0.573268 -0.269370 
-1.176060 -0.688451 2.349981 -0.778203 -0.517839 -0.344196 
0.103932 -0.339596 0.185770 0.180092 0.009071 0.980798 
1.139142 -0.082135 2.536719 0.862688 -0.476576 0.097515 
-0.533487 0.342152 0.139379 -0.923439 0.006924 -0.350754 
-1.739949 0.333568 3.116534 -0.971618 -0.196840 0.058200 
-0.870858 -0.867370 2.136847 -0.712025 -0.553871 -0.418896 
0.328139 -0.699140 0.026871 0.678924 -0.225549 -0.663903 
0.085105 0.097172 -0.397494 0.496536 -0.059959 -0.850579 
-0.931776 -0.252646 1.531911 0.865494 0.265347 0.402063 
0.716771 0.352502 0.670878 0.915253 0.086382 -0.343001 
-0.459350 -0.200107 0.189382 0.505901 -0.045337 0.753362 
-0.013950 0.644576 0.343999 -0.035908 0.127819 0.984778 
-0.637969 -0.758699 1.066689 0.958602 0.228598 0.138885 
0.166857 1.231605 0.193975 0.477373 0.822934 0.037798 
-0.945878 -0.659661 1.990543 -0.622326 -0.530345 -0.556922 
0.728171 0.654247 0.816224 -0.915659 0.128438 0.364446 
0.277479 0.779140 -0.147934 0.586846 0.537865 -0.588448 
-0.343619 0.441097 -0.246962 -0.660657 0.093224 -0.733850 
-0.362788 0.773253 0.050352 -0.866332 0.459408 -0.098252 
-1.134223 0.683786 1.742701 0.639266 -0.348484 0.652137 
0.577187 0.247769 0.323609 0.922847 -0.113563 -0.355017 
0.491632 0.626733 0.062871 0.837863 0.444902 -0.232741 
0.211134 0.763995 -0.194308 0.521202 0.502874 -0.671503 
1.162791 0.489388 2.555163 -0.909629 0.116949 -0.108067 
0.999329 -0.382678 1.580151 0.881495 -0.391750 -0.204128 
1.029293 0.055659 1.453859 0.921442 -0.299328 -0.243746 
0.051185 0.197481 0.229273 0.087003 -0.228513 0.960654 
0.340170 0.130640 -0.220461 0.691142 -0.096740 -0.680615 
-0.484788 -0.028827 0.125043 -0.893421 -0.113929 -0.424093 
1.073596 0.744675 1.457004 0.842378 0.199177 -0.462018 
-0.109579 1.081562 0.342955 0.017720 0.094778 0.937714 
-0.014611 0.155389 0.219766 -0.059373 -0.197967 0.972854 
-0.214640 0.801062 -0.170365 -0.539323 0.494686 -0.670857 
-0.360588 0.337324 0.174239 0.146904 -0.213305 0.878599 
1.102065 -0.106120 1.810748 -0.947059 0.130960 -0.224231 
-1.638674 0.194706 2.432999 -0.725474 -0.437759 -0.505561 
0.737956 -0.080975 0.819336 0.923755 -0.144815 -0.334514 
-1.035410 0.618653 1.533782 -0.860029 -0.337732 -0.377806 
0.543098 0.399831 0.131365 0.926468 0.066797 -0.333709 
0.077091 -0.940741 -0.028816 0.275435 -0.247736 -0.906042 
0.952291 -0.085677 2.912390 -0.812383 0.309567 -0.455806 
-1.645549 0.027401 2.756241 0.856593 0.454996 0.210546 
1.119544 -0.180577 2.417938 0.883841 -0.438476 0.075589 
0.118169 -1.195926 0.115054 0.102957 -0.303776 -0.771611 
0.731940 -0.839891 1.085664 0.922298 -0.297452 -0.150714 
-0.438964 -0.596261 0.312678 0.530439 0.053090 0.705595 
-0.663137 -0.780380 1.178783 0.944768 0.269426 0.145298 
1.148159 0.232725 2.904314 0.863991 -0.202070 0.450033 
0.398257 -0.716533 0.298920 -0.474151 0.064839 0.765309 
-0.170811 -0.780564 -0.032232 -0.214482 -0.369810 -0.898594 
-1.526470 0.268782 2.206410 -0.723641 -0.275592 -0.607069 
-1.128688 -0.391446 1.902983 -0.765016 -0.479662 -0.418460 
0.924689 0.679421 1.226776 0.590674 0.545874 -0.507782 
-1.616506 0.137788 3.454662 -0.947815 -0.256112 0.177293 
0.508869 -0.532159 0.471436 -0.683889 0.037445 0.592306 
0.178603 -0.756402 0.105181 -0.087875 -0.070543 0.871511 
0.474016 0.240346 0.297804 -0.730007 -0.203453 0.628176 
-0.065967 0.593990 -0.331809 -0.408387 0.324928 -0.836108 
0.275495 -0.490096 0.111397 0.506926 -0.126299 0.842196 
0.300458 0.889460 0.185078 0.889737 0.244672 0.341735 
-1.571624 0.612713 2.272397 -0.912097 -0.027274 -0.405811 
-0.302874 0.293665 0.174080 -0.163310 -0.214561 0.960331 
0.537342 0.555995 0.108335 0.919411 0.266978 -0.253323 
-0.965322 -0.706867 2.086636 0.575369 0.493459 0.594074 
0.629018 0.377581 0.622437 -0.851409 0.368129 0.354939 
-0.875983 0.402633 1.162192 -0.905368 -0.302074 -0.284376 
0.794430 0.695127 0.960630 -0.902917 0.148515 0.363848 
1.113707 0.870533 1.750273 -0.774470 0.481250 0.287999 
1.193501 0.499964 2.648974 -0.931779 0.150723 -0.111996 
-0.176853 0.977254 -0.098944 -0.606756 0.371850 -0.688959 
-0.840772 -0.182954 1.268319 0.881881 0.171273 0.392668 
-1.611032 -0.060281 2.941321 -0.951798 -0.268682 0.015062 
0.827862 0.712717 1.035156 -0.875406 0.214516 0.323545 
-0.709819 -0.226500 0.831638 -0.926397 -0.148769 -0.329857 
-0.147400 1.194736 -0.001434 -0.686885 0.493839 -0.467615 
0.184487 -0.970245 0.065506 0.223942 -0.339438 -0.906091 
-0.526629 -0.796284 0.475147 -0.815082 -0.078112 -0.478543 
-0.638512 -0.097249 0.688846 0.927577 -0.003850 0.355444 
-1.742564 0.527077 2.634997 0.908076 0.108710 0.293993 
-0.646913 -0.173843 0.715359 0.933448 0.038212 0.342813 
-0.127536 1.159187 0.347949 0.362074 0.285889 0.863875 
-1.535892 0.660311 2.233150 -0.918821 -0.022397 -0.390812 
0.843054 0.659190 1.086742 -0.852178 0.381950 0.220489 
-1.402560 0.453233 2.051209 -0.746915 -0.346478 -0.534433 
-0.438476 -0.306836 0.057960 -0.858914 -0.153926 -0.476517 
0.102503 0.865749 0.346130 0.244913 -0.107041 0.957210 
0.902508 -0.536833 2.501393 0.803101 -0.572768 0.161008 
0.410635 -0.249353 0.032726 -0.344492 -0.046676 0.899497 
0.246718 0.613746 -0.261774 0.521522 0.312100 -0.779059 
-1.345077 0.251441 1.975585 -0.795607 -0.121823 -0.565518 
0.123883 0.726393 -0.248420 0.375722 0.518078 -0.753180 
-0.145433 0.534884 -0.318704 -0.488713 0.245203 -0.813948 
-0.159947 1.232371 0.189773 -0.498183 0.820018 0.064040 
0.828220 0.398672 1.090383 -0.839154 -0.186213 0.463699 
-0.362576 -0.586924 0.026147 -0.747533 -0.194854 -0.597503 
0.700037 -0.361443 0.826050 -0.929603 0.085534 0.332986 
0.227499 -0.783718 -0.019605 -0.052185 -0.406509 -0.896300 
-0.283975 -0.251091 0.131151 -0.553377 -0.123187 0.791600 
1.074673 -0.181566 1.744698 -0.934479 0.191838 -0.136084 
-1.538894 -0.219803 3.107522 -0.921925 -0.372259 0.012411 
-0.121572 0.029461 -0.364182 -0.506497 -0.095947 -0.837945 
0.623562 0.300648 0.405389 0.943183 -0.025641 -0.314423 
1.274454 0.473249 2.573488 0.993343 -0.004960 0.084646 
0.678346 -0.520982 0.738567 0.922701 -0.087710 -0.350670 
0.526843 0.268312 0.431353 -0.792208 -0.175396 0.556159 
0.957845 -0.134545 2.858255 0.786326 -0.531022 0.265331 
0.854849 -0.569644 2.066157 -0.746659 0.550679 0.211235 
-1.621694 -0.009904 2.561387 -0.780346 -0.513218 -0.351100 
0.369080 0.063072 0.107686 -0.150642 -0.172432 0.888301 
1.182313 0.104843 2.632348 -0.902816 0.187503 -0.282106 
0.487499 -0.116673 0.274607 -0.609093 -0.067870 0.685913 
-0.631336 -0.630157 0.642327 0.920509 -0.027340 0.351562 
1.142362 0.604637 1.690120 0.978614 -0.119762 0.142188 
0.718094 -0.769112 1.368759 0.829482 -0.504566 -0.006506 
-1.481355 -0.145403 2.327039 0.865171 0.289230 0.339371 
0.228382 -1.064368 0.110498 0.547270 -0.273332 -0.767833 
-0.282453 -0.432437 -0.190967 -0.510701 -0.321185 -0.791645 
0.578884 0.142371 0.362183 0.916498 -0.126967 -0.370331 
-1.069996 0.668418 1.607035 -0.846364 -0.342156 -0.402270 
0.123723 0.198452 0.227445 0.190252 -0.218092 0.949557 
-1.606083 0.488026 2.453704 0.858610 0.130306 0.378080 
0.345094 -0.937616 0.227686 0.611236 -0.210542 -0.717901 
-0.561811 -0.233397 0.473946 0.761476 0.019172 0.500641 
-0.490194 -0.084623 0.298869 0.650207 -0.069866 0.639267 
-0.421744 -0.261026 -0.002082 -0.855459 -0.152305 -0.485822 
-1.658895 0.212603 2.501199 0.886353 0.200921 0.342104 
0.243536 0.209397 -0.318920 0.621338 -0.035753 -0.767762 
-0.029438 0.203318 -0.447827 -0.490655 -0.002904 -0.865666 
0.753995 -0.710067 1.393514 -0.848973 0.464543 0.028698 
-0.054644 -0.814854 0.100800 -0.162046 -0.146252 0.919966 
-0.397644 -0.290428 -0.065212 -0.844605 -0.160452 -0.505508 
0.171552 0.206893 -0.362226 0.576796 -0.024768 -0.800953 
0.156068 -0.288101 -0.279230 0.433911 -0.286067 -0.833189 
-0.367312 0.202401 -0.190629 -0.754037 -0.077597 -0.615726 
-0.649982 -0.494439 0.663539 -0.943142 -0.046723 -0.317407 
-1.070463 0.759086 1.558930 -0.882594 -0.172218 -0.384185 
-0.073749 -0.242871 -0.320700 -0.391853 -0.290652 -0.843814 
-0.294311 0.237242 -0.292355 -0.659233 -0.032160 -0.742412 
0.051053 1.360731 -0.002865 0.596578 0.634480 -0.444451 
-1.187733 0.016532 1.755869 -0.577355 -0.209005 -0.774035 
-1.691632 0.182161 3.152744 -0.958372 -0.253533 0.069809 
0.386082 0.578109 0.162192 0.034797 0.280114 0.764547 
0.548816 0.469337 0.109650 0.931075 0.137083 -0.309288 
-0.252772 -0.448855 0.132694 -0.443632 -0.124169 0.875456 
-0.359197 -0.051100 0.075898 0.035448 -0.136663 0.943809 
0.496156 0.167727 0.110388 0.901272 -0.096282 -0.418809 
1.093167 0.770850 1.776522 -0.950163 -0.133297 0.243266 
0.415140 -0.562421 0.183780 0.747376 -0.184715 -0.585289 
0.982584 0.141045 1.418226 -0.894806 0.002467 0.318332 
0.445172 -0.364702 0.077512 0.842221 -0.160434 -0.504410 
1.183375 0.235825 2.102934 -0.960319 0.013611 0.184425 
0.849168 -0.360789 2.783545 0.777737 -0.533420 0.285153 
0.539502 -0.721634 0.502230 -0.712333 0.000165 0.580966 
0.780497 0.430381 0.839635 0.929130 -0.155510 -0.296539 
-0.557891 -0.029658 0.499213 0.852935 -0.055421 0.454672 
-0.838927 -0.048300 1.249689 0.870539 0.099312 0.414424 
1.069908 -0.279841 2.403118 0.873011 -0.455707 0.087168 
0.789084 -0.384978 2.853062 -0.777373 0.500410 -0.333666 
-0.139233 1.011730 0.351790 -0.198802 -0.124809 0.970859 
0.210537 0.532615 0.288562 0.223673 -0.218315 0.943798 
-0.857741 0.167008 1.176697 -0.903235 -0.299914 -0.292676 
-0.855918 0.028181 1.203334 -0.897630 -0.287096 -0.316017 
-0.038968 -0.478486 -0.228245 -0.173807 -0.571877 -0.786407 
0.552819 -0.592981 0.509359 0.812362 -0.095450 -0.507113 
-0.480347 -0.281701 0.233505 0.518140 -0.005935 0.724222 
-1.016865 -0.768470 2.222451 -0.747125 -0.533662 -0.379381 
-0.869616 0.565552 1.044503 -0.898062 0.057252 -0.402492 
0.932783 0.370224 1.215050 0.921182 -0.281170 -0.266375 
-0.467481 -0.253446 0.129529 -0.873086 -0.142143 -0.451638 
-1.029866 0.807600 1.631688 0.811598 0.379080 0.201896 
0.232862 1.102028 0.139370 0.892571 0.428500 -0.000705 
-0.728954 -0.644941 1.447020 0.872560 0.370648 0.252684 
0.234412 -0.343985 0.148052 0.431031 -0.044172 0.861864 
-0.519243 0.377301 0.079397 -0.920913 0.040910 -0.349968 
0.943827 -0.131730 1.277949 0.926550 -0.273627 -0.243118 
-0.573834 -0.359809 0.531175 -0.871065 -0.129263 -0.405444 
-0.687784 0.278172 0.656607 -0.943835 -0.159603 -0.276272 
-1.145241 0.604286 1.758149 0.641046 -0.289227 0.661715 
0.006348 -0.641735 -0.111120 0.589904 -0.329848 -0.696022 
-0.202741 1.239781 0.342983 -0.837894 -0.415345 -0.305129 
0.191203 -0.731470 -0.054430 0.154934 -0.416510 -0.887172 
0.611267 -0.834273 0.593372 -0.816122 -0.047203 0.507258 
0.637428 0.370992 0.405569 0.949969 0.046210 -0.284772 
-0.159733 1.081611 0.227281 -0.630636 0.605740 0.085253 
-1.031565 -0.661655 2.111992 -0.775708 -0.509996 -0.347895 
0.500509 -0.240559 0.208299 0.871030 -0.127766 -0.461986 
0.544120 0.105737 0.263912 0.908964 -0.102565 -0.398235 
1.176931 0.533523 2.272079 -0.934862 0.029290 0.115420 
0.725640 -0.821936 0.932152 -0.945071 0.145092 0.254458 
0.132548 -0.477573 0.162826 0.206751 -0.141776 0.967037 
-1.000902 -0.633666 2.034068 -0.780947 -0.503350 -0.342346 
1.089106 -0.036278 2.755633 0.808930 -0.554498 0.171739 
-0.061616 -0.096177 0.189675 -0.134135 -0.078873 0.981771 
0.412184 0.388287 -0.133793 0.793090 0.044760 -0.550114 
0.696954 -0.841131 1.224836 0.864557 -0.424394 -0.056281 
-1.717046 0.430525 2.512916 -0.914714 -0.093484 -0.354229 
-0.025290 -0.940159 -0.021356 -0.301090 -0.227508 -0.922481 
-1.796043 0.404907 2.938530 -0.981426 -0.177955 -0.005226 
1.131805 0.689422 1.637203 0.935800 -0.207295 -0.140103 
-1.391651 -0.309741 2.273741 0.817722 0.373772 0.421378 
0.590289 -0.303325 0.516867 0.877544 -0.103602 -0.432791 
-0.244800 -0.194252 0.147386 -0.457399 -0.117784 0.842544 
-0.827478 -0.853550 2.060635 0.735472 0.530790 0.386803 
0.903473 0.315515 3.270045 0.781893 -0.216620 0.569584 
-0.162682 0.540056 0.320999 -0.279254 -0.232971 0.929205 
-0.555389 -0.328361 0.438622 -0.882901 -0.130936 -0.405009 
-0.383260 -0.320491 0.012360 0.110303 -0.040145 0.963006 
-0.824727 0.305537 1.166842 0.849303 -0.104026 0.459759 
0.317435 0.398774 -0.274672 0.648585 0.070919 -0.752441 
0.663047 -0.135098 0.655410 0.924034 -0.094778 -0.365623 
-0.363996 0.037612 -0.157678 -0.723887 -0.153564 -0.614475 
-0.997571 -0.088880 1.581334 -0.822301 -0.318258 -0.440071 
0.790319 -0.651626 1.424275 -0.855851 0.451073 0.046235 
0.621247 -0.910792 0.588222 -0.830757 -0.096725 0.505494 
0.599831 0.223597 0.411964 0.922457 -0.156065 -0.344096 
-1.635998 0.213078 3.458190 -0.953875 -0.223921 0.180394 
0.539738 0.189369 0.447334 -0.803008 -0.164983 0.537867 
1.138510 0.509554 1.869278 -0.894799 -0.215258 0.269661 
-1.328789 -0.117994 2.000507 -0.884522 -0.239973 -0.364229 
0.526649 -0.199925 0.274748 0.882766 -0.114413 -0.444087 
-0.201489 0.914360 0.305836 -0.528190 0.030088 0.814412 
1.064888 0.749566 1.601323 -0.872195 -0.318626 0.364642 
0.406216 0.149275 0.136969 -0.479614 -0.191973 0.782794 
0.277572 0.104888 -0.281864 0.615888 -0.088869 -0.761741 
-1.081599 -0.712471 2.245466 -0.765830 -0.521988 -0.358411 
0.665028 0.253709 3.501342 0.717030 -0.244035 0.648937 
0.035256 1.269575 -0.028128 0.526630 0.143227 -0.835209 
-0.032618 0.970868 0.369328 -0.180218 0.028725 0.976169 
0.561565 0.062041 0.323121 0.911254 -0.099703 -0.394120 
1.012769 -0.381642 1.742380 0.830679 -0.478591 -0.244424 
-0.874361 0.583935 1.249951 0.836869 -0.251365 0.479487 
1.148471 0.229747 1.941869 -0.929801 -0.011581 0.262497 
-1.339490 -0.304555 2.159536 -0.831010 -0.387538 -0.379965 
-0.834985 0.466249 1.167472 0.842903 -0.195667 0.472763 
0.833108 0.092128 1.015404 0.925213 -0.228400 -0.282716 
-1.384483 0.376788 2.047174 0.754233 -0.053216 0.598526 
-0.715284 -0.696523 1.235721 -0.925690 -0.298996 -0.182889 
-0.690971 -0.585646 1.088868 0.939111 0.211595 0.218251 
0.867182 -0.533500 1.481288 -0.873115 0.414593 0.080770 
1.109040 -0.033103 1.667014 0.894639 -0.249010 -0.348871 
0.642619 0.442953 0.646682 -0.869058 0.308498 0.350663 
1.070969 -0.299101 1.960755 0.872953 -0.418105 0.196443 
-0.435871 0.431897 -0.101706 -0.811390 0.089893 -0.507714 
-1.362232 0.188009 2.011570 0.764665 0.027042 0.621506 
0.003267 0.080631 0.198239 0.068758 -0.148504 0.985595 
-1.079211 -0.496811 2.002318 0.455864 0.439057 0.732545 
-0.673891 -0.754208 1.256233 0.922889 0.303639 0.171613 
0.619996 0.401433 0.341387 0.946748 0.075224 -0.286254 
1.064414 -0.248435 2.482280 0.853617 -0.489743 0.107410 
-1.764195 0.403877 3.076930 -0.971485 0.050400 0.131675 
1.182112 0.009353 2.095151 0.967496 -0.150105 0.000366 
-1.560935 -0.151403 2.677249 -0.804329 -0.505283 -0.275981 
0.265449 1.017767 0.091448 0.899616 0.374922 -0.097814 
1.136702 0.498728 1.770090 0.929656 -0.293494 0.056351 
-0.390659 -0.905168 0.279265 0.467918 0.040752 0.765514 
1.203320 0.165059 2.211992 -0.981669 0.093529 0.148181 
-0.271318 0.887581 -0.030777 -0.777290 0.390313 -0.428376 
0.839380 0.014647 1.035519 0.925234 -0.223034 -0.283623 
-0.701793 0.330039 0.836118 0.870249 -0.179375 0.446972 
0.716611 -0.010766 0.843186 -0.890107 -0.036884 0.412167 
0.718059 -0.648725 0.895880 0.943001 -0.182332 -0.255085 
1.101895 -0.192312 2.028799 -0.847812 0.354449 0.281366 
0.499721 0.245095 0.107458 0.904128 -0.113781 -0.404253 
-0.634571 -0.495569 0.735249 0.944824 0.046899 0.294939 
-1.088707 0.168910 1.696834 0.901317 -0.011627 0.357585 
1.096551 -0.132923 2.589546 0.838636 -0.517423 0.122830 
-1.560331 -0.146048 2.599855 -0.789098 -0.517867 -0.317681 
1.175153 0.398359 1.995964 0.945042 -0.226823 -0.100925 
1.188282 0.086496 2.092122 0.980662 -0.079730 -0.082590 
-1.002881 0.415799 1.607732 0.837672 -0.105630 0.453652 
1.195835 0.454149 2.738508 -0.929377 0.170400 -0.180098 
-1.536694 0.339525 2.238746 0.808869 0.054132 0.553986 
-0.799244 0.615767 1.026147 0.870702 0.381627 0.205819 
-0.642941 -0.538102 0.869162 -0.948676 -0.178653 -0.216581 
0.452661 -0.564172 0.336668 -0.541902 0.048158 0.708628 
-1.353573 0.658701 2.086890 0.727564 0.027293 0.585842 
-0.557532 -0.266919 0.395612 -0.906041 -0.125255 -0.386204 
-0.188553 0.036127 -0.324561 -0.548686 -0.104200 -0.806932 
0.966408 0.729008 1.377236 -0.751977 0.571577 0.100231 
-0.355275 -0.378000 0.068234 -0.371354 -0.074561 0.815494 
0.148170 0.529299 0.328762 0.294809 -0.239648 0.924728 
-0.482435 0.402802 -0.025956 -0.898188 0.063311 -0.385014 
-0.505755 -0.290586 0.303950 0.581178 0.010282 0.661744 
-0.388964 -0.101280 -0.108866 -0.807959 -0.160902 -0.530105 
1.198028 0.592874 2.868135 0.854033 0.250538 0.336627 
-0.087992 -0.611472 0.138201 -0.275512 -0.179971 0.941517 
1.051461 -0.319207 2.108467 -0.801405 0.447412 0.246575 
-0.637472 -0.765574 0.981481 0.955538 0.170806 0.175569 
-0.515992 -0.064305 0.375965 0.729962 -0.063674 0.566942 
0.988159 -0.150430 2.783418 -0.825482 0.329415 -0.391603 
0.041828 0.370749 -0.415675 0.486676 0.136235 -0.846975 
0.223707 0.409113 -0.314105 0.592321 0.117538 -0.777557 
0.268458 -1.110086 0.148373 -0.019607 0.059522 0.833821 
0.452669 0.398978 -0.071591 0.852593 0.058512 -0.456823 
-0.441477 0.525923 0.290906 0.801399 0.324181 0.488201 
-1.702351 0.267934 3.211801 -0.964053 -0.217582 0.091662 
-0.875816 0.728798 1.182000 0.806575 0.386725 0.199830 
0.056825 1.294293 0.155063 0.269313 0.819130 0.492457 
-0.532980 0.566467 0.378541 0.796440 0.382810 0.444961 
-0.349410 -0.254881 0.077759 -0.301182 -0.104802 0.856328 
0.094907 -0.201417 0.186036 0.172891 -0.035576 0.978477 
-1.304849 -0.385482 2.213546 0.696582 0.404272 0.516807 
0.229651 0.631195 0.308723 0.447235 -0.199290 0.843364 
0.429958 0.600635 0.215363 -0.600832 0.383760 0.549224 
-0.151249 0.124986 0.200990 -0.230830 -0.179910 0.955093 
1.188514 0.722773 2.090581 0.991712 -0.037153 0.115713 
1.217256 0.526565 2.823232 0.937859 -0.064788 0.267815 
0.561633 -0.940102 0.497797 0.778860 0.050117 -0.558413 
-1.787230 0.401316 2.863996 0.985018 0.041846 -0.002672 
-0.330702 0.179635 -0.248412 -0.682342 -0.068285 -0.707023 
-1.596361 0.543144 2.290944 -0.901544 -0.040553 -0.428484 
1.009293 -0.110531 1.472650 -0.918945 0.152144 0.258817 
0.222656 1.011351 0.292967 0.717353 -0.068167 0.677564 
0.404914 0.138356 -0.109878 0.813425 -0.127934 -0.517903 
-0.007985 0.635791 -0.341955 -0.350685 0.382006 -0.852295 
-1.204497 -0.202997 1.934929 0.540276 0.305641 0.745957 
0.092000 -0.039599 -0.365991 0.462748 -0.138825 -0.851927 
-0.500467 0.615966 0.122739 -0.874059 0.401858 -0.184345 
-0.042547 -0.315308 0.190194 -0.137978 0.035860 0.987674 
0.658424 0.185785 3.479636 -0.725800 0.273166 -0.628222 
0.796483 -0.638328 1.841901 0.770317 -0.603645 -0.118418 
-0.424079 -0.680943 0.324503 -0.712852 -0.188418 -0.595316 
0.869534 -0.591313 2.460775 -0.809460 0.566743 -0.137211 
0.165751 1.209205 0.060440 0.768837 0.577021 -0.235899 
0.855636 0.261579 3.289773 -0.760976 0.163811 -0.598286 
-0.434996 0.069891 0.171491 0.585836 -0.152445 0.734042 
1.116247 -0.185731 1.859041 0.923764 -0.322611 0.024578 
-1.047072 0.603397 1.649763 0.842952 -0.221261 0.449689 
0.737546 0.071972 0.806060 0.923878 -0.163259 -0.327265 
-1.523438 0.037988 2.274081 0.847127 0.226262 0.445254 
1.033639 -0.349208 1.829248 0.809172 -0.497414 -0.283438 
0.743484 -0.847871 0.998966 0.951099 -0.225337 -0.204342 
1.177212 -0.071680 2.112604 0.953317 -0.229485 0.075146 
-0.324190 0.830579 0.188375 -0.854646 0.332811 0.378484 
0.943410 0.481665 1.338088 -0.861390 -0.201026 0.400913 
-0.189178 1.062024 -0.058631 -0.637449 0.346474 -0.669787 
0.660213 0.397825 0.730664 -0.871541 0.298081 0.357026 
0.086347 1.132457 0.329083 -0.237217 0.325456 0.895691 
-0.800610 -0.519893 1.552676 0.849826 0.382877 0.320988 
-0.664647 0.529788 0.707896 0.897260 0.246222 0.321473 
1.011750 0.766025 1.550867 -0.909804 0.057434 0.404153 
0.562081 0.503634 0.360510 0.866500 0.412648 -0.224101 
-0.803422 0.411479 0.960303 -0.928841 -0.276214 -0.239895 
1.216219 0.131348 2.275472 0.943404 -0.232202 -0.133750 
-0.257674 -0.749120 -0.031834 -0.183821 -0.343716 -0.838199 
-0.086757 -1.017944 -0.010443 -0.337338 -0.204082 -0.910218 
-0.198331 0.209964 0.211251 -0.236386 -0.215886 0.945421 
0.353705 0.511917 0.182945 0.084391 -0.009443 0.901404 
0.059463 -0.637143 0.143479 0.316624 -0.178929 0.919625 
-0.640869 -0.155264 0.614739 -0.940959 -0.107992 -0.318644 
0.848305 0.598810 1.177846 -0.885312 -0.021127 0.424503 
0.167925 -0.310280 0.174801 0.269456 -0.009342 0.951090 
1.175052 0.754849 2.009383 0.991022 -0.040655 0.121143 
0.952528 -0.430928 1.343856 0.932453 -0.278951 -0.218658 
-1.213211 0.095787 1.771163 -0.896477 -0.153946 -0.396181 
-0.623275 0.107467 0.516906 -0.932958 -0.148109 -0.320676 
-0.411173 -0.655667 0.256653 -0.722576 -0.189330 -0.593915 
-0.187768 -0.230178 -0.280936 -0.485496 -0.227645 -0.826809 
-0.085918 0.359475 -0.394169 -0.517905 0.113165 -0.828087 
-1.205781 0.095976 1.846514 0.644657 0.090231 0.729017 
0.445649 0.285836 0.233275 -0.697520 -0.229169 0.668427 
-1.692055 0.329175 2.532627 0.902293 0.120992 0.348522 
-0.748171 0.476585 0.953320 0.855351 -0.192627 0.466261 
-1.557228 -0.168122 3.178701 -0.924621 -0.367912 0.044453 
-1.251236 0.446338 1.880915 0.702902 -0.165433 0.634384 
-0.026567 -0.646666 0.152409 -0.394481 -0.180146 0.897879 
0.716502 -0.725950 1.994817 0.776105 -0.608746 0.083572 
-0.817681 0.309552 1.025810 -0.920460 -0.279348 -0.260198 
0.816054 0.127544 3.280887 -0.750719 0.267185 -0.582369 
0.150063 0.678295 0.332018 0.181947 0.132590 0.958710 
0.875605 0.008703 1.115975 0.925728 -0.246065 -0.267395 
0.221371 -0.548459 0.116224 0.372546 -0.149773 0.908283 
-0.585976 -0.136676 0.560908 0.877883 -0.002232 0.409362 
-0.270743 0.459231 0.236511 -0.159467 -0.212636 0.958373 
0.256353 -1.176628 0.173582 0.189761 0.075364 0.740397 
-1.178799 0.304405 1.723135 -0.874609 -0.175107 -0.397910 
-0.426218 -0.084953 0.117179 0.479292 -0.102751 0.803462 
-0.554506 0.510896 0.104195 -0.936195 0.178833 -0.287780 
0.260651 -0.137603 0.141851 0.450808 -0.142152 0.840515 
-0.554919 0.280970 0.545303 0.851177 -0.102282 0.493742 
1.165860 0.520974 2.358792 -0.921368 0.056649 0.035322 
0.828543 0.229769 0.994194 0.925266 -0.242247 -0.278105 
-0.139846 0.606682 -0.300272 -0.450571 0.321515 -0.812971 
-1.566839 -0.151786 3.029436 0.897032 0.412776 0.065736 
-0.501443 0.644129 0.291173 0.776540 0.381365 0.481664 
1.093307 -0.276589 2.247126 0.891325 -0.420348 0.088361 
0.126536 -1.405218 0.218640 -0.560589 -0.624341 0.254097 
-0.009472 -1.026089 0.055055 -0.550440 -0.077287 0.813009 
0.426808 0.657043 -0.071409 0.712421 0.492163 -0.409069 
1.012928 -0.336833 1.520816 -0.926526 0.292892 0.167731 
0.543609 0.294668 0.515500 -0.836146 -0.089527 0.516119 
0.567636 -0.375241 0.514719 0.842538 -0.116692 -0.466227 
-0.499862 0.213113 0.362463 0.769265 -0.180113 0.575188 
0.660064 0.540473 0.675934 -0.895301 0.215079 0.347286 
-1.601898 0.010678 2.494552 0.941362 0.189828 0.164023 
0.706201 -0.235532 3.151325 0.736881 -0.472844 0.479550 
1.155128 0.439725 1.717184 0.976469 -0.135820 0.032873 
0.050072 0.729387 -0.272400 0.318116 0.506837 -0.792759 
-1.105307 0.035314 1.715094 0.921133 0.051286 0.326584 
1.158296 0.829838 1.800202 0.998131 0.015438 -0.028890 
-0.564831 -0.742828 0.539801 0.792624 -0.014717 0.468590 
-1.534998 0.558272 2.214069 -0.911105 -0.022146 -0.401513 
-0.045618 1.053421 0.361304 -0.042651 0.124195 0.957739 
-0.968974 0.242699 1.548216 0.845533 -0.015110 0.441653 
-0.850299 0.714700 1.114841 -0.755148 0.327482 -0.446860 
1.246156 0.532770 2.726271 0.968469 -0.043128 0.180185 
1.266157 0.497969 2.659650 0.984854 -0.034393 0.114934 
0.008756 -0.364404 0.197314 0.145161 0.056291 0.981479 
0.833453 -0.516754 1.109897 0.936637 -0.225750 -0.242884 
1.141410 0.326682 2.978161 -0.878145 0.163403 -0.423085 
0.759756 -0.468733 0.938751 0.934439 -0.175952 -0.281248 
-0.362116 0.675396 0.216709 -0.545787 0.110319 0.724562 
-0.462423 0.658568 -0.019031 -0.763749 0.541189 -0.293858 
-0.611807 0.414731 0.524409 -0.849663 0.412153 -0.293962 
-1.753693 0.324846 2.960491 0.978761 0.080832 -0.040920 
-1.525864 -0.216814 2.642891 -0.802829 -0.506386 -0.284601 
1.166327 0.030247 1.940181 0.973895 -0.077233 0.113705 
0.185994 0.082268 0.175476 0.238621 -0.174098 0.949288 
0.734877 -0.810441 1.163302 -0.908027 0.319788 0.120937 
-0.014590 -1.111894 0.001147 -0.454615 -0.175685 -0.845334 
1.177782 0.697506 2.242209 -0.938227 0.058945 0.185198 
-0.896644 0.173493 1.373137 0.851162 0.000036 0.442018 
0.231835 1.100523 0.065671 0.870057 0.421612 -0.190523 
1.033394 -0.087125 2.778481 -0.835999 0.285822 -0.411749 
-0.958955 0.503914 1.480535 0.836260 -0.173617 0.465134 
1.189027 0.471060 2.408149 -0.938589 0.060599 0.029180 
-1.433226 0.400486 2.109915 0.768350 -0.036442 0.581241 
0.229998 0.453467 0.262680 0.204103 -0.226788 0.946114 
0.872605 0.691158 1.147889 -0.830723 0.403609 0.207480 
-0.346425 0.510986 -0.229405 -0.642241 0.174110 -0.722202 
0.718620 0.227642 3.429089 -0.737041 0.226957 -0.622539 
-0.356296 -0.235576 -0.132617 -0.725129 -0.209244 -0.605423 
0.831645 0.462338 0.982496 0.924787 -0.266795 -0.270816 
-0.428592 -0.995646 0.298280 -0.675477 -0.012349 -0.637012 
-0.642948 -0.847041 0.909702 0.951474 0.104973 0.211290 
-0.619811 -0.832155 1.313163 0.899071 0.366253 0.155706 
-1.171154 0.770584 1.734706 -0.811247 -0.273680 -0.492270 
-0.456893 -0.403567 0.169833 0.419756 0.021616 0.798939 
-1.609974 0.557024 2.416402 0.838688 0.126651 0.451146 
0.499013 -0.039465 0.160782 0.887374 -0.104522 -0.441497 
0.511685 -0.633406 0.453453 0.774026 -0.122927 -0.545580 
-1.486200 0.008164 2.209164 0.825167 0.241119 0.499685 
0.667019 -0.604394 0.733718 -0.916042 0.023103 0.374444 
0.783248 0.165394 0.989996 -0.864782 -0.087748 0.431236 
-0.519834 0.261499 0.146896 -0.916045 -0.077183 -0.383042 
0.841356 -0.575116 1.877769 -0.810545 0.509288 -0.213604 
0.575143 0.487652 0.481225 -0.818953 0.368414 0.412676 
0.778528 -0.663618 1.772563 0.771422 -0.605743 -0.086724 
0.262685 1.020810 0.187505 0.900729 0.384229 0.176066 
-0.635990 -0.622670 0.849481 0.949783 0.104040 0.239571 
0.659055 -0.838781 0.664273 -0.891183 -0.061973 0.444494 
-0.011722 -0.030455 0.194164 -0.086702 -0.095459 0.987500 
0.290130 0.554759 -0.258196 0.572995 0.233757 -0.768854 
1.059300 0.006296 1.600391 -0.931717 0.076506 0.140703 
-0.189464 -0.478023 0.147129 -0.291494 -0.144736 0.943210 
-1.166294 0.397380 1.715080 -0.930547 -0.163227 -0.300763 
-1.528270 -0.129423 2.458531 0.903418 0.260362 0.226084 
0.902229 0.527368 1.135155 0.920160 -0.274294 -0.278209 
1.063663 -0.206304 2.565219 0.834727 -0.523071 0.127098 
-0.731338 0.321277 0.906593 0.867104 -0.166036 0.446973 
1.089190 -0.284726 2.028376 0.879900 -0.425283 0.157483 
1.136499 0.642667 2.119184 -0.907993 0.004696 0.176392 
0.180346 1.094191 0.302406 0.756478 0.507882 -0.335706 
-1.261579 -0.453611 2.216058 0.648462 0.429728 0.541175 
1.217361 0.180032 2.602016 0.861982 -0.465873 -0.043049 
0.000880 -0.284350 -0.337677 0.317318 -0.355510 -0.854241 
0.374974 -0.466214 -0.058470 0.791153 -0.192785 -0.564698 
0.027380 0.507610 0.330354 0.072004 -0.264207 0.956533 
0.829767 -0.590967 1.532856 -0.844534 0.468716 -0.030377 
0.727062 -0.580408 0.921216 -0.942827 0.140418 0.272562 
1.063228 0.131873 1.608753 -0.923211 0.008374 0.166778 
1.254626 0.263034 2.575250 0.961108 -0.177289 0.076287 
-0.737300 0.274270 0.804547 -0.935675 -0.221587 -0.261788 
0.307151 -0.898417 0.141445 -0.286614 0.080907 0.922107 
-0.523994 -0.995075 0.397321 0.712517 -0.196757 0.577487 
0.640689 -0.754802 0.637944 -0.872766 -0.051462 0.459158 
-1.636799 0.017896 2.968584 0.894066 0.393723 0.079588 
-1.098015 0.736362 1.702104 0.615393 -0.385974 0.663502 
-0.533284 -0.867501 0.486891 0.726481 -0.020756 0.529237 
0.653528 0.317380 0.727358 -0.866677 -0.152814 0.466878 
0.806066 0.239702 3.336378 -0.752059 0.193234 -0.605289 
-0.759104 -0.684692 1.735026 0.830258 0.509613 0.198661 
-0.506527 0.136254 0.378156 0.782922 -0.143639 0.552979 
0.123601 0.799458 0.330306 0.205204 -0.079140 0.969966 
-0.789518 0.675939 0.969000 -0.853009 0.208903 -0.432683 
-0.758589 -0.383683 1.130119 0.914900 0.195926 0.312744 
0.574166 0.221776 0.525687 -0.838788 -0.167763 0.493764 
