-1.143261 0.291202 1.944572 0.684920 -0.272031 0.613550 
-1.314696 0.206476 2.391522 0.876494 -0.462364 0.111919 
-0.988072 0.636122 1.916835 -0.891233 0.435454 -0.029266 
1.443529 0.526034 2.593879 0.852456 0.146278 -0.477293 
-0.723017 0.882833 1.053911 -0.972696 0.210043 -0.039582 
0.317637 0.058144 0.314745 0.402666 -0.219666 0.884238 
-1.152223 -0.040348 1.049524 -0.880055 0.328858 -0.127971 
-1.065236 0.150111 1.186865 -0.896277 0.328340 -0.207427 
1.270387 -0.295759 1.350248 0.833775 0.477219 0.206950 
-0.105816 0.601201 -0.180815 -0.365355 0.146106 -0.905773 
-0.885135 1.063788 2.139358 0.870594 -0.230281 0.398283 
-0.371485 0.633579 -0.036625 -0.634656 0.334474 -0.623180 
-0.847541 0.678065 1.477520 0.824230 -0.467020 0.261162 
-0.758016 0.992235 1.405180 -0.972201 0.139848 -0.047987 
-1.121846 -0.415813 0.896443 0.756240 -0.296286 0.493356 
-0.649350 1.331465 1.404822 -0.410640 0.552767 -0.521106 
-0.852864 0.370022 0.713437 -0.853550 0.341008 -0.381457 
0.611015 0.243594 0.210498 0.801013 0.104330 -0.572843 
-1.293156 0.226881 2.838237 0.922660 -0.286508 0.214743 
1.164286 -0.601471 0.847796 -0.604513 -0.520112 0.497466 
-1.076182 -0.435595 0.845482 0.734076 -0.285166 0.517664 
1.259708 0.236955 2.125129 -0.762546 -0.039700 0.602745 
0.843771 -0.111095 0.648627 -0.634003 -0.297696 0.599293 
1.212804 -0.042068 1.997369 0.947342 0.097182 -0.266694 
-0.727814 -0.923262 0.335260 -0.489723 0.401579 -0.699491 
-1.176949 1.037132 3.088990 -0.934246 0.193060 -0.298332 
1.005688 1.315259 2.390768 0.804677 0.466117 -0.363226 
-0.804139 -0.665751 0.542640 -0.674296 0.122548 -0.628432 
0.584369 1.145673 1.635040 -0.535661 -0.420740 0.715855 
-1.230399 0.242052 2.133755 0.777697 -0.360301 0.388237 
0.876492 0.402946 1.253763 -0.788247 -0.429045 0.389951 
0.523612 0.594637 0.227961 0.799348 0.529200 -0.241626 
0.207473 1.143116 0.274110 0.499178 0.012767 0.806619 
-0.686407 0.747162 0.840508 -0.514101 0.613559 -0.581776 
0.132592 1.120169 0.307286 0.848978 -0.064679 0.433667 
1.426002 1.026696 3.294771 0.874655 0.436791 -0.183071 
-1.245094 0.587678 2.956030 0.919642 -0.175551 0.338948 
-0.478632 0.315327 -0.001736 -0.712487 0.061788 -0.684312 
-1.160440 -0.077115 0.960766 0.854333 -0.327257 0.381105 
1.196319 -0.105313 1.967318 -0.944371 -0.117291 0.215507 
0.665544 -0.819487 0.377639 0.557278 0.134445 -0.712125 
-0.384627 0.061233 0.277415 -0.290843 -0.207807 0.902566 
0.013844 0.817022 0.450608 0.122973 -0.260608 0.953842 
0.170239 1.053276 0.320229 0.459021 0.754305 0.351251 
-0.768683 -0.283261 0.498389 0.570354 -0.226120 0.662741 
-0.759691 -0.515027 0.494205 0.594504 -0.211265 0.674450 
0.226477 -0.833154 0.088454 -0.122066 -0.239739 0.884110 
-1.069644 1.079010 2.774373 -0.940664 0.206831 -0.266256 
-1.224779 0.812408 3.083689 0.914441 -0.284635 0.276808 
-0.905304 0.603896 1.661547 0.874975 -0.440289 -0.040185 
-1.233657 0.864128 3.132104 -0.931043 0.205406 -0.300246 
0.937778 0.705015 1.785203 -0.808261 -0.438410 0.350668 
-0.813477 0.642529 0.987103 -0.949142 0.256751 -0.116558 
1.477060 0.649362 2.874216 -0.884212 -0.303205 0.326458 
-0.801304 0.795599 1.463436 0.797595 -0.491857 0.292029 
0.211874 -0.567292 -0.056129 -0.082922 -0.291538 -0.936821 
0.937630 0.426761 1.491828 -0.840901 -0.384657 0.328454 
0.279226 -0.299260 0.244196 0.454650 -0.251841 0.839129 
-1.014657 0.266325 1.489253 0.900203 -0.394537 0.136444 
-0.896611 -0.705589 0.641643 -0.686624 0.163216 -0.599916 
-0.772080 0.885420 1.303436 -0.966461 0.186700 -0.057171 
-0.146118 -0.541507 0.208263 -0.182805 -0.308147 0.930510 
1.403842 0.190865 2.434500 0.903862 0.099729 -0.413961 
0.600524 0.924710 1.346307 -0.606716 -0.611864 0.473096 
0.614218 0.332976 0.517128 -0.582869 -0.474079 0.620681 
-0.059162 -0.757333 0.131900 -0.203416 -0.370592 0.871078 
1.489738 0.430948 2.656602 -0.886444 -0.324446 0.303967 
-1.145894 -0.145203 0.931989 0.831275 -0.316441 0.427778 
0.178675 -0.919892 -0.012934 0.109287 -0.048086 -0.981464 
-0.401606 0.488894 0.381713 0.752843 -0.302374 0.563031 
-0.841866 0.567686 1.290763 0.807098 -0.460387 0.312598 
-0.938435 1.243093 2.454198 0.914740 -0.281247 0.277958 
0.791248 -0.271055 0.581430 0.747157 0.188684 -0.557118 
-0.627930 1.332251 1.558457 0.677364 -0.485996 0.519811 
-0.847865 0.723571 1.569432 0.833266 -0.469912 0.150670 
0.560698 0.526411 0.259680 0.833939 0.417035 -0.297948 
-0.262282 0.917186 0.073434 -0.781616 0.393721 -0.409326 
0.437640 -0.617714 0.139370 0.652398 -0.016973 -0.700842 
1.306295 -0.001838 2.215062 0.923135 0.073489 -0.361941 
-0.877835 0.420122 0.910947 0.776399 -0.418301 0.450584 
-0.953244 0.814087 2.081589 -0.917927 0.275903 -0.274010 
-0.789119 0.955887 1.702703 0.752522 -0.426815 0.454135 
0.555590 0.005401 0.193581 0.806436 0.050922 -0.564584 
1.378571 -0.362091 1.239546 -0.767789 -0.554061 0.144307 
0.893510 0.391334 1.175320 0.903547 0.319564 -0.245036 
-0.390630 0.593936 0.379349 0.773422 -0.150180 0.482742 
0.279069 -0.684453 -0.044858 0.301747 -0.170495 -0.879584 
0.778759 0.227943 0.567913 0.845275 0.247865 -0.427818 
0.793672 0.350218 0.743979 0.889884 0.352811 -0.276114 
0.141758 -0.363877 0.268963 0.143151 -0.256535 0.954735 
-1.067483 1.193057 2.862635 -0.924287 0.260324 -0.254334 
0.727890 0.266511 0.652092 -0.661790 -0.471637 0.537424 
-0.531832 0.314394 0.051327 -0.762900 0.094996 -0.635842 
0.852899 0.126400 0.730613 -0.727312 -0.395415 0.522547 
-0.928640 0.553966 1.556199 -0.909770 0.276804 -0.218011 
-0.121890 -0.795433 0.100175 -0.027193 -0.356274 0.900574 
-0.390984 -0.184809 0.193540 -0.209718 -0.189971 0.916283 
0.084257 -0.754468 -0.057259 0.080418 -0.094190 -0.965306 
0.517116 0.606404 0.557497 -0.912362 -0.125893 0.330170 
-1.051037 0.902736 2.549044 0.931773 -0.196848 0.296993 
-0.179302 -0.854489 0.095614 0.167703 -0.274035 0.888106 
0.686621 0.152888 0.504759 -0.585130 -0.364978 0.672150 
-0.221903 0.439689 -0.151231 -0.470817 0.035832 -0.874338 
0.605144 0.995144 1.310509 0.951244 0.258832 -0.134596 
-0.145021 0.990794 0.461167 -0.223232 -0.190484 0.945371 
1.386110 0.930691 2.951977 -0.857084 -0.452006 0.219962 
1.277979 0.331083 2.170202 0.919869 0.168688 -0.316007 
0.313661 0.807286 0.067030 0.794935 0.442417 -0.311467 
0.770250 0.755410 1.559748 -0.722592 -0.496340 0.387139 
0.696962 0.579172 1.022111 -0.666541 -0.552512 0.478979 
-1.206896 -0.142729 1.150123 -0.876836 0.362566 0.026763 
-0.334811 0.695806 0.304417 -0.814770 0.199479 0.466478 
0.321384 0.850706 0.138701 0.903551 0.375693 -0.175410 
0.763010 0.791394 1.484823 0.940952 0.251758 -0.204648 
0.023128 -0.206865 -0.224572 0.345693 -0.211252 -0.893204 
-0.319258 0.512000 -0.126579 -0.544197 0.064743 -0.829680 
-0.603459 -0.383387 0.302586 -0.742432 0.042789 -0.596729 
0.682128 0.678185 1.161872 -0.666300 -0.560356 0.457011 
-0.062491 0.007776 -0.233559 -0.447674 -0.066323 -0.874527 
1.159616 -0.230449 1.459146 -0.895370 -0.313800 -0.163446 
0.702144 0.658221 1.013325 0.925400 0.343864 -0.115420 
0.834608 0.306382 0.789810 0.885592 0.350585 -0.290207 
0.265870 -1.014646 0.053253 -0.286066 -0.128350 0.939569 
-0.586634 -0.457114 0.276547 0.362289 -0.176734 0.824097 
0.090952 0.071612 -0.227155 0.483267 -0.026870 -0.866436 
1.019280 -0.748155 0.632593 0.536147 0.559923 -0.560971 
-0.888386 0.930121 1.995421 0.851248 -0.423966 0.232763 
-0.257283 0.988645 0.126264 -0.820843 0.384487 -0.323513 
-0.036432 -0.264355 -0.213440 -0.341827 -0.237469 -0.891284 
-0.322071 -0.569209 0.132650 -0.235566 -0.206298 0.918019 
-0.679051 1.221850 1.333671 -0.937545 0.215665 -0.112333 
-0.300778 0.685049 -0.117980 -0.572940 0.311139 -0.745127 
-0.899502 0.861768 1.955429 0.875503 -0.355555 0.286133 
0.008754 1.240844 0.067458 0.563673 0.269244 -0.748973 
0.230422 1.210790 0.533457 0.779492 -0.393123 -0.475890 
0.279862 0.525187 0.371466 0.308519 -0.028124 0.918303 
-0.669839 0.943546 1.147281 0.701174 -0.548029 0.450896 
-0.669090 0.372947 0.542175 0.537892 -0.504523 0.649771 
-1.348557 0.144807 2.431646 -0.892730 0.428816 -0.130211 
-1.131400 -0.623460 0.847816 -0.713190 0.381832 -0.493766 
-0.893421 -0.492747 0.642256 0.650731 -0.241871 0.610490 
-0.449097 0.226683 0.313569 -0.022341 -0.315246 0.845735 
-0.274374 -0.520487 -0.090145 -0.518521 -0.177679 -0.833103 
-0.873330 0.528963 1.070466 -0.936483 0.278323 -0.151280 
-1.269921 -0.132700 1.795064 0.882930 -0.382115 0.122718 
0.619787 0.607086 0.883727 -0.923078 -0.272707 0.200266 
-1.065032 0.432775 1.856938 -0.898289 0.432372 -0.033018 
-0.951072 0.142143 0.740194 0.764588 -0.344884 0.493445 
-1.106550 0.218435 1.763460 0.889763 -0.438242 -0.058080 
0.959663 0.975849 2.013132 -0.699601 -0.500082 0.469145 
0.109400 1.001376 -0.019230 0.509953 0.455104 -0.712362 
0.429042 -0.348657 0.102959 0.797749 -0.047887 -0.576271 
0.937854 -0.255017 0.749769 -0.702466 -0.339559 0.538289 
0.086062 1.205956 0.385392 -0.091234 0.738476 0.629875 
0.725567 -0.102236 0.498857 -0.524552 -0.284479 0.692944 
-0.141408 1.114813 0.287017 -0.755139 -0.026576 0.616437 
-0.966705 -0.344840 0.716277 -0.774385 0.199057 -0.509211 
0.147127 -0.823449 0.098757 -0.075192 -0.314160 0.893629 
1.185398 -0.192659 1.269730 -0.836044 -0.451102 -0.068275 
1.019073 0.549068 1.745674 -0.872117 -0.450914 0.122556 
0.150815 0.569707 0.459018 0.326984 0.010097 0.943717 
0.774750 -0.578865 0.522381 0.640848 0.190472 -0.628189 
0.657759 1.267692 1.847624 -0.611726 -0.444882 0.622051 
1.314614 1.007688 2.787797 0.880042 0.381550 -0.280911 
1.096504 -0.524406 0.829776 0.685172 0.373133 -0.490077 
-0.234964 0.352779 -0.143646 -0.468197 -0.004934 -0.878785 
0.176768 -0.174537 -0.171575 0.502574 -0.118250 -0.846966 
0.890521 1.333887 2.213295 0.800454 0.474524 -0.360530 
0.816613 -0.453150 0.583956 0.683211 0.211050 -0.590428 
0.419423 -0.242259 0.064153 0.805587 -0.048098 -0.577348 
1.036477 0.299381 1.526128 0.910569 0.301563 -0.269408 
-0.677484 0.098519 0.303205 -0.810314 0.112706 -0.543589 
1.278735 1.034892 2.698110 0.873579 0.386512 -0.295052 
1.032061 1.047804 2.215283 -0.752046 -0.367244 0.518916 
-0.932631 0.230149 0.707874 -0.858802 0.282130 -0.408955 
0.199045 -0.409714 -0.133555 0.437046 -0.252858 -0.848629 
-1.116625 1.044855 2.938047 0.908551 -0.330235 0.246470 
1.045234 0.871474 2.030831 0.773223 0.398549 -0.483344 
0.496373 -0.036109 0.222234 -0.337998 -0.277961 0.861403 
-1.109765 1.186618 3.027146 -0.803580 0.553747 -0.139878 
1.085164 -0.088764 1.015684 -0.817468 -0.402285 0.262010 
0.435141 -0.749134 0.148173 0.583101 -0.006382 -0.761381 
0.154471 0.046921 -0.190447 0.494392 -0.056225 -0.858978 
0.078826 -0.848921 0.072615 0.059693 -0.384990 0.878128 
0.599024 1.006163 1.483812 -0.603854 -0.610679 0.461835 
0.518586 1.243022 1.449149 0.370240 0.612739 -0.499651 
-0.638820 -0.529289 0.350895 0.484714 -0.184027 0.759323 
-0.524159 -0.304916 0.204898 -0.795287 -0.007385 -0.563899 
-0.269582 -0.191918 -0.118723 -0.517238 -0.156076 -0.837332 
0.155867 -0.559664 0.199998 0.198029 -0.314011 0.925612 
-0.888832 -0.200576 0.646979 0.720137 -0.256918 0.553269 
-0.693943 0.485777 0.477473 -0.803889 0.414166 -0.372111 
1.063619 -0.037111 1.545502 -0.932162 -0.210461 0.017869 
0.360957 -0.179322 0.223892 0.364751 -0.213821 0.868334 
0.660532 0.240866 0.502813 -0.593572 -0.402074 0.661443 
0.583959 -0.528591 0.304604 -0.409005 -0.191580 0.812434 
0.462865 -0.553183 0.120884 -0.232143 -0.146899 0.938550 
0.148307 -0.711515 -0.035662 0.039756 -0.172129 -0.979882 
0.541824 0.573936 0.483746 0.580904 0.754208 -0.195895 
1.564773 0.253596 2.735816 0.895753 0.214042 -0.380875 
-1.044687 0.203836 1.463511 0.896631 -0.397606 0.098687 
-1.083347 0.107977 1.131521 -0.891901 0.323671 -0.205879 
0.093527 1.274310 0.143475 0.691203 0.482783 -0.465426 
1.319412 0.090781 2.251126 -0.863345 -0.069537 0.468497 
-1.099557 0.095597 1.355289 -0.898186 0.368301 -0.051270 
-0.231560 -0.727418 -0.032208 0.006344 -0.202288 -0.968050 
0.466378 0.629009 0.294577 0.707008 0.656006 -0.135950 
0.893537 0.109570 0.786510 -0.757957 -0.402049 0.484774 
-0.747185 0.324127 0.608677 0.598552 -0.477711 0.599736 
1.192439 -0.188370 1.937090 0.913700 0.019807 -0.326441 
1.525639 0.232429 2.660950 0.898719 0.186203 -0.387359 
-0.901431 0.404223 0.844441 -0.899110 0.291858 -0.279868 
-0.360011 -0.131322 0.241087 -0.397361 -0.220113 0.866049 
0.756713 -0.490565 0.521767 0.666545 0.177777 -0.620690 
-1.062559 0.636937 2.357954 0.872242 -0.475213 0.019868 
-0.297911 -1.242067 0.051227 -0.603975 0.156303 0.725864 
-1.073165 1.115636 2.851270 0.910121 -0.332069 0.240164 
-0.872503 0.608908 1.360168 -0.943342 0.279211 -0.104023 
0.545034 0.769140 0.880118 -0.898329 -0.375826 0.168559 
-0.612468 -0.949755 0.249621 0.408458 -0.308165 0.798104 
-0.310088 0.109255 0.335273 -0.372611 -0.222325 0.897539 
-0.398606 -0.027258 -0.032546 -0.682256 -0.041616 -0.701890 
-1.031787 0.888597 2.462918 -0.941185 0.257046 -0.212414 
-0.731826 1.025198 1.641945 0.787161 -0.395847 0.374238 
-0.650303 0.543996 0.431215 -0.794395 0.512654 -0.298113 
-0.988278 1.015872 2.365965 -0.943999 0.234681 -0.228115 
-0.705455 1.139391 1.379405 -0.984391 0.090217 -0.023372 
0.845270 0.393737 0.998744 0.895162 0.327769 -0.246318 
0.358539 0.353594 -0.085143 0.566057 -0.027183 -0.813916 
0.608500 0.478558 0.354272 0.839348 0.379698 -0.316440 
0.546892 0.960731 1.261608 -0.628979 -0.602154 0.460043 
-0.891291 0.300452 0.708315 -0.855831 0.310927 -0.396007 
-0.865474 1.353243 2.288646 -0.798174 0.545004 -0.144354 
-1.220483 -0.465878 1.003418 0.781519 -0.315207 0.459668 
0.600621 1.346267 1.840529 -0.750885 -0.394167 0.525869 
-0.726442 0.574752 0.735486 -0.444438 0.720241 -0.511443 
0.706653 0.684275 1.084274 0.931453 0.341108 -0.103948 
-0.521018 -0.902968 0.231952 -0.557176 0.013393 -0.778977 
-1.145869 0.813220 2.809407 0.929576 -0.215732 0.290036 
-1.091846 0.110637 1.445790 -0.904479 0.377103 -0.011959 
0.793894 1.171985 1.873333 0.822433 0.374102 -0.417484 
1.128070 0.478276 1.884397 0.925716 0.301899 -0.158188 
1.489745 0.864462 3.273414 0.900251 0.379401 -0.210832 
-0.342673 0.313852 0.331748 -0.274602 -0.110436 0.944161 
-0.731443 -0.762393 0.454810 0.523534 -0.191465 0.737180 
-0.284067 -0.491432 0.183477 -0.416233 -0.245641 0.868604 
1.389996 1.031614 3.137798 0.892758 0.384810 -0.230537 
1.125907 -0.177340 1.752343 -0.963886 -0.097589 -0.006080 
1.447613 0.452401 2.588757 -0.885635 -0.317904 0.301337 
-1.193372 -0.179972 1.394807 -0.906266 0.352929 0.163103 
-0.216010 -0.610863 0.163061 -0.285130 -0.286611 0.907262 
-0.217960 0.004912 0.354831 -0.338548 -0.247301 0.899004 
-0.734309 0.818135 1.006152 -0.968862 0.237175 -0.046145 
0.801763 0.877634 1.703992 -0.718823 -0.486332 0.366147 
-0.461030 -0.432284 0.138667 -0.746204 -0.032356 -0.618686 
0.290864 0.947972 0.239403 0.924680 0.326586 0.065861 
-0.323626 -0.153092 -0.085649 -0.572709 -0.122933 -0.791881 
0.984752 0.182228 1.081288 0.875597 0.310602 -0.349680 
-0.093467 1.118519 0.449101 0.269909 0.263895 0.915705 
0.348855 0.557020 -0.089934 0.590510 0.149343 -0.750264 
-0.262551 -1.184436 0.006586 -0.047450 -0.005247 -0.972597 
1.299457 0.795553 2.469965 -0.845641 -0.224487 0.475501 
-1.069687 0.603720 2.278673 0.874198 -0.456322 0.091278 
-1.197799 -0.183456 0.970703 -0.864251 0.285740 -0.392053 
-0.982386 1.103602 2.402846 -0.945329 0.214574 -0.243627 
-0.590795 0.427008 0.566476 0.647232 -0.462618 0.591051 
-0.701948 -0.625141 0.426915 0.545753 -0.192527 0.722450 
1.458725 0.376489 2.585927 -0.888661 -0.270953 0.333678 
0.587882 -1.002665 0.173329 0.408564 0.357187 -0.776857 
-0.237349 -1.092898 0.045786 0.353378 -0.139094 0.908782 
-0.341934 0.738945 0.040093 -0.811131 0.455197 -0.276186 
0.351673 0.768077 0.164431 0.924128 0.335243 -0.018716 
1.156687 0.236595 1.910875 -0.717255 -0.020902 0.664123 
-0.311500 0.529677 0.358620 -0.394680 -0.018210 0.868199 
1.129702 1.090952 2.386623 0.813517 0.453427 -0.357267 
-0.365274 0.606621 0.275497 -0.482043 0.336493 0.722066 
-0.096265 1.241108 0.116093 -0.628032 0.461084 -0.580745 
-0.882656 0.846909 1.888098 0.857344 -0.343580 0.344814 
0.438146 -0.932425 0.146846 0.502986 0.007350 -0.822156 
-1.358928 -0.311941 1.824446 0.877531 -0.355980 0.229731 
-0.213374 -0.377941 0.243208 -0.299621 -0.258958 0.900295 
0.193824 0.208471 -0.172679 0.497730 -0.031427 -0.862164 
-1.058207 0.133420 0.854089 -0.886454 0.269091 -0.367081 
1.417265 0.699284 2.721422 0.877225 0.427290 -0.198586 
-0.634949 -0.305098 0.334727 -0.774001 0.054081 -0.563110 
-0.128759 1.156256 0.064182 -0.522598 0.436157 -0.727911 
0.553793 -0.311027 0.266745 0.786126 0.032575 -0.564643 
-0.833484 0.366759 0.783187 0.683138 -0.519484 0.496536 
-0.812729 0.002438 0.558470 0.588478 -0.292002 0.626565 
0.367352 -0.020831 0.259181 0.320692 -0.200280 0.896219 
0.666947 0.511367 0.871028 -0.667871 -0.578435 0.465254 
1.244879 0.389778 2.105198 0.920628 0.196629 -0.295142 
-1.020392 0.237659 1.145440 -0.902386 0.310538 -0.266341 
0.606030 0.878409 1.282135 -0.611418 -0.609211 0.476469 
-0.327510 -0.214079 0.243314 -0.489622 -0.243587 0.831041 
-0.027674 -0.156023 -0.228372 -0.364562 -0.178977 -0.890748 
-0.805787 0.932786 1.552568 -0.936668 0.142910 -0.169971 
0.289160 -0.597088 0.149368 0.355991 -0.233280 0.895637 
1.098864 0.306792 1.721757 0.859076 0.135464 -0.435272 
-0.811891 -0.764475 0.540176 0.552452 -0.216198 0.700441 
0.172441 -0.288434 0.283707 0.223727 -0.256591 0.930472 
-1.249783 -0.261834 1.617292 0.907712 -0.325503 -0.021242 
-0.323581 0.602080 -0.123277 -0.575857 0.178454 -0.788941 
0.226835 0.569196 0.409632 0.371572 -0.007536 0.899428 
-1.133898 0.954514 2.893084 -0.938534 0.202472 -0.277930 
0.660004 1.130914 1.644944 0.927549 0.239373 -0.174280 
-1.175529 1.115672 3.166654 0.919293 -0.073537 0.348550 
0.332828 0.626113 -0.106747 0.582970 0.221888 -0.760666 
-0.857597 1.292877 2.239750 0.874899 -0.300520 0.344909 
0.425584 0.077760 -0.013567 0.718737 -0.029971 -0.668907 
0.335992 -0.961798 0.034900 0.495091 -0.053265 -0.854969 
-0.029466 -0.407172 -0.188773 -0.247772 -0.350868 -0.900253 
1.089596 0.129420 1.435298 0.888387 0.344555 -0.145078 
0.522628 0.897569 1.025082 -0.890458 -0.289347 0.082336 
0.825648 0.323951 0.936082 -0.729179 -0.467625 0.473533 
-0.516849 0.138603 0.081152 -0.777801 0.057374 -0.612187 
0.481205 0.474980 0.487051 -0.863633 -0.128192 0.449508 
0.683929 0.969221 1.602733 -0.654225 -0.597044 0.375265 
1.043398 0.659091 1.770091 0.844686 0.362841 -0.365130 
0.496206 0.208824 0.051903 0.791909 0.035547 -0.604204 
-1.010233 0.411568 1.668502 -0.851959 0.287760 -0.389958 
-0.583712 -0.990780 0.191660 -0.454238 0.310070 -0.767149 
0.523261 0.664076 0.631754 0.699667 0.617983 -0.294850 
0.116127 -0.425401 -0.150498 0.306979 -0.330441 -0.876939 
-0.709458 0.409147 0.468805 -0.812921 0.288997 -0.459383 
0.541959 0.580139 0.305318 0.740627 0.583119 -0.247220 
-1.101679 0.134795 1.660157 0.901753 -0.401741 -0.078194 
-0.643787 1.260724 1.541633 0.715982 -0.502672 0.394115 
-0.921062 1.099355 2.209993 -0.951655 0.223189 -0.180774 
-1.236286 -0.189050 1.335397 0.876367 -0.422469 -0.162096 
-0.347486 -0.921363 0.090140 0.160328 -0.128105 0.935364 
-1.157594 0.102913 1.746998 -0.833239 0.280033 -0.375116 
0.583009 0.551004 0.384706 0.693075 0.614000 -0.286580 
1.245089 -0.454507 0.979870 0.719446 0.456283 -0.418832 
-0.468422 0.159982 0.280777 0.089685 -0.318932 0.853275 
0.493151 -1.104167 0.119835 0.390457 0.238096 -0.811889 
-1.148292 0.408782 2.123713 0.821932 -0.381816 0.318857 
-1.101073 0.291225 1.794121 -0.798578 0.265524 -0.532182 
-0.606203 1.148265 1.158539 0.831051 0.019541 -0.064945 
-0.076419 1.196604 0.398822 0.171777 0.689917 0.681021 
-0.299587 -0.334730 -0.081009 -0.606849 -0.158072 -0.758443 
-0.771136 0.653694 0.868222 -0.915892 0.309470 -0.178805 
0.574900 0.752209 0.955897 -0.953932 -0.289931 0.050492 
0.773641 0.442353 0.842121 0.901342 0.353218 -0.222706 
1.018252 0.384976 1.606840 -0.890094 -0.362955 0.252947 
0.810664 0.404654 0.895618 0.894537 0.338963 -0.241687 
0.079360 -0.471817 0.241478 0.097954 -0.250658 0.957927 
0.061841 0.960753 -0.061549 0.442880 0.492366 -0.732354 
-0.936311 -0.107746 0.675857 -0.811106 0.205674 -0.476627 
0.682195 0.556172 0.940956 -0.660273 -0.577692 0.470261 
-0.509888 0.276872 0.307961 0.259538 -0.390604 0.814508 
0.948718 0.201848 0.986688 0.873152 0.316160 -0.341307 
-1.100868 1.049783 2.866639 -0.940536 0.193338 -0.277876 
-1.163010 0.469432 2.405794 -0.913342 0.263974 -0.265732 
-1.011423 0.157728 0.775797 -0.871480 0.275592 -0.396954 
0.766964 0.265504 0.721889 -0.696195 -0.494616 0.483698 
-1.175887 -0.491471 0.953438 0.758345 -0.304002 0.484681 
-0.364469 0.425129 -0.094284 -0.575352 0.022873 -0.808433 
0.507385 -0.153685 0.167305 0.809381 0.009491 -0.561294 
-0.585455 0.497278 0.574974 0.861548 -0.189252 0.429167 
-0.864716 0.560701 1.221489 -0.942065 0.301318 -0.108942 
0.625401 0.161180 0.252055 0.805562 0.104261 -0.561190 
-1.067392 0.563333 2.047379 -0.888461 0.429567 -0.137756 
0.790125 0.622261 1.389126 -0.738945 -0.484695 0.395107 
0.231095 0.135090 -0.149483 0.505442 -0.062967 -0.855188 
-0.953669 0.766600 2.028883 0.901412 -0.334853 0.259855 
0.501019 0.381195 0.065958 0.797805 0.159010 -0.521813 
-0.247016 -0.874865 0.071516 0.186946 -0.219466 0.880647 
1.362632 1.044945 3.066156 -0.849295 -0.478663 0.197480 
0.304402 -0.441978 -0.055626 0.644723 -0.146022 -0.722816 
-0.349394 -0.494436 0.127368 -0.203708 -0.200054 0.922201 
1.546315 0.322456 2.724218 -0.890722 -0.278022 0.343394 
-1.220394 1.057254 3.241817 0.910201 -0.277071 0.293183 
0.621021 0.522116 0.512381 0.600580 0.694485 -0.307508 
0.958182 0.619101 1.649913 0.797188 0.234621 -0.484976 
-1.079561 0.426704 1.945369 0.725960 -0.294067 0.545344 
-0.849767 1.210337 2.061092 -0.960451 0.203621 -0.134734 
1.252821 -0.247162 1.156002 -0.791742 -0.488933 0.170765 
-1.252526 -0.229942 1.277257 0.871343 -0.417666 -0.158177 
0.158486 0.656224 0.438926 0.197977 0.235508 0.927813 
-0.264711 0.287681 -0.136308 -0.488801 -0.035522 -0.869941 
0.727540 -0.654505 0.463462 -0.511285 -0.254915 0.717073 
-0.745030 1.160985 1.577543 -0.930976 0.171933 -0.022838 
0.729796 0.497413 0.968732 -0.680428 -0.532705 0.481851 
-0.069468 1.330950 0.182849 -0.645037 0.654934 -0.019714 
0.603406 0.397443 0.311958 0.826955 0.255971 -0.417623 
-0.156632 1.181394 0.125656 -0.682492 0.525912 -0.424212 
1.260722 1.019770 2.624079 0.865519 0.400947 -0.295738 
-0.507427 -0.038194 0.118558 -0.793789 0.021737 -0.586221 
0.157384 1.110566 0.389675 0.878247 0.190895 -0.155243 
0.628723 0.916653 1.417055 -0.625534 -0.591927 0.455949 
0.435665 0.248277 0.319988 -0.068247 -0.299727 0.835475 
0.922260 -0.683504 0.633142 -0.533340 -0.349605 0.635783 
-0.480155 0.613575 0.350372 -0.565479 0.763023 -0.191213 
1.138071 0.650581 2.028337 -0.801133 -0.259323 0.516220 
-0.775483 0.050140 0.445407 -0.832539 0.142136 -0.497733 
0.712810 0.593507 1.101012 -0.682989 -0.540776 0.457586 
1.359900 0.576235 2.460756 0.838382 0.071279 -0.529316 
-0.934758 0.346443 1.077538 0.825217 -0.393851 0.365053 
-0.825981 0.333063 0.621394 -0.842199 0.294818 -0.422288 
1.037996 0.170145 1.576150 -0.921241 -0.259447 0.167201 
0.770378 1.368794 2.096537 -0.806046 -0.150822 0.490423 
-0.980694 -0.713883 0.677883 -0.653874 0.335526 -0.567430 
1.221783 1.234958 2.797931 0.872633 0.394957 -0.283315 
-0.112413 -0.967961 -0.070419 -0.231350 0.081702 -0.953160 
-0.091819 -0.651012 -0.048765 -0.027455 -0.182447 -0.974358 
0.324881 -0.583551 -0.015011 0.652247 -0.104046 -0.717860 
0.700576 -0.081083 0.427232 0.823258 0.125086 -0.512703 
0.010605 -0.749476 -0.055230 0.493212 -0.048956 -0.824898 
0.724983 0.867173 1.493058 0.945387 0.240572 -0.199011 
1.207665 -0.185750 1.409296 0.860423 0.421407 0.173666 
0.328660 -0.246112 0.234456 0.500908 -0.240624 0.826137 
1.227347 0.338290 2.042025 0.940903 0.187413 -0.236926 
-1.163042 -0.101166 1.413344 0.900783 -0.374819 -0.104396 
-0.961010 -0.173360 0.727395 0.754184 -0.274272 0.515667 
-1.252817 0.906372 3.213979 -0.928794 0.208781 -0.304676 
-1.233904 0.673617 2.983211 0.925084 -0.211800 0.307492 
-1.099981 0.808348 2.662723 0.926318 -0.176535 0.314757 
1.349616 0.164237 2.319667 -0.867058 -0.084253 0.467082 
0.175417 -0.623418 0.172039 0.237834 -0.325887 0.911870 
-1.219094 0.937665 3.153440 0.910246 -0.294469 0.278754 
0.252421 0.030868 0.342486 0.362597 -0.234761 0.894711 
0.171693 0.279865 -0.187235 0.492592 -0.005938 -0.867535 
0.441103 1.430561 1.597271 0.601034 0.681115 -0.191689 
-1.013238 0.044960 0.788052 0.801140 -0.297789 0.460356 
-0.863171 1.010107 1.996218 0.820568 -0.487931 0.204532 
-0.298098 0.929542 0.168515 -0.917301 0.360133 -0.139130 
0.561753 0.379445 0.207214 0.814059 0.200080 -0.472935 
0.637290 0.993800 1.421521 0.952089 0.238011 -0.165756 
-0.383902 -0.425599 0.125638 -0.167224 -0.192411 0.913592 
0.348744 0.683508 -0.056940 0.612247 0.413318 -0.582380 
1.330613 1.019758 2.862058 0.884994 0.378576 -0.269192 
-0.328369 -0.385787 -0.022812 -0.749140 -0.119513 -0.635693 
-0.646654 1.418882 1.482329 -0.463024 0.573226 -0.541074 
0.366913 0.549989 0.280508 0.230024 0.260406 0.833558 
-0.712892 0.723654 0.965748 0.700881 -0.524423 0.480044 
0.058623 0.118552 0.426198 0.154934 -0.238607 0.952340 
1.080434 0.046939 1.641832 0.913214 0.108615 -0.170849 
-0.030157 1.078128 0.467367 0.009013 0.236282 0.936155 
-1.115413 -0.069488 1.458285 -0.929570 0.309012 0.068323 
0.696416 -0.713698 0.421074 -0.482964 -0.242391 0.743547 
1.081819 -0.058865 1.645133 -0.965301 -0.147621 -0.073308 
-1.242468 0.062941 1.941512 0.753433 -0.312277 0.505540 
-0.106813 -0.263946 0.301786 -0.131075 -0.263208 0.954098 
0.976945 0.822343 1.869177 0.819808 0.440739 -0.298618 
1.054440 -0.474306 0.799997 0.697029 0.347715 -0.498587 
-1.055274 0.293825 1.697142 0.893085 -0.433043 0.008150 
-0.981162 -0.269520 0.730512 -0.791604 0.209365 -0.490307 
-0.933611 0.426662 1.282351 -0.926684 0.320530 -0.156949 
-0.880087 1.141432 2.110931 -0.956274 0.218560 -0.148897 
1.105840 0.015366 1.501755 -0.893099 -0.333274 0.034492 
-0.469678 -0.233496 0.124006 -0.806598 -0.028281 -0.568071 
1.114129 0.962171 2.209941 0.799413 0.370174 -0.466296 
-0.667902 -0.042849 0.330428 -0.822735 0.083412 -0.523615 
-1.217074 0.104626 1.888661 -0.891066 0.406470 -0.141182 
-1.189431 -0.069924 1.668339 0.901601 -0.369155 -0.044141 
0.532428 0.844449 0.970644 -0.899528 -0.342940 0.129429 
-1.092223 0.909220 2.711388 0.933102 -0.223934 0.274639 
1.452139 0.989703 3.358254 -0.887104 -0.405871 0.210013 
1.045147 0.959787 2.134226 -0.743209 -0.485581 0.436587 
-0.403460 -0.562332 0.090859 0.066014 -0.152338 0.959992 
1.367626 -0.467509 1.077971 -0.692530 -0.580021 0.384795 
-1.034870 -0.114552 0.810721 0.796563 -0.293732 0.470909 
-0.904575 1.256893 2.291752 -0.947088 0.238345 -0.183316 
1.056444 0.483504 1.783333 -0.900258 -0.396474 0.083343 
-1.031031 0.238639 1.387997 -0.908148 0.354412 -0.156183 
-0.675945 0.374035 0.383807 -0.807014 0.231158 -0.502884 
0.972251 0.907289 1.964388 -0.722062 -0.456148 0.492773 
-0.459251 0.527884 0.077514 -0.705138 0.368109 -0.461490 
-0.939551 1.039381 2.304869 0.886097 -0.238446 0.361521 
0.128469 -0.098693 -0.198283 0.481812 -0.094044 -0.857886 
0.354007 -0.279892 -0.019704 0.756317 -0.097039 -0.628561 
-0.860008 1.227513 2.206602 0.859528 -0.297796 0.376558 
0.700709 -0.167629 0.450470 0.825161 0.118079 -0.505220 
0.006367 0.069912 0.419581 0.094324 -0.271331 0.957168 
-1.210120 -0.149052 1.267823 0.873186 -0.406640 -0.079659 
-0.819709 1.160468 2.014127 0.841140 -0.265794 0.434099 
1.159895 -0.155423 1.455726 -0.882686 -0.356626 -0.111000 
0.044520 -0.090635 -0.229457 0.401504 -0.132238 -0.882835 
1.580499 0.390083 2.898551 -0.895267 -0.290217 0.327394 
0.607969 0.838451 1.218297 -0.613617 -0.608933 0.481210 
-0.050692 0.233780 -0.254746 -0.467298 0.026273 -0.880975 
-1.308778 -0.313901 1.279766 0.867882 -0.407392 -0.048865 
-0.659993 -0.710829 0.377833 0.508948 -0.178600 0.758479 
0.735662 1.124766 1.803262 -0.559448 -0.605541 0.508591 
0.391843 -1.179142 0.087799 0.400005 0.053167 -0.844773 
1.152432 -0.317870 1.809909 0.953418 0.026103 -0.100985 
0.397222 0.298593 -0.048378 0.623169 -0.021072 -0.760143 
0.384063 0.514944 0.358241 -0.748273 -0.085607 0.550650 
-0.818436 0.955188 1.636215 -0.890886 0.185160 -0.225570 
0.833810 1.072395 1.881123 0.853534 0.233976 -0.406007 
0.524597 -0.768913 0.245930 -0.418975 -0.163261 0.838307 
0.223465 1.088616 0.512134 0.049904 -0.485692 0.733757 
0.094885 0.010691 0.391314 0.183690 -0.259856 0.944168 
0.979087 1.297557 2.326029 0.812074 0.456302 -0.355272 
0.857526 -0.206445 0.682992 -0.695656 -0.300013 0.569510 
0.445163 -0.488792 0.084679 -0.177496 -0.142279 0.967694 
-1.065903 1.226548 2.927119 -0.796815 0.583951 -0.120547 
0.220868 1.031071 0.389829 0.500495 0.801674 0.019205 
-0.802491 0.221605 0.452562 -0.823260 0.192299 -0.505124 
-0.159227 -0.627681 -0.052209 -0.086635 -0.222884 -0.968421 
1.268858 -0.016187 2.136923 -0.852003 -0.044864 0.478075 
-1.169114 0.439571 2.545428 0.875400 -0.467590 0.010436 
0.752301 -0.727872 0.474519 0.592962 0.181630 -0.662050 
0.343715 0.232883 -0.085497 0.545672 -0.064764 -0.826770 
-0.971252 1.292661 2.615101 0.941944 0.015160 0.324224 
0.292663 0.383457 -0.120102 0.510351 -0.015735 -0.855295 
-0.431578 0.551348 0.423164 0.829590 -0.212038 0.483342 
-0.543216 0.382917 0.412566 0.540770 -0.439859 0.694832 
1.308594 0.966387 2.707924 0.874833 0.389380 -0.284176 
-0.547529 0.468491 0.183320 -0.768772 0.354186 -0.433028 
-0.816056 1.059244 1.835740 -0.941764 0.113267 -0.195924 
0.429381 -0.687614 0.087634 -0.237291 -0.130957 0.953321 
0.485403 -0.437170 0.139755 -0.217867 -0.158347 0.932629 
1.100653 -0.114734 1.687000 -0.971184 -0.121073 -0.088563 
-0.691973 1.177072 1.270365 -0.853120 0.409738 -0.272949 
-0.357020 0.710800 0.226257 -0.952780 0.198220 0.194208 
0.499661 0.602843 0.431073 0.603917 0.750146 -0.147197 
-1.007957 0.745204 2.182098 0.895188 -0.416768 0.146295 
-1.000458 0.781988 2.262428 0.893695 -0.436630 0.073641 
1.055935 -0.123158 1.557895 0.959558 0.120900 0.035194 
-1.121034 0.704186 2.653159 0.920140 -0.137995 0.349760 
1.382939 -0.346952 1.151325 0.769272 0.533102 -0.300353 
-0.061479 1.263024 0.320182 -0.170328 0.803885 0.558720 
-0.644106 -0.886395 0.327705 -0.554394 0.158701 -0.727636 
-0.871418 0.476734 1.154602 0.805260 -0.435071 0.354384 
-0.102746 0.175724 -0.223735 -0.476665 -0.006391 -0.873502 
0.372563 -0.335775 0.021881 0.805672 -0.082914 -0.580834 
-1.078189 -0.342981 0.850792 0.757392 -0.290697 0.497988 
1.374266 0.849108 2.781421 -0.870879 -0.356983 0.317015 
0.674161 -0.489833 0.438644 -0.532090 -0.225437 0.721711 
-0.946657 0.356630 1.266777 0.854225 -0.399079 0.284390 
0.092856 0.607964 -0.183366 0.356025 0.151676 -0.907948 
1.231972 -0.232961 2.049078 -0.888223 -0.027217 0.422478 
1.240069 -0.249905 1.228138 -0.811474 -0.481820 0.017505 
-0.819677 -0.458011 0.562189 0.631176 -0.227577 0.636223 
-0.847252 0.743845 1.724551 0.865375 -0.414176 0.112723 
-1.262444 0.625916 3.035738 -0.928841 0.240946 -0.268755 
-0.096246 -0.186969 -0.200200 -0.425068 -0.162396 -0.869715 
0.097966 1.296617 0.255150 0.612470 0.709735 0.286339 
0.936009 0.096301 0.852775 -0.788630 -0.404567 0.450396 
0.603024 -0.342981 0.308538 -0.359883 -0.203723 0.821203 
-1.334685 0.149001 2.628107 0.900272 -0.403436 0.143515 
0.697982 0.899361 1.571378 -0.669519 -0.558112 0.401278 
0.942125 0.365648 1.304590 0.907014 0.312040 -0.255921 
0.385803 -0.264837 0.176263 0.215349 -0.194343 0.898715 
-0.046908 0.523713 0.471480 -0.123212 0.026042 0.981373 
0.832827 0.187996 0.759358 -0.729515 -0.450422 0.480091 
0.847106 0.975202 1.807774 0.849598 0.333411 -0.321401 
-1.080920 0.377204 1.798888 -0.869316 0.332943 -0.341689 
0.707637 -0.266672 0.459681 -0.489353 -0.243870 0.720924 
-1.082474 0.571753 2.209530 0.878569 -0.437020 0.155871 
-0.339240 -1.410282 0.037586 -0.744729 -0.272743 0.102523 
1.226578 0.552425 2.114571 0.889719 0.249943 -0.357965 
-0.371244 0.532710 0.293204 -0.158924 0.151515 0.766921 
-1.037743 1.139305 2.731768 0.916765 -0.307047 0.248527 
1.463046 0.814388 3.051502 0.898700 0.365998 -0.240088 
-0.656826 0.985021 1.047932 -0.407845 0.582770 -0.639897 
0.251209 0.997801 0.121256 0.807155 0.387800 -0.347123 
-0.290487 0.439333 -0.130344 -0.509789 0.017246 -0.855839 
0.271456 -0.052493 0.312036 0.401337 -0.237306 0.874999 
0.994323 0.746697 1.821131 0.848119 0.470826 -0.177027 
1.257170 0.943826 2.534760 -0.841737 -0.334310 0.400951 
1.126572 0.327775 1.795177 0.831401 0.074311 -0.526414 
0.409944 -0.103571 0.012468 0.798440 -0.041068 -0.595286 
-0.040780 -0.006403 0.391732 -0.116379 -0.268249 0.954782 
0.124151 0.231164 -0.212821 0.485615 -0.000295 -0.870151 
-0.356893 0.156311 -0.076519 -0.559093 -0.057501 -0.809959 
-1.163818 0.611506 2.705676 -0.929566 0.312084 -0.160277 
-0.561684 0.173739 0.130090 -0.782248 0.081194 -0.600795 
0.567046 0.555303 0.553282 0.533113 0.793070 -0.214131 
-0.390390 -0.664067 0.069979 -0.648419 -0.053259 -0.718041 
-1.146726 -0.573898 0.905345 -0.764468 0.285888 -0.480356 
-0.700689 0.641475 0.888951 0.706789 -0.505589 0.472848 
1.160736 -0.182152 1.853301 -0.954097 -0.093366 0.104901 
-0.352730 -0.067972 -0.069773 -0.599545 -0.088599 -0.771125 
-1.263473 0.836459 3.197081 -0.928625 0.211397 -0.303631 
-1.281597 -0.263067 1.204795 -0.874650 0.365222 -0.036093 
0.854864 -0.684937 0.577158 0.614980 0.239168 -0.613759 
1.229838 1.011768 2.546340 -0.836296 -0.383252 0.375313 
-1.246866 -0.286396 1.358992 -0.896792 0.365433 0.237577 
0.132234 1.093755 0.472667 -0.169263 0.061791 0.916898 
-0.814976 0.833166 1.618681 0.820525 -0.489122 0.079674 
1.056166 1.280857 2.438914 0.801350 0.462444 -0.378443 
0.793097 0.715933 1.449142 0.936308 0.268092 -0.202583 
-0.851214 -0.527045 0.591741 -0.711419 0.148132 -0.585785 
-1.353471 0.953239 3.526809 -0.917239 0.235963 -0.318338 
-0.791824 1.258824 2.019111 0.823156 -0.313693 0.438655 
-0.672207 1.355296 1.706451 0.778452 -0.330281 0.517724 
-0.023346 -0.661474 -0.033375 -0.267583 -0.120136 -0.951295 
1.029171 0.122127 1.132095 0.871557 0.311627 -0.348462 
0.465252 1.335839 1.544984 -0.088486 0.485456 -0.850435 
-1.305661 0.984362 3.419890 0.910249 -0.259591 0.314618 
0.455234 -0.280607 0.122170 -0.192689 -0.188502 0.942564 
-1.179856 -0.096195 1.230753 0.872380 -0.394337 -0.006926 
-0.890666 0.647223 1.746778 0.888527 -0.427241 -0.030823 
-0.424317 0.663768 0.186825 -0.650194 0.728848 -0.130648 
0.145957 0.201549 0.438108 0.284181 -0.170042 0.935977 
0.669672 1.013671 1.547196 0.936664 0.210705 -0.226948 
-0.096162 -0.867362 0.056062 -0.012986 -0.388041 0.890579 
-0.733036 -0.683299 0.459212 0.543400 -0.196161 0.720429 
-1.026390 0.780233 2.334530 -0.941089 0.253571 -0.211662 
-1.198663 0.351872 2.162390 -0.889244 0.435782 -0.127476 
0.689762 0.285752 0.436048 0.838074 0.208616 -0.449194 
-0.499674 0.386912 0.042382 -0.748018 0.180603 -0.580730 
-1.009425 0.237790 0.911195 -0.899655 0.271529 -0.310136 
-0.916495 -0.638465 0.662795 0.624011 -0.238933 0.629791 
-0.177166 0.741134 0.403221 -0.291392 0.112118 0.918614 
1.301730 0.497962 2.313259 -0.876441 -0.251269 0.375689 
1.121476 1.314854 2.690362 -0.867935 -0.159011 0.438098 
-0.074002 -1.038457 -0.077330 -0.298415 0.154169 -0.941636 
-0.740517 0.232145 0.348293 -0.808152 0.161423 -0.541673 
0.085038 0.633107 0.449458 0.075381 0.226113 0.960480 
1.144454 -0.243210 1.797688 -0.958459 -0.073471 0.055174 
-1.376636 -0.184507 2.012315 -0.876919 0.378871 -0.275567 
0.655873 0.471222 0.463003 0.850203 0.402077 -0.286801 
-0.635954 1.059015 1.145543 0.891473 0.046430 -0.137336 
-1.059226 0.714027 2.426474 -0.934589 0.324013 -0.131783 
-0.549860 -0.108224 0.249778 0.296022 -0.263226 0.851482 
1.098441 0.719427 1.972850 0.839960 0.403924 -0.311003 
-1.173549 0.681275 2.793658 -0.931926 0.274740 -0.207225 
0.418906 -0.015429 0.001624 0.772152 -0.032547 -0.620792 
0.201475 -1.169937 0.011926 -0.079520 -0.063015 -0.932285 
0.038010 -0.277889 -0.211497 0.339133 -0.245245 -0.891141 
-1.097247 0.570287 2.453176 0.860299 -0.505560 -0.046481 
-1.272955 -0.341704 1.065372 0.831691 -0.333559 0.411159 
-0.713387 0.112236 0.465187 0.522675 -0.342660 0.689621 
0.016763 -0.381403 0.264832 -0.057374 -0.180193 0.978206 
-0.155177 -0.709646 -0.036394 -0.044689 -0.173733 -0.979407 
0.717838 0.579644 0.839093 0.831247 0.454602 -0.270278 
-1.148840 -0.352419 0.920273 -0.821250 0.257282 -0.440791 
-0.226049 0.987380 0.060180 -0.702666 0.395285 -0.541260 
0.951152 0.289864 1.180010 0.892450 0.312920 -0.295111 
-0.890794 1.325360 2.367933 0.926410 -0.043870 0.306168 
-0.751883 0.371961 0.524900 -0.826949 0.278032 -0.450974 
0.591356 0.018599 0.354686 -0.446378 -0.308138 0.774951 
1.492201 0.679154 2.962534 -0.890009 -0.333617 0.286967 
1.067366 0.125876 1.322006 0.882015 0.332510 -0.220167 
0.169151 1.147777 0.507164 -0.416222 0.100648 0.869474 
1.560638 0.460700 2.919888 -0.894412 -0.301670 0.315633 
-0.094990 1.095959 0.028427 -0.418771 0.470044 -0.761451 
-1.096224 1.131284 2.922660 -0.940467 0.179463 -0.288120 
1.099543 -0.358842 0.862703 0.736507 0.370423 -0.461236 
-0.973270 -0.096821 0.743462 0.777480 -0.281172 0.494693 
-0.137513 0.076529 0.407381 -0.242652 -0.254989 0.934501 
0.769961 1.022593 1.727009 0.892717 0.282015 -0.241641 
-0.425039 0.591675 0.051287 -0.676744 0.401600 -0.482923 
0.260670 0.814332 -0.047639 0.599595 0.514116 -0.597547 
-0.685746 0.027371 0.334073 -0.818887 0.103060 -0.528495 
-0.676659 -0.782311 0.402998 -0.619828 0.072669 -0.697948 
-1.017269 0.582237 1.997937 0.835586 -0.352739 0.359863 
1.170112 -0.098486 1.891778 -0.951748 -0.121577 0.131890 
0.096791 0.470022 0.472487 0.223770 -0.001176 0.961029 
-0.578072 0.205842 0.329501 0.416542 -0.388955 0.783607 
-0.593454 0.316126 0.163351 -0.778504 0.133000 -0.595113 
-0.565008 0.032742 0.174142 -0.796922 0.056995 -0.575912 
0.698212 0.340331 0.676346 -0.659433 -0.534096 0.494438 
0.272894 0.580593 -0.136717 0.514918 0.138067 -0.828939 
0.698880 0.749094 1.178751 0.935973 0.315008 -0.123557 
1.059380 -0.011414 1.005705 0.851209 0.339014 -0.289144 
1.011442 -0.415984 0.778015 -0.652526 -0.381483 0.539249 
1.592298 0.324225 2.855616 0.898825 0.269815 -0.337148 
-1.258443 0.419898 2.873151 0.920552 -0.220745 0.284865 
-0.166597 0.762609 -0.117643 -0.516854 0.434612 -0.697871 
0.581929 0.171442 0.186286 0.801230 0.080625 -0.575033 
-0.938142 -0.238014 0.681564 -0.785818 0.197838 -0.501194 
-0.563300 -1.072935 0.155414 0.158207 -0.366701 0.755787 
-1.038739 0.785042 2.404567 -0.937407 0.299872 -0.161516 
1.086872 -0.610333 0.801674 0.654766 0.379355 -0.508384 
0.240789 -1.441389 0.039729 -0.617941 -0.720061 0.278626 
1.110785 0.556021 1.893323 0.900905 0.352036 -0.176547 
-0.916144 0.962743 2.138210 0.893425 -0.176274 0.388186 
-0.966417 0.094947 0.683317 -0.861949 0.224620 -0.431672 
-0.113717 1.278449 0.256347 -0.624918 0.710380 0.210957 
-0.364725 -0.359713 0.168860 -0.335571 -0.219182 0.862230 
1.182155 -0.250508 0.972434 -0.746022 -0.456687 0.427664 
-0.859591 0.164911 0.523456 -0.836001 0.195654 -0.484542 
-0.415293 -0.227360 0.050920 -0.796333 -0.048359 -0.590052 
0.298088 0.241434 0.362886 0.357432 -0.143184 0.915512 
0.493050 1.121385 1.285392 0.148006 0.645913 -0.604946 
0.800820 0.148702 0.524863 0.825711 0.209207 -0.495380 
-0.596857 1.449833 1.581025 0.847614 -0.268504 0.430140 
-1.114065 -0.111434 0.875153 -0.854891 0.264105 -0.411344 
-0.508921 -0.821406 0.207420 0.422733 -0.139334 0.848944 
1.436002 0.703353 2.803608 -0.876891 -0.289707 0.351808 
-0.534317 1.731170 1.547550 0.923265 -0.019756 0.340453 
0.710414 0.046441 0.406580 0.818336 0.142030 -0.523768 
-0.030950 -0.701768 0.171773 -0.345346 -0.360114 0.855458 
-0.700068 1.109208 1.525367 0.747022 -0.550389 0.300702 
0.856660 0.613003 1.480031 0.930634 0.275329 -0.221997 
-1.151667 -0.021930 1.408339 -0.896908 0.383758 0.076480 
-1.078199 -0.268079 0.839056 -0.817546 0.240796 -0.452882 
-0.597882 0.568285 0.477126 -0.522517 0.747759 -0.319793 
1.108540 0.062023 1.715216 0.886362 0.045254 -0.257849 
-0.001646 0.364455 0.482152 -0.066528 -0.085327 0.992382 
1.318335 -0.504489 1.017678 -0.669149 -0.573732 0.411336 
1.362885 0.237486 2.356777 0.904210 0.113582 -0.402067 
-0.745559 0.927298 1.238274 -0.971422 0.177774 -0.045997 
-1.076491 0.592391 2.115042 -0.885391 0.428206 -0.178341 
1.116646 -0.266386 1.713487 -0.966184 -0.067511 -0.032518 
-0.041070 0.471900 -0.222398 -0.399197 0.104573 -0.907280 
-0.794485 0.925575 1.480168 -0.965046 0.156639 -0.063702 
0.113892 -0.160905 0.335244 0.163991 -0.260402 0.949479 
-0.791910 0.474773 0.659544 -0.827039 0.412855 -0.364173 
-1.041045 0.212001 1.321355 -0.904383 0.345394 -0.175534 
0.775997 1.050890 1.795951 -0.593128 -0.555380 0.524187 
0.471769 -0.206557 0.130194 0.808618 -0.015346 -0.565934 
1.222465 1.273863 2.872000 0.703509 0.694644 -0.083056 
-1.048549 0.644206 2.197759 0.883870 -0.430683 0.151190 
1.462104 0.902564 3.219748 0.898214 0.379613 -0.218371 
-0.672448 1.171370 1.495674 0.728720 -0.564814 0.359642 
-1.022812 -0.175125 0.774686 -0.819412 0.229878 -0.457601 
1.130172 0.252839 1.794499 0.839505 0.045523 -0.473482 
0.359810 -0.049985 -0.059917 0.622837 -0.092773 -0.749494 
0.830792 -0.802985 0.487828 0.537168 0.349137 -0.644499 
-0.378813 0.138424 0.308711 -0.340038 -0.220707 0.888226 
1.101903 -0.674129 0.745683 -0.563185 -0.559393 0.526630 
-0.251392 0.017964 -0.135430 -0.502945 -0.097680 -0.852702 
0.185718 0.811255 0.413380 0.425614 -0.051683 0.872750 
0.192270 -0.473875 -0.100021 0.237528 -0.338229 -0.872147 
0.574408 -0.624552 0.323381 0.614063 0.075730 -0.710290 
-1.095791 0.498555 2.042418 -0.890179 0.429659 -0.134821 
-0.769859 0.516781 0.720195 -0.526909 0.675432 -0.447218 
1.258061 0.608035 2.248558 -0.867315 -0.290120 0.378000 
-0.867372 1.053787 2.065644 0.868420 -0.215520 0.412522 
0.014007 -0.514155 0.238232 0.173904 -0.241319 0.932471 
0.585351 -0.102786 0.320730 -0.394907 -0.266770 0.804313 
1.151189 1.287930 2.749807 -0.869466 -0.315447 0.362212 
-0.578364 0.578371 0.330335 -0.710670 0.612184 -0.290774 
-1.050741 0.358834 1.725226 -0.825960 0.278788 -0.458799 
1.434006 0.967259 3.230573 -0.873120 -0.433769 0.203659 
-1.248808 0.152977 2.072818 0.772582 -0.346837 0.421527 
0.932219 0.504696 1.543167 0.924919 0.277152 -0.250985 
-1.133614 0.567427 2.592937 0.913548 -0.100539 0.378601 
0.691380 1.082119 1.704425 -0.529092 -0.570991 0.564269 
-0.798655 0.546372 0.916712 0.729630 -0.479717 0.470208 
-0.717045 0.434743 0.727524 0.668422 -0.499643 0.532639 
0.226100 -0.935969 0.055127 -0.313214 -0.219497 0.875338 
-1.101078 0.322886 1.864013 0.648634 -0.236159 0.704165 
-1.240006 0.489937 2.867582 0.919466 -0.192725 0.312695 
-1.106211 -0.194267 0.886636 0.804252 -0.305026 0.455368 
0.147735 0.660097 -0.167429 0.412966 0.225416 -0.865314 
-1.173204 0.272086 2.006470 0.714366 -0.300427 0.541334 
0.813470 1.265060 2.094896 -0.684726 -0.440379 0.536150 
-0.982031 0.503110 1.698850 -0.842052 0.256217 -0.446262 
-0.514215 0.100591 0.242430 0.322383 -0.350160 0.849587 
0.918316 1.337700 2.313034 -0.798817 -0.389161 0.453668 
1.388552 0.875077 2.867212 -0.872746 -0.399567 0.270924 
1.177560 0.912304 2.294595 0.815377 0.424551 -0.376870 
-0.990620 0.576030 1.761859 -0.900266 0.348633 -0.235612 
-1.172497 0.157744 1.860313 0.694646 -0.262991 0.632388 
-0.513965 -0.220002 0.178316 -0.813110 -0.008589 -0.553267 
1.161809 -0.026664 1.877106 -0.954321 -0.146998 0.103026 
-0.955913 1.128143 2.336025 -0.948578 0.210337 -0.223048 
1.296127 0.430850 2.272973 -0.876636 -0.193947 0.430216 
-0.604401 1.273012 1.386160 0.855615 0.022299 -0.120610 
-1.121042 0.876773 2.777858 0.932587 -0.229688 0.274580 
-1.237167 -0.396749 1.024109 0.804691 -0.322671 0.438231 
0.561993 0.392711 0.558625 -0.688266 -0.409860 0.552190 
-1.123053 0.361362 1.933168 -0.897289 0.431732 -0.070395 
1.313998 -0.309838 1.234513 -0.788217 -0.520378 0.084636 
-1.304764 0.208835 2.539056 0.888983 -0.431769 0.114387 
1.242962 0.672269 2.201400 0.855067 0.231848 -0.446486 
-0.351853 0.759627 0.138023 -0.923964 0.336106 -0.080914 
0.492007 0.069077 0.239510 -0.373766 -0.312611 0.843553 
-1.259924 0.513664 2.947386 0.920534 -0.201850 0.311439 
-0.704696 0.042383 0.444776 0.493482 -0.314844 0.706637 
0.140656 0.124258 0.419614 0.258754 -0.228810 0.934807 
0.303715 -0.449592 0.190390 0.467522 -0.248829 0.840697 
-0.789404 0.307090 0.523313 -0.829524 0.251062 -0.463359 
-0.922105 0.336653 0.894123 0.795584 -0.390897 0.443242 
-1.309042 -0.309448 1.709123 -0.900394 0.322188 -0.102943 
0.055546 0.244841 -0.252103 0.473860 0.028252 -0.877633 
0.210674 0.118351 0.386176 0.311995 -0.229062 0.918917 
-1.284151 -0.012432 1.966137 0.785806 -0.335871 0.443868 
-0.081378 0.650636 0.442682 -0.077905 0.187660 0.967906 
-1.149716 0.869048 2.870290 0.928006 -0.250865 0.270812 
-1.116008 0.942445 2.822912 -0.939946 0.209295 -0.268317 
-1.217295 -0.154583 1.641067 -0.886192 0.293276 -0.114746 
1.271377 0.062798 2.145014 -0.828944 -0.045905 0.510826 
-0.773531 0.444725 0.777802 0.649753 -0.558020 0.515454 
0.971773 0.354727 1.465307 -0.861486 -0.362248 0.322186 
-0.460776 0.455506 0.033669 -0.703531 0.233959 -0.568209 
-0.278463 -0.705537 0.123464 -0.174620 -0.206850 0.905220 
1.255825 1.157455 2.819570 -0.823325 -0.516820 0.214194 
0.319182 -1.374000 0.046409 0.809239 -0.024672 0.425760 
0.500774 1.037124 1.309876 -0.871829 -0.314656 0.124707 
0.228645 -0.570815 0.175978 0.309865 -0.278330 0.906140 
-1.019870 0.485776 1.874074 0.741705 -0.275571 0.564789 
-1.084145 0.059867 0.837260 -0.877427 0.267275 -0.392404 
1.059466 0.305140 1.653831 -0.921507 -0.301489 0.191325 
0.831982 0.097546 0.568657 0.826821 0.215253 -0.493784 
-0.814248 1.220854 1.959091 -0.963933 0.207521 -0.100623 
0.513422 -0.551006 0.234809 0.668670 0.027810 -0.673541 
0.161933 1.189493 0.394846 0.926050 -0.283436 -0.138333 
-0.911252 1.248972 2.375361 0.898527 -0.287363 0.306193 
0.597715 0.555736 0.676151 -0.915570 -0.204738 0.280253 
0.755976 0.434240 0.934262 -0.695911 -0.522016 0.471032 
-0.098329 0.195389 0.440791 -0.197318 -0.187465 0.953589 
-1.004758 0.420076 1.809840 0.834813 -0.374372 0.365587 
0.112647 0.815304 0.438756 0.248844 -0.211503 0.940606 
-0.917600 0.589945 1.783723 0.848781 -0.358215 0.285690 
0.992788 1.122055 2.174678 0.815562 0.468060 -0.326016 
-0.847921 1.034713 1.929167 -0.944437 0.098346 -0.220607 
0.043183 -0.002521 -0.239497 0.426517 -0.081311 -0.880250 
0.832193 -0.743532 0.537091 -0.494608 -0.308812 0.688895 
0.822159 -0.037561 0.635514 -0.638190 -0.318191 0.603196 
1.016660 -0.180898 0.838976 -0.744745 -0.374368 0.487257 
-0.908733 1.180472 2.325315 0.879126 -0.285606 0.345176 
0.781899 0.031260 0.514265 0.825381 0.181048 -0.501191 
1.113196 -0.034472 1.718722 0.902662 0.031547 -0.195404 
-1.105997 0.030696 1.449265 0.903327 -0.376740 -0.019600 
1.190147 -0.198223 1.161066 -0.813705 -0.456179 0.093601 
0.881362 -0.135632 0.710083 -0.702530 -0.310662 0.555076 
0.904510 -0.840584 0.485901 -0.461216 -0.567758 0.629774 
0.390840 -0.783516 0.086507 -0.165675 -0.137713 0.944983 
1.495920 0.767918 3.113069 0.901128 0.365565 -0.231414 
-0.095455 -0.296773 -0.188564 -0.392219 -0.226553 -0.873359 
-0.513719 0.471005 0.119647 -0.760763 0.352282 -0.437634 
-0.204697 -0.561263 -0.061014 0.039949 -0.305076 -0.934629 
