-1.378265 -0.495832 1.273833 -0.622333 -0.359859 -0.680528 
1.761665 -0.488355 1.719393 -0.569759 0.454535 0.602935 
-0.800869 0.327363 0.600362 0.635177 0.114139 0.730906 
1.333555 0.015926 0.961154 0.729577 -0.261257 -0.631078 
1.921555 0.227422 1.621468 -0.777636 -0.023323 0.587730 
-0.744287 0.438181 0.510402 0.626023 0.318141 0.694143 
0.460715 0.665441 0.112953 0.734879 0.609236 -0.274801 
1.114912 -0.838274 0.937196 -0.762459 0.283110 0.534924 
1.798042 0.385351 1.459752 -0.696912 -0.164172 0.636362 
-1.596526 -0.147474 1.293697 0.665830 0.139348 0.707804 
2.310400 0.386392 2.484726 -0.983124 0.019455 -0.039335 
-0.640565 0.126544 0.287652 -0.802424 -0.105825 -0.581707 
0.681373 0.092868 0.335243 0.774986 -0.097668 -0.616012 
-0.013031 0.688485 -0.255090 -0.296488 0.531478 -0.788402 
-1.377529 -0.585943 1.368908 0.635236 0.400446 0.641068 
-2.865272 0.031616 2.553029 0.907879 0.242941 0.325602 
-0.207998 1.264238 0.363868 0.555804 0.661859 0.448448 
-0.406798 -0.080570 -0.034590 -0.807043 -0.101183 -0.576810 
0.311773 0.572996 -0.204262 0.583253 0.286786 -0.744683 
1.513636 0.403743 1.106013 0.705586 -0.274562 -0.652252 
0.725310 0.117509 0.392688 0.766872 -0.114530 -0.624734 
-0.122031 -0.628131 0.143148 -0.218451 -0.153419 0.957979 
1.514641 0.214453 1.153058 -0.670624 -0.063400 0.675234 
0.975847 0.350235 0.649509 0.731668 -0.210478 -0.646324 
0.683547 -0.183351 0.419542 -0.553988 -0.056026 0.783196 
1.744340 -0.266428 1.439993 0.735764 -0.349352 -0.524943 
-0.502631 0.453573 0.053652 -0.862325 0.139879 -0.462765 
2.244590 0.151228 2.393052 0.973625 -0.196926 0.002771 
2.127358 -0.036968 2.806673 0.931725 -0.328928 0.122110 
-0.682980 0.375551 0.298913 -0.827689 0.076508 -0.534063 
0.120453 -0.176850 -0.297422 0.459973 -0.199020 -0.838517 
1.970285 -0.399383 2.110478 -0.869973 0.388064 0.187064 
2.054391 0.473740 1.793729 0.947578 0.070612 -0.285210 
-0.115732 -0.138716 0.207113 -0.184032 -0.080975 0.972980 
-0.506992 0.126884 0.288685 0.526503 -0.188881 0.797570 
0.208481 -0.270339 -0.241232 0.499174 -0.223354 -0.822714 
-0.881185 -0.843377 0.676281 0.783167 0.022260 0.602326 
-2.086274 0.740701 1.543508 0.388867 0.278811 0.816371 
1.198305 0.312004 0.842035 0.720148 -0.256627 -0.644254 
0.100393 -1.175843 0.086982 -0.178368 -0.158266 0.736082 
1.782190 -0.666863 1.997875 0.798924 -0.537334 -0.260805 
-0.641824 0.500074 0.391549 -0.714768 0.477565 -0.461678 
0.024925 0.449983 -0.364715 0.457246 0.251434 -0.838740 
-2.616601 0.169690 1.888908 -0.836345 -0.091627 -0.516525 
2.079187 0.170087 1.828674 0.763104 -0.247395 -0.567203 
-1.359962 -0.133402 1.133531 0.601965 0.143127 0.752124 
-0.188109 -0.680576 0.125072 -0.165716 -0.125905 0.948683 
0.115645 -0.417666 0.200232 0.167387 -0.132402 0.975953 
-0.424543 -0.909067 0.217811 0.295318 0.048880 0.905449 
-1.060600 -0.492446 0.885940 -0.745273 -0.206323 -0.614955 
-0.360057 0.088578 -0.101010 -0.759454 -0.124622 -0.601074 
0.293041 0.882981 0.049934 0.861502 0.324152 -0.318679 
-0.936510 -0.269582 0.684790 -0.743964 -0.124082 -0.646124 
1.771617 0.409808 1.394494 0.863764 -0.245480 -0.373962 
-0.692877 0.169043 0.477133 0.620992 -0.167891 0.755553 
-2.029182 -0.338856 1.584172 -0.605500 -0.364788 -0.697059 
-2.252926 0.000120 1.617247 0.532765 0.205381 0.814420 
0.683190 0.274003 0.486780 -0.582515 -0.130735 0.796691 
-0.709086 -0.419563 0.482459 0.632822 0.019531 0.725867 
0.420457 -0.881152 0.213784 0.509890 -0.197455 -0.819685 
1.759126 -0.122368 1.382834 0.591557 -0.229783 -0.759967 
-2.050825 -0.208893 1.529112 -0.607243 -0.286940 -0.727119 
0.437913 0.352712 -0.013969 0.856175 0.031900 -0.493023 
1.103510 0.527719 0.851847 -0.638171 0.015700 0.747431 
-2.660045 0.421642 1.891048 -0.740446 -0.102679 -0.639790 
-0.412958 -0.809366 0.198432 0.266185 0.052881 0.920013 
0.026850 1.099376 -0.105477 0.359772 0.176646 -0.909860 
-1.939818 0.502467 1.453593 0.377542 -0.204257 0.855453 
1.586263 0.417097 1.217328 -0.663243 -0.164825 0.676302 
2.078726 0.029469 1.877938 -0.859397 0.220984 0.439732 
0.056554 -0.070349 0.211967 0.129313 -0.102713 0.979705 
-2.812440 0.016546 2.393670 -0.876927 -0.280783 -0.377714 
1.139996 -0.515836 0.846195 -0.738934 0.140306 0.648819 
-0.499557 -0.067472 0.231120 0.405978 -0.127647 0.843984 
-1.210975 -0.556966 1.057100 -0.714444 -0.265955 -0.628025 
-1.040451 -0.562806 0.890909 -0.761863 -0.213718 -0.593662 
0.698875 0.572305 0.452003 -0.611059 0.237959 0.729294 
1.355940 -0.587528 1.142372 0.745291 -0.387525 -0.496284 
1.681014 0.472100 1.254181 0.662805 -0.254266 -0.698711 
2.244288 0.256461 2.678488 -0.968272 0.089329 -0.124153 
-2.028153 0.619397 1.541497 0.386016 -0.010208 0.860313 
0.560913 -0.556176 0.298608 0.615832 -0.141593 -0.751288 
1.488197 -0.839473 1.789902 -0.694237 0.567474 0.400991 
1.312261 -0.259536 0.949751 0.733613 -0.211012 -0.637293 
2.211441 0.643913 2.068049 0.903770 0.238826 -0.332839 
0.741633 0.358281 0.384427 0.755760 0.179574 -0.585345 
1.344741 0.632362 1.047592 -0.596835 -0.070173 0.779228 
1.698522 -0.493217 1.598496 0.844442 -0.479168 -0.220462 
-0.209507 0.771898 -0.135153 -0.529658 0.460480 -0.698990 
-2.653233 0.347556 1.888142 -0.738468 -0.142116 -0.636821 
-1.297894 -0.062883 1.033101 -0.665375 -0.277109 -0.684833 
0.598161 0.221934 0.217778 0.802747 -0.111673 -0.578627 
2.015352 0.725328 1.783130 -0.710255 0.391019 0.512636 
-2.503701 -0.333732 2.111666 -0.664813 -0.452424 -0.567326 
-2.307021 -0.513277 1.941908 -0.599124 -0.472797 -0.638630 
0.355454 -0.842005 0.132384 -0.160690 0.057983 0.966529 
0.195561 0.150392 0.220844 0.178928 -0.229374 0.955395 
-0.467421 0.007998 0.209651 0.403508 -0.161889 0.850168 
-0.890691 -0.765347 0.697288 -0.789703 -0.087356 -0.588860 
-0.421412 0.085610 0.171356 0.382734 -0.200974 0.865485 
0.274253 0.545883 0.309276 0.188595 -0.185300 0.939167 
-2.034464 0.153272 1.485447 0.425280 0.007803 0.890223 
0.359229 -0.477494 -0.064763 0.713535 -0.153435 -0.670996 
1.248568 0.151470 0.887365 0.725034 -0.253106 -0.638919 
-0.726908 -0.096092 0.503502 0.692220 -0.052271 0.701620 
-1.384093 -0.293656 1.142104 -0.631550 -0.277764 -0.717449 
0.466047 0.662576 0.214742 0.674236 0.676597 -0.175098 
-0.337156 -0.943240 0.134186 0.182525 0.065144 0.966105 
-1.870334 0.781898 1.451812 0.405818 0.042518 0.899319 
-0.128675 1.201885 -0.024998 -0.667642 0.423214 -0.572426 
-0.098622 1.291240 0.063444 -0.649953 0.702627 0.081921 
-2.396536 0.182404 1.675962 -0.399645 -0.361390 -0.834082 
-2.187771 -0.590668 1.845378 0.572823 0.428282 0.692937 
1.398239 -0.190855 1.046379 -0.702380 0.137408 0.660372 
-1.117864 0.400706 0.872135 0.564930 -0.198907 0.785035 
-2.095591 0.114435 1.505732 -0.458398 -0.054695 -0.880748 
-0.214886 -1.166038 0.106306 -0.066773 -0.241124 -0.964988 
-2.064178 -0.538056 1.730724 -0.610930 -0.435871 -0.655683 
-1.788493 0.834033 1.385777 0.215493 0.511585 0.791726 
0.369995 0.037047 0.140702 -0.086641 -0.204101 0.930509 
-0.053492 -0.502112 -0.188948 -0.175102 -0.591059 -0.774957 
-2.499144 0.387175 1.835312 0.664041 0.123881 0.667288 
1.251045 0.021430 0.932122 -0.640212 -0.004126 0.715141 
1.827663 -0.458410 1.784456 0.842660 -0.456175 -0.260759 
-2.087734 -0.700377 1.857464 -0.573442 -0.477095 -0.662297 
0.526253 -0.189995 0.127707 0.764307 -0.093870 -0.631489 
-2.025692 -0.471184 1.676955 0.326742 0.389608 0.798835 
-2.715966 0.314408 1.964142 -0.793466 -0.187064 -0.568397 
0.908743 -0.732863 0.636389 -0.706136 0.020274 0.695861 
-2.655508 -0.335059 2.378577 0.813493 0.363010 0.443679 
-2.392568 -0.158945 1.802256 -0.555257 -0.436411 -0.699001 
-0.321000 -0.646561 -0.031932 -0.615363 -0.195879 -0.739534 
-2.338624 0.461547 1.731459 0.566502 0.075353 0.737858 
0.533393 -0.120169 0.137525 0.774244 -0.086099 -0.619126 
-2.700297 0.388825 1.939554 -0.773825 -0.134438 -0.595240 
-1.958001 0.571227 1.447828 -0.489198 -0.384428 -0.766165 
-0.936459 -0.763872 0.810158 0.797036 0.129724 0.570376 
-0.947128 0.303924 0.644977 -0.755760 -0.209135 -0.617100 
-1.159195 0.578697 0.926486 0.681222 0.246192 0.610671 
0.429608 0.242967 -0.008296 0.842025 -0.077197 -0.531445 
1.224361 0.085540 0.868740 0.725488 -0.234499 -0.642588 
0.478126 -0.857836 0.259567 0.534735 -0.167513 -0.806376 
1.290674 -0.933986 1.583105 0.703816 -0.611123 -0.357949 
1.271123 0.409329 0.901673 0.713127 -0.260973 -0.650082 
-2.339407 -0.029897 1.699419 0.641319 0.201059 0.703260 
1.285264 -0.450569 0.943702 0.742547 -0.214191 -0.628194 
0.041088 0.680137 0.379220 0.056316 0.155598 0.980457 
-0.225450 1.080924 0.324421 -0.612362 0.644155 -0.383401 
0.437063 -0.219465 0.003928 0.771316 -0.110748 -0.621186 
2.044679 0.253388 1.777481 0.761984 -0.252110 -0.563921 
0.980419 -0.746539 0.709953 0.738690 -0.128984 -0.651406 
-0.912256 0.243032 0.615090 -0.758418 -0.189752 -0.619807 
1.829776 0.691881 1.569901 -0.700262 -0.033792 0.629885 
-1.082344 0.653635 0.807491 0.681767 0.205237 0.664386 
-1.092970 -0.566530 0.944044 -0.748130 -0.230882 -0.602879 
0.706298 0.352727 0.323095 0.813422 0.055641 -0.559577 
1.695574 -0.568133 1.727759 -0.589972 0.480474 0.565840 
1.918067 0.324340 1.621104 -0.760438 -0.070300 0.586353 
1.432610 0.643743 1.022205 0.656947 -0.076013 -0.711950 
2.168627 0.591847 2.026751 -0.846756 0.119425 0.481719 
0.142459 0.792386 0.352907 0.210990 0.063380 0.961473 
-0.740959 -0.137772 0.439865 -0.783703 -0.078199 -0.613657 
-0.288934 0.347978 0.248932 -0.114821 -0.231607 0.961463 
1.758982 0.319959 1.415275 -0.664434 -0.114938 0.675183 
2.090364 -0.138230 2.661129 0.927140 -0.332882 0.077560 
-1.764689 -0.834729 1.774247 -0.505847 -0.501079 -0.692474 
0.329092 0.506272 0.274806 0.145288 -0.168440 0.945444 
1.469263 -0.196965 1.079060 0.735878 -0.270461 -0.620392 
0.088534 0.434392 -0.334010 0.511942 0.217688 -0.803047 
-0.794805 -0.902018 0.519130 -0.756952 0.031310 -0.642627 
-2.742326 -0.220120 2.454467 0.844759 0.345712 0.399098 
-1.762489 0.726268 1.401621 0.402343 -0.148504 0.895327 
1.980515 0.086889 1.703764 -0.820029 0.090267 0.557867 
0.451691 0.500030 0.325776 -0.609930 0.245780 0.745366 
2.083975 -0.174282 2.395738 -0.931835 0.297555 0.012832 
-0.439387 -0.604262 0.130397 -0.649502 -0.160369 -0.717780 
1.943449 -0.452212 2.249910 -0.861501 0.434127 0.150029 
-1.170660 0.389142 0.922965 0.565661 -0.183753 0.782333 
-1.387477 -0.434821 1.198371 -0.641894 -0.304898 -0.693022 
2.277465 0.327374 2.611514 -0.977783 0.031180 -0.115464 
-1.053723 -0.084083 0.782811 -0.721615 -0.183937 -0.653851 
1.755614 -0.320980 1.537963 -0.515199 0.367492 0.740584 
0.454108 0.004536 0.188129 -0.369466 -0.166536 0.869945 
-0.245361 -0.892074 0.116122 -0.045639 0.062557 0.950722 
0.707254 -0.601960 0.460692 -0.563944 -0.012555 0.784303 
0.294007 -0.788092 0.006671 0.513300 -0.246447 -0.807702 
0.628608 0.320404 0.456230 -0.591285 -0.061700 0.790419 
-1.623507 -0.210974 1.311088 0.688036 0.173310 0.686837 
0.195050 0.687051 -0.192585 0.431085 0.516880 -0.718585 
-1.836269 0.778673 1.385710 -0.665915 -0.034387 -0.741056 
-0.572979 -0.284478 0.204990 -0.771853 -0.103944 -0.625898 
-1.289471 0.615043 1.044699 0.637221 -0.017096 0.744614 
-2.384180 -0.369705 1.944818 0.711316 0.319557 0.579276 
1.574686 -0.021229 1.200735 -0.742535 0.064895 0.594490 
0.116569 0.283452 -0.368609 0.574631 0.050842 -0.800012 
0.360974 0.616334 -0.133269 0.623699 0.347543 -0.673255 
-0.012521 -0.413977 0.209580 -0.097029 -0.162133 0.978965 
-0.513611 -0.352661 0.177885 0.264244 -0.030338 0.894837 
-0.852408 0.251430 0.555521 -0.763618 -0.169910 -0.620572 
2.041373 -0.260333 2.327498 -0.910016 0.336226 0.062233 
2.259709 0.602620 2.180540 -0.857016 0.259620 0.417878 
0.571923 -0.755196 0.335184 0.579728 -0.127107 -0.780315 
2.029458 -0.237299 2.808261 -0.903708 0.416824 -0.069663 
1.880533 -0.558066 2.038948 -0.823382 0.476391 0.280168 
1.276307 -0.873756 1.446575 0.712403 -0.595493 -0.357275 
0.586602 0.138483 0.206462 0.799453 -0.087117 -0.585471 
0.420511 0.634925 -0.036940 0.703080 0.458629 -0.468147 
1.510907 0.713820 1.087750 0.473914 0.319907 -0.744363 
1.992127 -0.362917 2.206881 -0.883932 0.376184 0.132898 
0.680252 0.168702 0.330005 0.780585 -0.117226 -0.606710 
0.378033 -0.762802 0.130977 -0.165544 0.042984 0.961288 
-1.501758 -0.612119 1.463780 0.697243 0.437624 0.555052 
2.302071 0.319877 2.437188 -0.980385 0.107348 0.026768 
-1.077091 -0.858102 1.136346 -0.745624 -0.359287 -0.534985 
-2.465353 -0.472819 2.178507 -0.703579 -0.434471 -0.535869 
-0.360552 0.649049 0.264498 -0.468103 0.094408 0.776314 
-1.800882 0.437700 1.365879 -0.590333 -0.252467 -0.731560 
1.291704 0.322715 0.920509 0.716626 -0.261895 -0.645762 
-0.137344 1.253598 0.240011 0.165482 0.914384 0.249641 
1.714463 -0.601166 1.788542 0.814145 -0.514280 -0.248322 
2.075850 -0.198368 2.279890 -0.925549 0.293240 0.055667 
1.948123 0.656944 1.645164 0.936769 -0.036701 -0.345055 
-0.876330 -0.269038 0.625219 -0.760288 -0.105139 -0.634641 
1.092756 -0.525759 0.794020 0.743328 -0.166765 -0.640485 
0.275215 0.998804 0.156412 0.917896 0.354897 0.018898 
0.196847 1.030278 -0.044514 0.665886 0.241318 -0.680954 
0.286910 -0.622474 -0.076507 0.515938 -0.269231 -0.802969 
2.005283 0.510528 1.833980 -0.797421 0.032438 0.479853 
-0.591456 0.097678 0.221316 -0.813210 -0.088811 -0.569919 
-0.128963 0.325476 0.306778 -0.169219 -0.291869 0.935430 
-0.759269 -0.562257 0.513971 0.691244 -0.014849 0.688415 
0.589748 -0.141925 0.215789 0.763533 -0.079277 -0.633528 
-0.495370 -0.345253 0.096331 -0.767320 -0.115272 -0.630325 
1.228926 -0.525201 0.905347 0.745936 -0.207015 -0.627290 
-1.523142 -0.217956 1.248924 -0.548949 -0.288476 -0.763634 
0.426018 -0.169742 0.108458 -0.235847 -0.113564 0.922747 
-0.151679 -0.203794 0.202371 -0.224654 -0.057651 0.966071 
-1.579635 0.218858 1.257578 -0.551209 -0.301580 -0.758229 
-1.651986 0.411601 1.277368 -0.478028 -0.284614 -0.795394 
2.214656 0.120004 2.565342 -0.942237 0.288455 0.029055 
2.087233 -0.110104 2.859551 0.916309 -0.377986 0.116307 
0.199289 -1.120339 0.108797 0.032949 -0.273464 -0.958588 
-0.681283 -0.366488 0.438720 0.576596 0.016764 0.752252 
-2.673788 -0.006818 2.114204 -0.879008 -0.186232 -0.420193 
1.922215 -0.415155 1.937793 -0.832504 0.413850 0.338127 
0.399641 -0.046516 -0.048258 0.803091 -0.100197 -0.580639 
0.833635 -0.724655 0.542213 0.687084 0.015800 -0.724543 
0.974614 -0.820915 0.701717 0.731351 -0.112457 -0.659655 
0.292506 -0.861654 0.038788 0.499583 -0.244934 -0.818040 
1.612389 0.475883 1.187931 0.698939 -0.280295 -0.657027 
-1.984231 -0.428027 1.611276 -0.622926 -0.403401 -0.662174 
-1.364089 -0.055558 1.132971 0.596148 0.099938 0.755549 
-2.616403 -0.001968 2.013048 0.696747 0.402228 0.580608 
-1.404935 0.744767 1.089521 -0.308637 0.578367 -0.669818 
2.171703 0.160180 2.022213 0.747423 -0.418121 -0.487940 
-0.079652 0.044872 0.215074 -0.134500 -0.162247 0.973881 
2.300787 0.382563 2.387422 0.971303 -0.149674 -0.090711 
1.954020 -0.429248 2.324988 0.831301 -0.509161 -0.158019 
-1.617797 -0.999018 1.811974 -0.436429 -0.532451 -0.724279 
-0.495513 0.584844 0.047434 -0.823385 0.353724 -0.392592 
1.103249 0.656302 0.790470 0.552973 0.247298 -0.761163 
-2.043255 -0.609096 1.765619 -0.605284 -0.458627 -0.647216 
-0.703350 -0.026323 0.482906 0.669062 -0.085303 0.717844 
-1.624258 -0.423665 1.392792 -0.379367 -0.411603 -0.798104 
-2.399886 -0.514216 2.104365 -0.672612 -0.445122 -0.567608 
0.440877 -0.369340 0.009427 0.747501 -0.124407 -0.651169 
0.368493 0.753931 0.094295 0.869440 0.443075 -0.116495 
0.820517 -0.017906 0.576515 -0.654042 -0.089308 0.743813 
2.153678 0.158723 2.991151 -0.951265 0.215298 -0.163481 
-1.822158 -0.046118 1.336008 -0.470282 -0.148812 -0.845797 
2.083676 -0.131629 2.757517 -0.904679 0.403208 -0.046289 
0.275255 -1.194672 0.171242 0.257199 -0.217844 -0.895849 
1.160233 0.433335 0.807866 0.715544 -0.254817 -0.650212 
1.774508 0.733192 1.479995 -0.669934 -0.060162 0.681786 
1.862178 0.466343 1.524163 0.798841 -0.284420 -0.487121 
0.915116 -0.517120 0.660360 -0.719940 0.053975 0.682618 
-0.301869 0.878769 0.228341 -0.859575 0.298784 0.389641 
1.532173 -0.775225 1.759205 0.753765 -0.564858 -0.309276 
-2.233238 -0.248887 1.697660 0.592997 0.298952 0.725039 
-2.009019 0.501512 1.488222 0.398464 -0.176924 0.849430 
-2.361863 0.254344 1.642506 -0.368233 -0.312021 -0.866084 
1.160468 0.640363 0.834040 0.469565 0.362134 -0.749999 
-0.632560 0.373415 0.466286 0.627897 0.202372 0.726733 
1.960474 -0.390822 2.639885 0.872409 -0.470922 -0.002483 
0.520763 -0.372085 0.173810 -0.244939 -0.026198 0.912498 
-0.123586 0.302541 -0.358393 -0.573933 0.068079 -0.795542 
-1.497183 0.298468 1.190239 -0.621976 -0.313989 -0.714496 
2.155013 0.000991 2.645552 -0.899577 0.397969 0.009605 
-0.469509 -0.427162 0.093634 -0.731962 -0.129861 -0.656501 
0.024379 -0.696110 -0.051996 0.280208 -0.403982 -0.867614 
0.603090 0.490686 0.222696 0.781573 0.330534 -0.488479 
1.833662 0.546143 1.512481 -0.693951 -0.230589 0.610677 
-0.240386 0.003750 0.181109 -0.282250 -0.195964 0.906371 
2.315141 0.444747 2.437297 0.976650 -0.115627 -0.061065 
-1.550903 -0.663018 1.531005 0.662182 0.447002 0.578585 
-0.399615 -0.688674 0.107505 -0.614892 -0.176211 -0.743043 
2.215808 0.075820 2.388175 0.977299 -0.170651 0.056258 
-0.528418 0.315936 0.352771 0.564562 -0.146203 0.794826 
-0.634411 -0.009350 0.414283 0.628608 -0.106334 0.738436 
1.498378 -0.057174 1.132050 -0.702508 0.083722 0.653078 
1.583448 -0.430484 1.324193 0.663506 -0.421186 -0.595207 
-1.950129 0.162611 1.450113 0.374622 -0.004676 0.901242 
1.914457 0.632874 1.705011 -0.745625 0.006374 0.555124 
1.522421 0.592875 1.110131 0.696215 -0.275562 -0.662231 
-0.875808 -0.638302 0.687916 0.776305 0.053520 0.611227 
-0.654471 -0.567779 0.408439 -0.675197 -0.111692 -0.702064 
-0.301479 0.558735 0.300771 -0.260060 -0.169805 0.906224 
-1.653791 -0.456968 1.448601 0.729975 0.377670 0.558336 
0.367232 0.765318 0.171735 0.888552 0.405324 0.160900 
-1.053886 -0.414219 0.872518 0.724419 0.146686 0.653194 
-0.857768 0.148212 0.627463 0.649646 -0.135108 0.736399 
-2.545131 0.028048 1.856550 -0.543269 -0.482927 -0.682176 
-1.631053 -0.808261 1.685542 0.550595 0.469261 0.661727 
0.884712 0.120254 0.633515 -0.615450 -0.139303 0.763802 
2.160959 0.102586 2.067140 -0.917978 0.160953 0.246587 
-0.561152 -0.123836 0.294192 0.460712 -0.090843 0.813383 
0.766613 0.232887 0.545500 -0.612307 -0.147108 0.774890 
-0.811780 -0.409378 0.543301 -0.765076 -0.050781 -0.637299 
2.111476 0.138971 3.173737 0.940166 -0.265676 0.212368 
-1.439539 0.024576 1.164346 -0.629577 -0.304557 -0.711273 
-2.449665 -0.290058 1.975722 -0.600680 -0.477613 -0.627449 
-1.235553 0.348563 0.928324 -0.699329 -0.286203 -0.648783 
-0.464767 -0.835719 0.255497 0.343049 0.045260 0.880168 
-1.794515 0.515680 1.364448 -0.563706 -0.279821 -0.744503 
1.637341 0.313308 1.268309 -0.745748 -0.122916 0.556149 
2.014982 -0.293243 2.599669 0.861732 -0.479588 -0.039841 
-2.570382 -0.099660 2.014870 0.831170 0.201688 0.488698 
-2.569191 -0.302865 2.195960 -0.701015 -0.439549 -0.530981 
2.007476 0.393030 1.750435 -0.780863 -0.040138 0.552344 
0.119037 -1.059734 0.076495 0.186978 -0.191067 -0.945774 
-0.126387 -0.842354 0.120339 -0.098783 -0.097152 0.972594 
0.002570 -0.734716 0.170930 0.526160 -0.113307 0.837492 
-1.034154 0.279793 0.792424 0.599760 -0.161377 0.763194 
-1.966693 0.245189 1.443827 -0.505028 -0.112326 -0.831910 
-0.654965 -0.349662 0.351490 -0.736231 -0.107691 -0.656417 
0.894081 -0.381455 0.616562 0.730810 -0.089553 -0.672147 
2.031056 -0.175330 1.875204 0.842659 -0.365797 -0.376203 
1.504933 -0.759395 1.691134 0.756827 -0.558986 -0.307110 
1.608046 -0.484159 1.454772 -0.885271 0.427504 0.136075 
0.130416 0.664517 0.381619 0.109134 0.194558 0.971027 
-0.385308 0.375809 -0.107518 -0.772746 0.043889 -0.599312 
1.230466 -0.718333 1.035120 0.751694 -0.347683 -0.513547 
-0.781221 -0.091495 0.554396 0.707585 -0.044474 0.694918 
-0.251390 0.079758 0.183581 -0.202201 -0.220083 0.938802 
1.928566 0.570731 1.591681 0.896196 -0.095059 -0.425217 
-1.408200 0.245902 1.108930 -0.645978 -0.303730 -0.694896 
-0.919262 -0.384882 0.708494 -0.766850 -0.141137 -0.614275 
1.341897 -0.899731 1.626423 0.687955 -0.604264 -0.389469 
-2.601091 0.322726 1.838851 -0.733929 -0.073664 -0.644860 
-0.668228 -0.481040 0.421541 -0.682550 -0.119069 -0.696838 
-0.068026 -0.634309 -0.095762 -0.133645 -0.438815 -0.880131 
1.430561 0.577287 1.094688 -0.598857 -0.274748 0.732327 
0.303322 0.193092 -0.247488 0.694873 -0.036167 -0.704038 
1.374353 0.010108 1.032646 -0.659297 0.029339 0.691847 
1.430915 0.484561 1.034944 0.704366 -0.270138 -0.655638 
-2.913413 0.077178 2.681453 0.924685 0.234822 0.293125 
1.562009 -0.507052 1.386330 0.642817 -0.493729 -0.559193 
1.516593 0.100130 1.113769 0.720079 -0.273913 -0.636407 
-0.799886 -0.620190 0.543288 0.738807 -0.035335 0.659554 
0.143771 -0.720256 -0.051597 0.071738 -0.416925 -0.898511 
-0.175468 -1.325389 0.169348 0.838616 -0.363312 0.072034 
1.815726 -0.419728 1.709717 0.851045 -0.441670 -0.257930 
0.616945 0.637005 0.376472 -0.585551 0.277275 0.735725 
1.253017 -0.102033 0.930108 -0.673672 0.054126 0.692814 
1.424885 0.139044 1.077592 -0.655969 -0.034499 0.691237 
-1.713927 -0.571173 1.556465 -0.281546 -0.473951 -0.825754 
0.529313 -0.527642 0.233036 0.639792 -0.140614 -0.732582 
-1.127475 0.314369 0.885979 0.572272 -0.149295 0.779941 
1.421506 -0.673134 1.399037 -0.819830 0.499479 0.223830 
0.174461 -1.164289 0.158450 -0.400073 0.119770 0.754702 
-0.161391 0.362670 -0.316997 -0.587360 0.120829 -0.768839 
1.924115 -0.192075 1.663878 0.879804 -0.291891 -0.341615 
-1.582226 -0.363961 1.323771 -0.461262 -0.360109 -0.783179 
2.133718 0.014188 2.893788 0.930854 -0.330778 0.133395 
-0.359003 -0.092139 -0.093324 -0.752445 -0.141788 -0.613563 
-0.135603 0.907995 -0.104705 -0.544840 0.334464 -0.743857 
0.032138 -0.224137 0.210790 0.131444 -0.012338 0.985474 
-0.310082 -0.150324 0.149385 -0.447627 -0.171857 0.823275 
-1.393373 0.505866 1.127604 0.557307 -0.213689 0.777879 
2.043861 -0.103046 1.866868 -0.874624 0.265903 0.356491 
-0.384867 0.732350 0.146055 -0.901394 0.413081 0.067264 
1.053087 -0.590089 0.780563 -0.740274 0.122337 0.651803 
0.798641 0.099242 0.560077 -0.638368 -0.130444 0.754223 
-1.943834 -0.742667 1.810691 0.447517 0.463614 0.729937 
-0.940864 0.461683 0.650890 -0.557389 0.384179 -0.726285 
-0.155079 0.635148 0.384840 -0.146754 0.248149 0.946452 
1.846904 -0.191439 1.597430 -0.678143 0.285917 0.624617 
0.408994 -0.688187 0.126861 0.587314 -0.183975 -0.763110 
1.453773 -0.720960 1.535897 0.659474 -0.563155 -0.470470 
1.264596 0.239793 0.899117 0.721483 -0.260152 -0.641151 
-0.544938 -0.960585 0.309470 -0.614580 -0.104862 -0.745459 
-0.229924 0.689235 0.353096 -0.360182 0.274485 0.859187 
0.224526 0.066537 0.190539 0.215823 -0.210679 0.936916 
-0.406917 0.659921 0.194058 -0.386334 0.419521 0.744376 
1.903433 0.080623 1.575168 0.863454 -0.046007 -0.471566 
-1.242690 0.212338 1.001830 0.577789 -0.071757 0.771889 
-0.385785 0.563862 0.223412 -0.088226 0.212122 0.828837 
-0.336121 0.260460 -0.196656 -0.755751 -0.026421 -0.642927 
0.361664 -0.386027 0.061858 0.302534 -0.077320 0.864353 
-0.339869 -0.203717 0.113604 -0.330185 -0.148995 0.863527 
0.630776 -0.095388 0.377962 -0.536733 -0.096528 0.793580 
2.047521 0.543460 1.783315 0.936685 0.004149 -0.334938 
1.600578 0.046185 1.189053 0.705258 -0.265599 -0.652200 
-0.002177 -0.307963 0.212060 0.116811 0.044086 0.991303 
-0.176495 1.177298 0.030993 -0.813240 0.477626 -0.322506 
0.670057 0.388339 0.272920 0.823713 0.088866 -0.536605 
1.107502 -0.743422 0.833179 -0.757449 0.164433 0.628576 
-0.943603 0.354008 0.707447 0.594275 -0.211699 0.772661 
1.009539 -0.180638 0.696160 0.724187 -0.119053 -0.670770 
2.114982 0.571981 1.976410 -0.832754 0.097139 0.465560 
-1.738799 -0.107965 1.353814 0.739513 0.086693 0.655094 
0.084012 1.264500 0.184466 0.120551 0.928639 0.347107 
-0.096115 0.653311 -0.252802 -0.386595 0.454668 -0.791369 
0.212076 -0.017781 0.187416 0.305120 -0.182899 0.900241 
-1.948300 -0.330619 1.527660 -0.624926 -0.370750 -0.677327 
0.118417 0.359118 -0.342286 0.555835 0.130158 -0.792267 
-0.742209 -0.235109 0.443650 -0.770562 -0.085969 -0.630823 
1.172711 0.514526 0.882265 -0.536154 -0.276354 0.793245 
1.414955 -0.113805 1.062291 -0.687085 0.103182 0.669259 
-0.612652 -0.997813 0.333159 0.559104 -0.154256 0.770508 
1.439971 -0.618902 1.348048 -0.832655 0.473763 0.220579 
2.233116 0.577998 2.110825 -0.874644 0.149194 0.457947 
0.025179 -0.972449 0.051454 0.302163 -0.197337 -0.926160 
-1.583397 0.635603 1.296770 0.551649 -0.259150 0.773439 
-0.361776 -0.671201 0.038981 -0.630565 -0.175291 -0.730665 
1.090815 0.465516 0.744328 0.707596 -0.209044 -0.662389 
0.046175 0.735727 -0.210929 0.403460 0.353148 -0.835093 
0.002322 0.116196 -0.411001 0.453110 -0.045888 -0.865360 
1.099271 0.393871 0.757639 0.716981 -0.239453 -0.652634 
-1.845854 0.707313 1.387404 -0.680748 -0.052704 -0.727280 
1.180629 -0.659697 0.879770 0.753076 -0.209847 -0.620484 
1.590755 -0.532570 1.503407 -0.865432 0.444997 0.161898 
0.847648 -0.281711 0.567704 0.723348 -0.061911 -0.685879 
1.998996 -0.025186 1.733044 0.832172 -0.203805 -0.486993 
-0.147821 0.099654 0.217000 -0.182923 -0.200799 0.961532 
-2.403157 0.522198 1.743278 0.555108 0.096232 0.770438 
-0.459383 0.503340 0.327910 0.618228 0.258788 0.733102 
1.128704 0.325285 0.840902 -0.554076 -0.181293 0.783472 
-1.227269 0.575633 0.981794 0.615942 -0.080439 0.757343 
-1.333459 0.659761 1.094401 0.685028 0.170433 0.678510 
-0.114029 -1.158153 0.090119 0.221008 -0.032146 0.878972 
1.946876 0.499662 1.669975 -0.741792 -0.131025 0.571236 
2.318891 0.483701 2.496231 0.928074 0.282516 0.115292 
-1.411486 0.571273 1.075820 -0.655810 -0.307866 -0.682844 
1.543199 -0.831983 1.863397 0.737982 -0.583397 -0.323720 
-0.432892 -0.271142 0.097131 0.196852 -0.081069 0.933314 
-0.159986 1.074419 0.214150 -0.537399 0.777843 0.109334 
1.847657 0.718902 1.500363 0.940538 -0.047403 -0.334101 
-2.279337 0.554527 1.603052 -0.639153 -0.029493 -0.766217 
-0.224187 0.304143 -0.301157 -0.652455 0.042494 -0.737672 
-2.586426 -0.419941 2.338441 0.772118 0.397561 0.477438 
1.592876 -0.112700 1.218578 -0.784740 0.107538 0.536599 
0.476761 -0.301277 0.136222 -0.226015 -0.058792 0.922800 
-0.047453 1.062336 -0.102228 -0.361390 0.230502 -0.892563 
1.657994 0.877990 1.277073 -0.913762 0.178026 -0.157024 
0.170101 -0.265373 0.192877 0.277019 -0.040207 0.941827 
0.539577 -0.937050 0.306501 0.553841 -0.122271 -0.799292 
-0.483580 -0.965906 0.262234 0.364583 0.022593 0.864191 
-2.553618 0.108728 1.854092 0.758865 0.166105 0.568929 
1.665175 -0.758038 1.947753 0.766102 -0.563203 -0.294393 
2.213413 0.159148 2.120164 0.893902 -0.256218 -0.282673 
-1.541432 -0.039870 1.250855 -0.557288 -0.296093 -0.757476 
-0.144551 -0.934418 0.036800 -0.018919 -0.296376 -0.947099 
0.207860 0.550196 0.340318 0.181543 -0.218239 0.952710 
0.437761 -0.503072 0.103638 -0.156137 -0.008402 0.954574 
-2.250389 -0.484081 1.844486 -0.576397 -0.447457 -0.678090 
0.022281 -0.621466 -0.095363 0.310165 -0.471284 -0.820557 
0.347716 0.481406 -0.188639 0.668607 0.148106 -0.711170 
1.574135 -0.660990 1.671187 -0.580072 0.507296 0.568727 
2.129521 -0.090474 2.358950 -0.952895 0.243734 -0.004324 
0.109989 1.213732 -0.031892 0.650692 0.345489 -0.621847 
-1.100387 -0.304859 0.858944 -0.704842 -0.182245 -0.669034 
-1.398235 -0.939602 1.633238 0.532280 0.524222 0.652101 
-2.171381 0.243970 1.558087 0.461585 0.015394 0.866860 
-0.946128 -0.698587 0.839530 0.798132 0.158594 0.566186 
2.174614 0.068402 2.130109 -0.945987 0.159870 0.139164 
0.269517 -0.255196 -0.205778 0.548057 -0.228543 -0.785695 
-0.531578 0.391483 0.399738 0.620399 0.041652 0.765744 
0.697270 -0.239143 0.365189 0.734429 -0.071560 -0.671898 
1.220189 -0.205086 0.871925 0.730237 -0.187787 -0.647056 
1.609458 -0.727059 1.810653 0.771961 -0.551641 -0.290340 
-0.256409 0.922767 0.270430 -0.769114 0.177562 0.566957 
0.046563 0.649546 -0.272010 0.353274 0.463989 -0.805703 
-0.165247 1.215227 0.297739 -0.924847 -0.232711 -0.266466 
-1.852166 0.478603 1.392246 -0.525064 -0.245761 -0.782120 
-1.637307 0.680499 1.339738 0.240411 -0.121265 0.948374 
0.494705 -0.360594 0.088833 0.738527 -0.115785 -0.660765 
-1.008768 0.010274 0.774028 0.655068 -0.036863 0.724759 
1.652949 0.624241 1.220997 0.684486 -0.277698 -0.672464 
-0.601117 -0.529330 0.379603 0.497908 0.034730 0.797839 
-1.564200 -0.474859 1.393372 -0.420418 -0.422604 -0.766365 
-0.610798 0.570388 0.380400 0.586318 0.355690 0.711977 
-1.668694 0.646514 1.277881 -0.666409 -0.195989 -0.670940 
-0.288884 -0.683345 0.102733 -0.247076 -0.059306 0.913080 
-2.465651 0.046012 1.777493 -0.507972 -0.428586 -0.732667 
-0.225316 1.000065 0.303054 -0.713921 0.037267 0.687366 
0.075909 0.390972 0.328571 0.101353 -0.307913 0.938770 
-1.004305 0.187172 0.764711 0.623551 -0.125168 0.747214 
-1.155734 -0.870279 1.342619 -0.663534 -0.477010 -0.555791 
-0.688458 -0.961377 0.408328 0.634204 -0.129882 0.722250 
1.296015 -0.364264 0.943558 0.737573 -0.206380 -0.634530 
-1.828709 -0.805508 1.788838 -0.520216 -0.495812 -0.686039 
1.057975 -0.667337 0.788950 -0.747539 0.135916 0.642932 
-1.352847 0.533264 1.022614 -0.671515 -0.301066 -0.670060 
1.852312 -0.385267 1.764974 -0.688229 0.405502 0.515952 
-0.440965 0.036676 0.011375 -0.821201 -0.088877 -0.558996 
0.532551 0.586599 0.228406 0.798012 0.434602 -0.372575 
-0.596582 0.154523 0.386770 0.595215 -0.179083 0.766255 
-2.792474 0.262336 2.134699 -0.850337 -0.206704 -0.471739 
-0.092962 -0.179794 -0.307082 -0.445253 -0.213052 -0.839587 
-1.372253 -0.661649 1.412111 -0.538626 -0.472093 -0.663186 
-2.061947 0.044624 1.492536 -0.509177 -0.070666 -0.844790 
1.785757 -0.251746 1.546545 -0.582222 0.319262 0.703091 
-0.675938 0.302383 0.507192 0.614438 -0.063845 0.778019 
0.041933 -0.890559 0.016689 0.241351 -0.264860 -0.914488 
-0.403076 -0.169006 -0.038032 -0.795331 -0.108643 -0.592017 
-0.220243 0.453704 -0.274878 -0.583502 0.164308 -0.777999 
0.837937 0.253809 0.514085 0.764654 -0.100630 -0.631078 
-1.291610 0.365769 1.039228 0.567121 -0.150806 0.776273 
-0.551074 -0.506183 0.290895 0.391343 0.016609 0.844832 
-0.138928 0.431740 -0.310702 -0.546184 0.192378 -0.785678 
-0.975379 -0.355852 0.753610 -0.746970 -0.153048 -0.632289 
1.396389 -0.783889 1.540100 -0.772985 0.539054 0.284492 
2.058242 -0.237450 2.204514 -0.915558 0.303859 0.091411 
1.167007 -0.841606 1.130152 0.750608 -0.487546 -0.389144 
0.436945 -1.079965 0.170276 0.444973 0.137904 -0.867297 
-2.863478 0.392107 2.226625 -0.922003 0.124539 -0.312030 
1.043365 0.404768 0.708246 0.722353 -0.230202 -0.650288 
-0.424711 0.333129 0.248626 0.535036 -0.185290 0.803738 
-1.990939 -0.189393 1.494395 -0.641176 -0.252974 -0.704677 
-2.151396 -0.522819 1.776609 -0.588277 -0.420361 -0.683115 
-0.343867 0.332219 -0.181443 -0.741240 0.013123 -0.653610 
0.919465 0.425701 0.682015 -0.648790 0.245686 0.705363 
1.591820 -0.337254 1.268923 -0.817175 0.274628 0.423781 
-1.831122 -0.456088 1.552789 0.062564 0.384780 0.892050 
-1.086718 0.338689 0.780251 -0.738637 -0.253341 -0.619831 
-0.580760 0.240995 0.373753 0.570557 -0.217634 0.784502 
-0.062955 -1.206232 0.078405 -0.263548 -0.458372 0.571446 
-0.525792 -0.185119 0.136104 -0.787418 -0.099807 -0.604690 
-1.864692 0.587088 1.419726 0.350234 -0.275899 0.851659 
1.338082 -0.636438 1.209811 -0.761769 0.435563 0.418642 
1.483850 -0.405847 1.125380 0.742423 -0.292728 -0.591353 
-1.791841 0.586253 1.364735 -0.541702 -0.310704 -0.752726 
1.012104 0.438615 0.649253 0.639385 0.131241 -0.740564 
-0.066249 0.246752 0.273015 -0.072519 -0.283389 0.947958 
-0.357436 -0.374374 -0.096191 -0.755710 -0.138172 -0.634236 
-0.541419 0.562971 0.197573 -0.814112 0.378425 -0.394918 
1.213313 0.561656 0.818761 0.593415 0.142767 -0.788326 
-1.263923 -0.214812 1.038494 0.638681 0.153210 0.728920 
-0.306129 0.026938 -0.209689 -0.661382 -0.113486 -0.713802 
-0.143486 1.141516 0.173613 -0.799143 0.035255 0.472988 
-2.370741 0.518395 1.648420 -0.629346 -0.026520 -0.775304 
-2.527127 -0.150377 1.976358 -0.592377 -0.484118 -0.629424 
-0.052640 0.805688 -0.188475 -0.423700 0.370399 -0.818791 
2.319274 0.429908 2.544432 -0.990080 -0.054317 -0.116975 
0.346619 -0.910219 0.150442 -0.175281 0.072531 0.963280 
-1.288686 -0.699627 1.386193 -0.614121 -0.465448 -0.621768 
2.258670 0.470273 2.206645 -0.910135 0.165383 0.336945 
-1.004395 0.495051 0.797703 0.699156 0.129074 0.699297 
-0.700160 -0.892767 0.440956 -0.703882 -0.029336 -0.681022 
0.445104 0.465244 -0.034173 0.808023 0.143734 -0.534326 
0.054856 1.066373 0.368284 0.088606 0.180314 0.951809 
1.774242 -0.540288 1.809885 -0.631098 0.474900 0.515330 
-2.539117 -0.442509 2.277729 -0.746563 -0.419031 -0.492989 
-0.742638 0.233112 0.415335 -0.786613 -0.116055 -0.601114 
-0.379790 -0.263239 -0.069061 -0.783756 -0.118189 -0.606670 
-0.607454 0.488159 0.240119 -0.781509 0.340868 -0.480821 
-1.729616 -0.739324 1.693260 0.267679 0.453406 0.806291 
-0.771362 -0.705258 0.514376 0.704802 -0.036983 0.676647 
0.874588 -0.453390 0.594920 0.721014 -0.064415 -0.684392 
0.843800 -0.577601 0.574596 -0.687512 -0.026924 0.721294 
0.197364 -0.516134 0.153090 0.303876 -0.144790 0.936875 
-1.552088 0.789399 1.223556 -0.188005 0.729484 -0.631289 
-0.200593 -0.682419 -0.060631 -0.146175 -0.387416 -0.896519 
1.991203 0.582216 1.825726 -0.786012 0.042622 0.490496 
1.033352 0.234424 0.760175 -0.575580 -0.166275 0.778068 
0.253061 -0.019482 -0.248865 0.600152 -0.120437 -0.762511 
1.434039 0.649949 1.099595 -0.590087 -0.314226 0.738481 
-0.639325 0.272157 0.447878 0.585202 -0.161365 0.787629 
0.033613 -0.870977 0.133293 0.357869 -0.128026 0.919973 
-1.722154 -0.493888 1.517491 0.720543 0.390895 0.555269 
-1.706622 0.364449 1.367142 0.407485 -0.028763 0.873358 
-1.386266 -0.220930 1.162540 0.612103 0.194326 0.744175 
-1.698553 -0.257673 1.380887 0.727756 0.223481 0.622336 
0.350988 0.735843 0.001888 0.756177 0.504178 -0.365757 
-1.214206 -0.006460 0.941797 -0.688385 -0.253792 -0.668419 
-0.144682 1.132826 -0.054955 -0.574579 0.316548 -0.729040 
0.152408 0.352753 0.318537 0.202630 -0.294715 0.931479 
1.499946 0.537434 1.150236 -0.623327 -0.243106 0.710423 
-1.129108 0.154322 0.839996 -0.717847 -0.244073 -0.642320 
-1.433382 -0.880119 1.612707 0.559591 0.507351 0.636933 
0.299507 -0.596294 0.088933 0.289787 -0.074925 0.907176 
-0.269208 -0.177848 -0.215834 -0.577034 -0.191510 -0.771549 
-2.710624 0.547177 1.955003 -0.775550 0.285043 -0.488937 
-0.325581 0.283062 0.208167 -0.096850 -0.226793 0.966910 
1.073591 0.062887 0.743858 0.721829 -0.179048 -0.660112 
1.652823 0.613379 1.297473 -0.614720 -0.195197 0.698172 
1.579050 -0.183016 1.203700 -0.783264 0.147176 0.545929 
0.944749 0.214214 0.686181 -0.585546 -0.173574 0.778800 
2.115138 0.032683 1.941776 0.790338 -0.384254 -0.448772 
-2.168025 0.452511 1.576049 0.433484 0.075900 0.871323 
-0.895918 0.083574 0.608599 -0.760962 -0.155014 -0.624525 
-0.466853 0.083717 0.227743 0.445588 -0.186780 0.834480 
2.125968 -0.078321 2.448842 -0.931239 0.343570 0.023793 
-2.349857 0.138349 1.645214 -0.412574 -0.338981 -0.838317 
1.984817 -0.376130 2.278313 0.822094 -0.516999 -0.191112 
0.108826 -0.274901 -0.279698 0.424662 -0.275172 -0.836891 
-1.451755 0.461656 1.127511 -0.640527 -0.310959 -0.696983 
2.161022 0.221345 1.986426 -0.871174 0.138143 0.439533 
1.350826 -0.054262 0.977126 0.731213 -0.256271 -0.630070 
1.363590 -0.293789 0.993227 0.735561 -0.223352 -0.631903 
0.467327 -0.044802 0.045706 0.794559 -0.089353 -0.592494 
-2.301597 -0.133780 1.685793 -0.553376 -0.359400 -0.742179 
1.923779 -0.480034 2.378028 -0.854723 0.470131 0.120973 
0.439431 0.356073 0.277102 -0.546046 -0.120226 0.800406 
1.331632 0.542010 1.012869 -0.576299 -0.269205 0.754612 
-1.901724 -0.672837 1.739978 0.341654 0.443766 0.774561 
-0.558376 -0.760145 0.336903 0.453670 0.024707 0.818931 
-0.490963 0.630175 0.168430 -0.796132 0.488559 -0.318739 
-1.222406 -0.483396 1.056536 0.699401 0.222286 0.660112 
-2.476694 -0.201114 1.947810 0.777816 0.240353 0.534618 
-0.208968 -0.492014 0.156524 -0.337157 -0.135972 0.926583 
-0.149621 -0.052138 0.208567 -0.201916 -0.127957 0.966066 
1.342929 -0.750790 1.372172 -0.793131 0.529116 0.259681 
-0.322597 -0.449085 -0.113796 -0.651934 -0.202972 -0.708943 
1.503183 -0.286473 1.129456 -0.734534 0.210515 0.629558 
-0.574944 -0.055720 0.203042 -0.802507 -0.085280 -0.585948 
0.522078 -0.644888 0.284004 0.579199 -0.162043 -0.775086 
-0.563059 -0.435533 0.246395 -0.710525 -0.126441 -0.674135 
0.366130 0.138844 -0.095664 0.777993 -0.105523 -0.587052 
0.512743 0.078949 0.279129 -0.485525 -0.179564 0.821599 
0.606883 -0.825465 0.361436 0.588813 -0.098138 -0.778004 
1.538932 -0.421260 1.267941 -0.804680 0.332743 0.406451 
-2.367785 -0.504216 2.040996 0.678401 0.396342 0.586138 
1.803683 0.488702 1.442303 0.818360 -0.252648 -0.469339 
0.293213 -0.106725 -0.207681 0.607906 -0.168658 -0.747934 
1.044695 0.527279 0.793415 -0.694898 0.203372 0.678104 
-0.430720 -0.368458 0.070248 0.138686 -0.049945 0.955482 
2.220746 0.215274 2.776847 0.958014 -0.239321 0.097579 
-1.131531 -0.672906 1.019662 -0.754390 -0.263668 -0.584012 
-0.196533 -0.184001 -0.259816 -0.522710 -0.179496 -0.813686 
-0.288853 -1.114953 0.129821 -0.372100 -0.216902 -0.872740 
-0.032269 0.505877 -0.345490 -0.442287 0.299552 -0.839774 
0.528845 -0.454750 0.193434 0.678834 -0.127922 -0.704912 
-2.290461 0.254493 1.606635 -0.390945 -0.274679 -0.861822 
0.693363 -0.738117 0.431025 0.629780 -0.059951 -0.754473 
1.845375 -0.549692 1.940113 0.824682 -0.492060 -0.260739 
-2.611808 -0.328116 2.297142 0.799566 0.348502 0.465644 
2.210821 0.132396 2.195880 -0.874812 0.340537 0.260479 
-2.197118 0.524345 1.636017 0.477118 0.030032 0.805463 
-1.402034 -0.527994 1.332928 -0.578970 -0.399686 -0.687057 
0.196601 1.178126 0.127777 0.788649 0.561539 -0.130205 
-0.230141 1.153782 0.392826 -0.265322 -0.503756 0.803629 
-1.450169 -0.420886 1.297883 0.629913 0.320575 0.695366 
-0.118330 0.775574 -0.167832 -0.467215 0.396180 -0.776296 
-2.708697 0.087733 2.106552 -0.863877 -0.196588 -0.446008 
0.243607 1.074537 0.169258 0.897316 0.419130 0.042072 
1.751053 0.357675 1.326690 0.935804 -0.107783 -0.324929 
-0.001227 0.979879 -0.126176 -0.265604 0.286303 -0.917985 
-1.216711 -0.846475 1.449509 -0.615419 -0.531681 -0.577278 
-1.155559 0.238445 0.860020 -0.716552 -0.265238 -0.638231 
1.900783 -0.339588 1.800784 -0.756347 0.383340 0.460174 
-1.870713 -0.319041 1.483663 -0.659851 -0.348170 -0.650252 
0.307837 0.753073 -0.056670 0.660848 0.503711 -0.507842 
1.890806 -0.557886 2.174396 -0.834721 0.482915 0.208211 
1.005948 0.578346 0.725184 -0.698632 0.264198 0.649865 
1.500658 -0.564009 1.377628 -0.851048 0.452680 0.195695 
0.737150 -0.129211 0.499118 -0.652272 -0.063255 0.741967 
1.528236 0.735853 1.211477 -0.636382 0.024017 0.763665 
-0.685405 -0.184019 0.434714 0.601431 -0.034071 0.740286 
-0.074819 -0.379875 0.209386 -0.125671 -0.065166 0.987332 
1.098180 0.044638 0.807666 -0.629006 -0.058951 0.736708 
0.787638 0.339963 0.490943 0.624803 0.429545 -0.644643 
-2.296646 0.405233 1.613628 -0.711489 0.111490 -0.686713 
0.683950 -0.518399 0.427529 0.641552 -0.093486 -0.741399 
1.318180 -0.746790 1.305734 0.705302 -0.565012 -0.394614 
-1.182641 0.283449 0.940591 0.572951 -0.121862 0.777394 
-0.184995 -0.943367 0.100013 0.139749 0.014802 0.974678 
-0.077412 1.141178 -0.076924 -0.487960 0.199228 -0.838346 
0.803139 -0.319859 0.524828 0.703548 -0.050872 -0.703637 
1.296703 0.374277 0.979567 -0.589125 -0.181842 0.747398 
-1.747478 0.192909 1.383101 0.462672 0.027901 0.850896 
0.604734 0.412080 0.428306 -0.612261 0.307150 0.719784 
-1.950381 0.325602 1.451002 0.390450 -0.111353 0.876381 
-0.527447 0.099530 0.132559 -0.825598 -0.076648 -0.554916 
-2.434205 -0.410305 2.068221 0.720666 0.355747 0.553803 
-0.071303 0.579013 -0.291402 -0.412305 0.357927 -0.815601 
1.235853 -0.394360 0.897463 0.738214 -0.192399 -0.637806 
-1.467626 0.093525 1.184165 -0.623736 -0.308403 -0.715392 
0.191882 0.960317 -0.069224 0.630423 0.268462 -0.718936 
-0.584487 0.307423 0.409529 0.581092 -0.123149 0.789711 
-1.789559 -0.000973 1.399920 0.569983 0.083922 0.802648 
-1.738001 0.434388 1.327319 -0.699145 -0.220256 -0.656015 
1.912495 -0.491741 2.045367 -0.838199 0.441884 0.261361 
0.643910 -0.296350 0.292379 0.731618 -0.085602 -0.673878 
0.576123 -0.097910 0.310536 -0.466172 -0.106915 0.824353 
2.093081 -0.175970 2.168272 0.801571 -0.525762 -0.278544 
1.818008 -0.029293 1.450047 0.958132 -0.073208 -0.250857 
-2.107377 -0.583880 1.786761 -0.603484 -0.448285 -0.655653 
-0.291467 -0.934248 0.057157 -0.486867 -0.238622 -0.835789 
-2.621169 0.566624 1.859465 0.639428 0.151896 0.733811 
1.395513 -0.586864 1.240621 -0.780447 0.417952 0.390121 
-2.614404 0.026272 1.942684 -0.732862 -0.341983 -0.574486 
-1.316372 -0.433369 1.117441 -0.666214 -0.274875 -0.678943 
1.774697 0.190945 1.344381 0.882660 -0.132234 -0.425402 
1.090455 0.223287 0.806593 -0.580433 -0.144642 0.769570 
-2.203876 -0.433862 1.761957 -0.572967 -0.394615 -0.709226 
0.006365 -0.361351 -0.300624 0.325733 -0.387227 -0.848719 
-0.260797 -0.431992 -0.179427 -0.500527 -0.314838 -0.802389 
2.204290 0.389519 2.192941 -0.911544 0.146136 0.253308 
-2.118905 0.581078 1.604599 0.444863 0.020210 0.814437 
0.405784 -0.276791 -0.039416 0.766463 -0.121138 -0.626758 
-0.958145 -0.578240 0.829678 0.778075 0.150469 0.592580 
-0.641897 0.051343 0.293380 -0.803041 -0.091379 -0.583739 
-1.629288 0.560862 1.266180 -0.544498 -0.309238 -0.758519 
0.066726 -0.138712 -0.327408 0.430882 -0.197772 -0.847526 
-0.982110 0.130700 0.690256 -0.751069 -0.186513 -0.624656 
0.554541 0.296619 0.364826 -0.546936 -0.177206 0.807516 
-0.299046 0.155738 -0.244893 -0.681887 -0.051706 -0.712707 
-2.435908 0.659890 1.709673 -0.623964 0.252508 -0.715275 
0.443468 0.672629 0.018311 0.727013 0.619538 -0.291146 
2.026269 0.175940 1.766739 -0.823284 0.072670 0.551481 
-0.298804 -0.245496 -0.161620 -0.595277 -0.235570 -0.739959 
0.315949 -0.047694 -0.168622 0.656993 -0.157285 -0.698793 
-2.706710 -0.236032 2.391508 -0.843073 -0.337196 -0.404622 
0.098577 -0.484165 0.183346 0.177784 -0.150349 0.970439 
-1.124072 -0.248901 0.897810 0.676617 0.126394 0.706130 
-0.252710 0.583366 -0.222123 -0.535516 0.315552 -0.760857 
-0.925978 0.435001 0.714566 0.673197 0.188570 0.697838 
-1.297485 -0.868797 1.519103 0.603364 0.520408 0.594435 
2.179134 0.245460 2.963611 -0.957139 0.239205 -0.120434 
-0.719691 -0.073361 0.407276 -0.787996 -0.084894 -0.606253 
-0.339283 -0.752695 0.042173 -0.594214 -0.189771 -0.757523 
0.417424 -0.061573 0.126108 -0.285852 -0.151794 0.904373 
1.358500 0.166907 0.979466 0.721961 -0.265224 -0.638293 
0.094770 0.863481 -0.140939 0.505227 0.335313 -0.774105 
0.811315 0.611419 0.544947 0.629910 0.115765 -0.760399 
-2.124777 0.318097 1.525043 -0.442145 -0.244801 -0.836758 
0.999710 -0.460007 0.730123 -0.725260 0.084181 0.672413 
1.318833 -0.954013 1.676367 -0.704961 0.601050 0.373398 
0.342859 -1.153523 0.167966 0.039292 0.009693 0.806276 
2.163779 0.004146 2.539177 -0.885877 0.423304 0.067984 
2.166129 -0.002037 2.122114 0.810068 -0.478951 -0.316537 
-0.203848 1.059751 -0.019710 -0.726741 0.292023 -0.567277 
-0.618112 -0.453492 0.374985 0.495572 0.021209 0.794311 
-0.236859 0.248581 0.245097 -0.178615 -0.272038 0.943975 
1.164078 -0.753631 0.889754 0.757649 -0.231608 -0.601720 
0.626165 -0.682687 0.379146 0.606678 -0.105427 -0.764347 
-2.510173 -0.421090 2.206809 -0.713190 -0.432107 -0.524333 
-0.804635 0.205824 0.581314 0.638049 -0.164811 0.749268 
-0.050044 1.354468 0.034201 -0.580888 0.763215 0.225635 
0.058222 -0.349919 0.208852 0.136915 -0.004629 0.987477 
2.136463 0.096328 2.000203 -0.894400 0.175859 0.329375 
-1.280014 0.482049 1.021342 0.559099 -0.218638 0.781640 
-2.904962 0.242732 2.497161 -0.922249 -0.154244 -0.318982 
0.707198 -0.293306 0.432762 -0.539841 -0.015940 0.787313 
1.253910 -0.756717 1.214858 0.744445 -0.525808 -0.370295 
0.250093 0.919434 -0.008609 0.757135 0.293498 -0.516945 
-1.682776 -0.193694 1.346220 0.716447 0.162199 0.656770 
-1.210704 0.470335 0.956201 0.559998 -0.223279 0.784058 
-1.857747 -0.182215 1.429822 -0.706043 -0.212464 -0.652754 
-1.159691 -0.179343 0.900486 -0.691082 -0.210239 -0.676802 
-2.150004 0.716177 1.581161 0.450477 0.159418 0.838962 
0.528352 0.003481 0.130359 0.794138 -0.075129 -0.594047 
-2.445591 -0.029193 1.797556 0.756577 0.173839 0.586517 
1.202295 -0.718830 0.951189 -0.759207 0.240078 0.580787 
-0.429654 -0.432103 0.032621 -0.736868 -0.132710 -0.652157 
0.631629 -0.010606 0.401067 -0.585527 -0.124932 0.774981 
-0.449066 -0.186828 0.138306 0.267354 -0.103764 0.904229 
-2.091779 0.391605 1.524786 0.429464 -0.089624 0.855673 
-1.490050 -0.504838 1.381326 0.667236 0.375072 0.623941 
-2.780079 0.303391 2.072050 -0.839810 -0.195932 -0.497899 
1.096509 -0.294309 0.798437 -0.716285 0.091383 0.677961 
0.237613 -0.312356 0.164366 0.451199 -0.069958 0.845226 
0.333617 0.823480 0.149486 0.870568 0.405875 0.057171 
0.773496 -0.189317 0.470942 0.732272 -0.054791 -0.675887 
1.021803 -0.038383 0.703103 0.722136 -0.145438 -0.667416 
-0.284774 0.959223 0.091147 -0.910254 0.341255 -0.181815 
0.790854 0.287949 0.587525 -0.597679 -0.103772 0.792255 
-0.044670 0.781676 0.363136 -0.089839 0.011630 0.992865 
-2.665817 0.056638 2.058786 0.704366 0.396658 0.559634 
0.590476 -0.206037 0.299933 -0.423476 -0.067516 0.839532 
-2.425172 0.390596 1.758308 0.595832 0.080571 0.738462 
-0.371915 -0.834800 0.144115 0.199229 0.048461 0.951958 
-0.069483 0.990515 -0.104320 -0.401464 0.267102 -0.852131 
0.675825 0.258641 0.301471 0.802723 -0.055444 -0.588367 
-2.219210 0.720060 1.599890 -0.592359 0.370080 -0.669632 
1.712031 0.860839 1.336312 0.794645 0.538322 -0.221914 
0.624408 0.402341 0.213757 0.832762 0.099154 -0.519786 
-0.037704 -0.819118 0.141440 -0.349855 -0.126199 0.922103 
-0.368208 0.291502 -0.124182 -0.794696 -0.030489 -0.589166 
-0.169960 0.910836 0.346271 -0.384828 0.048673 0.892675 
0.890540 -0.273061 0.631522 -0.701683 0.018354 0.706112 
0.062018 1.227356 0.257704 -0.165238 0.796596 0.561844 
2.119738 0.204702 1.885208 0.740951 -0.305573 -0.576316 
0.519493 -0.155568 0.226347 -0.362080 -0.099123 0.868007 
0.225322 0.362226 0.289603 0.168228 -0.263723 0.945199 
-1.140791 -0.012822 0.866542 -0.705296 -0.225780 -0.659103 
-0.417611 0.411038 0.285670 0.588429 0.000320 0.775287 
-1.383159 0.026438 1.108902 -0.645950 -0.298465 -0.697465 
1.446081 -0.897349 1.806421 -0.718387 0.586154 0.363343 
-1.150693 -0.834864 1.275978 0.691477 0.411777 0.565438 
-2.526724 0.384567 1.747092 -0.668630 0.002033 -0.725962 
0.370243 0.409847 0.251015 -0.162792 -0.195715 0.922106 
-2.525920 0.168033 1.816431 0.654744 0.209017 0.687718 
1.705415 0.270696 1.369418 -0.761833 -0.032289 0.543243 
2.251362 0.222669 2.594509 0.962064 -0.240899 0.023868 
2.099720 0.483610 1.857463 0.938200 0.032254 -0.323856 
-1.261442 0.580775 0.904475 -0.669741 -0.003287 -0.713945 
-0.038544 0.687985 0.377249 -0.056511 0.144014 0.982220 
1.362085 -0.775588 1.454874 -0.780145 0.537209 0.275979 
-0.221933 0.839043 -0.095758 -0.592131 0.410229 -0.684519 
-2.204015 -0.354127 1.713052 -0.567700 -0.365970 -0.728507 
-0.580679 0.009673 0.351778 0.563790 -0.128598 0.771533 
0.395541 -0.197033 -0.053745 0.780204 -0.115166 -0.609322 
-1.291561 0.728822 0.989807 -0.420399 0.431580 -0.694966 
-0.227411 0.916649 -0.053498 -0.688717 0.296512 -0.647155 
