-1.089448 0.637478 2.114647 -0.855641 -0.393362 -0.320624 
-1.150326 0.438744 2.777797 -0.930052 -0.350965 0.082435 
-0.706796 0.048853 1.267907 0.940252 0.163655 0.193250 
-0.683996 0.135643 0.879376 0.939367 -0.012511 0.296500 
0.100522 -1.031505 -0.051974 0.392840 0.025681 -0.912586 
0.951296 0.109935 1.927771 0.960443 -0.172890 0.062433 
0.151074 0.252559 -0.293702 0.535661 -0.008707 -0.837993 
1.052454 0.172408 2.468393 -0.952467 0.189194 -0.104331 
-0.903776 0.563251 1.631415 -0.832653 -0.390578 -0.290808 
-0.183970 -0.861187 -0.003259 -0.212870 -0.254340 -0.938200 
0.369200 0.120597 0.180579 -0.005802 -0.186309 0.848218 
0.319621 0.777020 -0.051228 0.679780 0.546007 -0.423115 
0.159632 -0.715648 0.115218 0.012278 -0.189925 0.900089 
-0.659420 -0.197159 1.717399 0.907997 0.386129 -0.058889 
0.712534 -0.392253 2.267695 -0.792942 0.541232 0.149588 
0.727850 -0.319097 1.254475 0.959163 -0.191987 -0.069678 
-0.854792 0.001005 1.962069 -0.921402 -0.366707 -0.037023 
0.126552 1.255055 0.122071 0.732799 0.601070 -0.006920 
-0.955557 1.162042 1.544584 0.780397 0.211904 -0.471183 
-0.711727 -0.117680 1.333323 -0.945621 -0.276951 -0.108837 
0.432935 0.345339 0.334548 -0.750695 -0.113578 0.577435 
-0.374769 0.249959 0.214162 0.003048 -0.219913 0.845225 
0.673553 -0.756727 0.844134 0.945785 0.075681 -0.238936 
-0.025729 -0.016864 0.288790 -0.099544 -0.209937 0.971205 
-0.815952 0.841620 1.289472 0.928280 0.046986 0.295159 
0.862400 0.940737 1.743225 -0.804648 -0.400419 0.377456 
0.460606 -0.144417 0.138838 0.888999 -0.100432 -0.429217 
-0.431718 0.556065 -0.046766 -0.746353 0.213687 -0.522286 
-1.021667 1.049879 1.833553 0.872252 0.223077 0.415877 
1.066719 0.181778 2.539341 0.876460 -0.454585 -0.133178 
0.588479 -0.523524 0.691148 -0.885752 -0.041651 0.340171 
-0.722822 -0.013178 1.307212 -0.946121 -0.287358 -0.105271 
-1.071959 1.063550 1.881014 -0.909615 0.282430 -0.127127 
0.228225 1.069714 0.413798 0.548605 0.644105 -0.503715 
-0.630347 0.455217 0.649164 -0.841192 0.299949 -0.406458 
-1.193390 0.606379 2.425303 -0.962873 -0.210973 -0.155716 
0.693063 -0.369995 1.449040 -0.921032 0.289355 -0.017245 
-1.003535 1.054578 1.604612 -0.920164 -0.303587 -0.233813 
0.262079 0.612965 0.322281 0.478020 -0.114007 0.840675 
0.438005 0.013720 0.204608 -0.538281 -0.160697 0.767322 
0.213206 0.774583 0.332156 0.425461 0.097223 0.872721 
1.003335 0.494107 3.074500 0.931813 -0.138285 0.321419 
-0.655569 -0.323920 0.963159 -0.959740 -0.158877 -0.049513 
-0.775152 0.291024 1.519972 0.931640 0.143989 0.198719 
-0.364223 0.769450 0.092491 -0.875484 0.444418 -0.031951 
0.446941 0.464456 -0.037628 0.798780 0.092768 -0.495675 
0.199427 -1.266620 0.116079 0.916536 0.293182 0.010160 
-0.452436 -0.854630 0.429728 -0.792351 -0.127320 -0.462302 
-0.990774 1.141190 1.616226 -0.923915 0.301913 -0.066589 
-0.585783 0.437686 0.443515 -0.844338 0.432523 -0.270228 
1.068128 0.385773 2.808079 -0.958812 0.195664 -0.142332 
0.890662 0.931242 1.935363 -0.864097 -0.088835 0.384233 
-1.005674 0.520732 1.971464 -0.895559 -0.271375 -0.300872 
0.285931 0.119934 -0.205131 0.574804 -0.092998 -0.803748 
0.790061 -0.038104 1.387275 0.954542 -0.248222 -0.144201 
0.574638 -0.542752 2.231059 0.791978 -0.602801 -0.056330 
0.552543 -0.128981 0.435337 0.930434 -0.066266 -0.337933 
0.393606 0.200453 -0.106995 0.754991 -0.085588 -0.610099 
-0.803368 -0.228229 2.780240 -0.871349 -0.477095 0.037159 
-1.118225 0.600814 2.299145 0.877187 0.295596 0.316073 
-1.234262 0.809813 2.437847 -0.961811 -0.213657 -0.164198 
0.916724 0.104714 1.740612 0.838407 -0.226752 -0.449304 
0.747394 -0.223285 1.660661 -0.891546 0.369515 -0.082098 
-1.112791 0.573100 3.375947 -0.910612 -0.380817 0.142742 
-0.707349 0.465286 0.953181 0.906657 -0.102336 0.389888 
1.089632 0.394588 2.687358 0.966244 -0.095451 0.193085 
0.645884 0.285129 0.968631 -0.896222 -0.142026 0.370370 
-1.172494 0.785515 2.260394 -0.953541 -0.250334 -0.154368 
-1.025730 0.222634 2.732520 0.820366 0.554803 0.070225 
-1.044257 0.433609 3.407608 0.901721 0.400136 -0.140940 
0.368688 0.690804 -0.100888 0.624393 0.462897 -0.553305 
-0.769898 -0.203211 2.112894 0.680537 0.458050 0.475866 
0.950566 0.331731 1.916772 -0.899528 0.040143 0.393197 
0.176011 -0.783968 0.099280 -0.141459 -0.150440 0.873644 
-1.080762 0.886631 2.129844 0.856593 0.187970 0.357068 
0.535092 0.609592 0.536491 0.929518 0.228577 -0.186407 
-0.872058 0.350849 1.750960 0.978949 0.086727 -0.000692 
-1.231106 0.630529 2.884671 -0.931931 -0.356291 0.050994 
-1.042896 0.210727 2.564737 0.951323 0.231709 -0.140697 
0.986388 0.699562 2.339149 -0.917077 0.010839 0.130517 
0.048320 1.235142 0.292662 0.026244 0.765938 0.619011 
-0.763697 -0.272499 2.209882 -0.877670 -0.465275 -0.062140 
-0.693097 -0.190034 1.283692 -0.946302 -0.256074 -0.067374 
0.863751 0.212693 3.213435 0.899174 -0.236821 0.356686 
-0.426877 -0.521362 0.164324 0.414846 -0.011428 0.812890 
0.417444 0.345655 0.247144 -0.673453 -0.162036 0.674490 
0.216965 1.046838 0.023521 0.724400 0.401422 -0.492979 
1.054229 0.768244 2.266423 0.996788 0.004846 -0.058272 
0.636531 0.106878 0.756020 0.972779 -0.110990 -0.182719 
-0.801811 0.059357 1.780071 0.955861 0.252120 -0.049701 
-0.992013 0.951952 1.779512 0.815050 0.148791 0.525562 
0.712303 -0.491993 1.326104 0.962634 -0.200632 0.065103 
-0.699404 -0.288396 2.077984 0.686453 0.473980 0.466649 
1.047473 0.350668 2.220674 -0.961061 0.080816 0.239482 
1.011619 0.860376 2.160686 0.997737 0.004623 -0.032318 
0.757187 -0.352800 2.313066 -0.800983 0.528681 0.145328 
0.814905 0.447524 1.474826 0.951069 -0.272055 -0.140401 
-0.719948 -0.140896 1.809045 0.916838 0.372108 -0.092108 
0.722495 -0.048194 1.111573 0.960979 -0.174116 -0.174573 
1.100204 0.777329 2.750479 0.934080 0.199962 0.147323 
-0.250112 0.973235 0.033043 -0.770498 0.371600 -0.420895 
1.013652 0.083106 2.355474 -0.937369 0.272700 0.023505 
1.042970 0.402238 2.893785 0.952461 -0.184423 0.227117 
0.000717 -0.089349 -0.326964 0.371869 -0.184291 -0.879928 
-0.731649 0.029899 1.418777 -0.940486 -0.322018 -0.088317 
-0.278834 -0.512757 -0.131261 -0.545630 -0.258513 -0.789239 
-1.142403 0.515536 3.090049 -0.913768 -0.387071 0.094002 
0.217728 1.122403 0.474563 -0.305226 -0.156353 0.875070 
0.790545 0.815437 1.288613 0.938766 0.088490 -0.286503 
0.640035 -0.154876 0.775404 0.966397 -0.075008 -0.230748 
0.464813 -0.371915 0.248782 0.882932 -0.115690 -0.417403 
-0.386559 0.416565 0.241717 0.535903 -0.097504 0.703611 
0.806831 -0.046833 3.116979 -0.893173 0.331896 -0.279424 
0.743904 0.290530 1.329462 -0.904976 -0.028382 0.294633 
0.016110 -0.971794 -0.057940 0.421482 -0.004761 -0.881904 
0.666603 -0.219605 0.984966 -0.962382 0.078139 0.214313 
-0.295442 -0.577480 -0.087046 -0.619026 -0.230813 -0.727421 
0.661925 -0.350272 1.707404 -0.834556 0.471750 -0.243586 
1.047095 0.314586 2.795126 -0.941778 0.260013 -0.115403 
1.042842 0.152132 2.339376 -0.949562 0.232613 0.035222 
-0.203304 1.100049 0.039652 -0.731540 0.436389 -0.453729 
0.650276 0.367133 0.997423 -0.885505 -0.167484 0.388572 
0.965364 0.341341 3.053538 0.927053 -0.197110 0.297666 
-0.604739 -0.546308 1.292102 -0.936197 -0.218011 0.201858 
-0.785554 0.747634 1.183448 0.913585 -0.056313 0.355757 
-0.140508 -1.202022 0.001964 -0.420259 -0.121146 -0.764982 
-1.062386 0.677125 2.041304 -0.825329 -0.470053 -0.270494 
-0.648004 0.657452 0.720768 -0.898729 0.091508 -0.426865 
-0.528073 -0.542049 0.519847 0.799428 0.045495 0.439592 
1.028663 0.109133 2.281307 -0.943840 0.272837 0.087772 
0.355088 -0.767140 0.105622 -0.403228 -0.006471 0.883034 
0.877137 -0.037687 1.917102 -0.726678 0.375637 0.534497 
-0.664604 -0.633340 0.874222 -0.979796 -0.028759 -0.122477 
0.854378 1.090454 1.608364 0.762289 0.265072 -0.536080 
-0.101309 1.214480 0.027391 -0.581410 0.419066 -0.672298 
0.775621 0.039396 1.416066 -0.935236 0.137016 0.216569 
0.521939 0.386394 0.140393 0.923641 0.059598 -0.316744 
0.443976 -0.071779 0.208893 -0.525151 -0.134234 0.764126 
-0.283109 -0.944776 0.037233 -0.637711 -0.211901 -0.735675 
0.572952 0.526700 0.681914 -0.951976 0.130413 0.210236 
-0.492499 0.624236 0.247679 -0.877923 0.443307 -0.086697 
0.793786 -0.195619 1.752603 0.810419 -0.480534 -0.235241 
0.930572 0.944890 2.022806 -0.885508 -0.061336 0.379664 
-0.892365 0.743778 1.488910 -0.894748 -0.433212 -0.079983 
-0.567340 0.207230 0.328334 -0.913823 -0.084355 -0.369280 
-0.097952 0.132240 -0.316004 -0.495643 -0.034560 -0.857755 
0.070317 1.179741 0.351290 -0.204001 0.634808 0.730679 
0.625279 0.438262 0.917132 -0.878684 -0.225254 0.412139 
0.272088 0.142707 0.236110 0.401857 -0.190390 0.892600 
0.473771 -0.250458 0.277973 -0.553150 -0.069448 0.698710 
0.058997 0.516444 -0.303793 0.436718 0.164380 -0.877771 
0.603258 0.316472 0.568796 0.899654 0.272746 -0.232174 
-0.647248 -0.533450 0.925843 0.977510 0.037330 0.070849 
0.717757 -0.398096 1.273402 0.960969 -0.192207 -0.011450 
0.076865 -0.552223 0.168252 0.186713 -0.223625 0.950752 
0.471865 0.315717 0.489140 -0.853222 -0.091730 0.445616 
0.944895 -0.028170 2.605987 -0.913736 0.292777 -0.159353 
-0.769494 0.080352 1.577745 -0.910442 -0.351673 -0.143708 
0.768782 -0.361162 2.383358 0.837673 -0.541693 -0.004834 
0.211481 -0.282601 0.203006 0.358765 -0.173243 0.887416 
0.201498 0.319379 0.338209 0.375761 -0.141731 0.914388 
-1.204850 0.615530 2.968557 0.947985 0.283289 -0.067723 
-0.889745 0.371376 1.824427 0.804358 0.210971 0.521433 
0.348763 0.456959 -0.185207 0.622565 0.029840 -0.767074 
0.125922 -0.217476 0.239654 0.186533 -0.177846 0.964136 
0.902941 0.033006 2.915299 -0.902731 0.366317 -0.156434 
0.210912 0.798055 -0.149816 0.532646 0.494010 -0.670254 
-0.051154 -0.314088 0.221637 -0.087706 -0.163460 0.979446 
-0.573737 -0.321020 1.544837 -0.892065 -0.404719 0.037879 
0.540984 0.370519 0.579275 -0.884826 0.375890 0.254733 
0.808010 -0.137521 1.473991 0.950818 -0.262573 -0.139583 
0.560210 0.126683 0.427873 0.938615 -0.088948 -0.299905 
-0.422971 -0.931482 0.389503 -0.768168 -0.131202 -0.499089 
0.505454 -0.057276 0.254645 0.907364 -0.076882 -0.392305 
0.719903 -0.302896 1.897053 0.767118 -0.561602 -0.261079 
0.249639 -0.822428 -0.012469 0.113945 -0.290763 -0.877435 
0.500905 0.243064 0.461641 -0.780925 -0.210733 0.519863 
-0.419265 -0.833890 0.344966 0.646057 0.032822 0.637061 
-0.380294 -0.765351 0.189155 0.505202 0.023499 0.786089 
0.859748 -0.060425 2.936488 -0.898716 0.380830 -0.169083 
-0.434121 0.363277 0.293590 0.718476 -0.134314 0.628819 
0.921240 0.538731 1.790104 0.961735 -0.150115 -0.021511 
-0.831719 0.699457 1.434417 0.915194 -0.063374 0.321527 
0.979936 0.184410 1.939293 0.981690 -0.095217 0.042435 
-0.236501 0.627733 -0.221093 -0.499242 0.235528 -0.818658 
-1.222068 0.705235 3.045326 0.964867 0.206753 -0.111558 
-0.565294 -0.545466 0.615846 0.850328 0.032483 0.356660 
-0.635314 -0.720768 1.074493 0.974262 0.042336 -0.044745 
0.255644 1.023172 0.080585 0.858160 0.405730 -0.252980 
-1.126737 0.576599 3.279315 0.930507 0.312547 -0.130944 
0.338510 -0.261500 0.145336 0.541892 -0.167492 0.785175 
-0.375155 0.735096 0.004568 -0.788545 0.546759 -0.238416 
0.119630 -0.856323 -0.054868 0.201957 -0.167072 -0.929154 
1.044303 0.290614 2.182534 0.941878 -0.161379 -0.241070 
-0.765315 0.376902 1.390089 0.923188 0.068815 0.255390 
-0.506585 -0.144464 0.223579 -0.897259 -0.108809 -0.392106 
0.878641 0.768458 1.689409 0.949273 -0.243274 -0.007840 
0.643190 -0.531022 1.078978 -0.972094 0.094865 -0.016539 
0.035768 0.087095 -0.341959 0.453521 -0.055338 -0.872288 
0.593156 0.355750 0.417200 0.966547 0.052100 -0.195181 
-0.857129 -0.207727 2.386782 -0.885280 -0.449895 -0.082277 
-0.622532 -0.660177 0.801831 0.926947 -0.005916 0.212817 
0.301603 0.781613 0.263480 0.709053 0.269341 0.589497 
-1.280236 0.879507 2.709433 -0.978338 0.077775 -0.056702 
-0.251090 -0.165187 0.211675 -0.484176 -0.193705 0.828722 
-0.276143 -0.438903 -0.162393 -0.522575 -0.269023 -0.804997 
0.395699 0.530270 -0.105183 0.693527 0.136823 -0.625855 
0.883662 0.174996 3.137616 0.906890 -0.253510 0.323111 
-0.845139 0.363762 1.678155 0.961111 0.095307 0.077396 
-1.066300 0.746483 2.071518 0.849955 0.224597 0.416909 
-0.285073 0.492435 -0.216481 -0.550638 0.072892 -0.820102 
-0.939908 -0.038859 2.383735 -0.883434 -0.431899 -0.139434 
0.633467 0.008875 0.745119 0.970772 -0.093892 -0.202784 
-1.129273 0.816641 2.316356 0.879159 0.236024 0.273414 
0.794173 1.288851 1.612329 -0.846647 0.102071 0.261179 
-0.632194 -0.383921 2.073630 0.708420 0.490899 0.425713 
0.753200 0.811948 1.418731 -0.854809 -0.309652 0.387268 
0.967002 0.029959 2.656868 -0.926495 0.247462 -0.202994 
-0.539180 -0.528623 2.077900 -0.824633 -0.521765 -0.175797 
-0.823445 0.762640 1.333520 0.908738 -0.120188 0.364694 
-0.515670 0.294930 0.116961 -0.890296 -0.022906 -0.425398 
-0.561224 -0.385129 1.810381 -0.771678 -0.534313 -0.185336 
0.752975 0.563043 1.225767 0.964676 -0.231356 -0.108263 
-1.044722 0.510371 2.082654 -0.872958 -0.326708 -0.317268 
-0.799360 -0.196698 2.861026 -0.869669 -0.476967 0.065076 
-0.549813 -0.862622 0.687548 0.824334 -0.015629 0.343687 
0.601878 -0.203274 0.730765 -0.959726 -0.015140 0.272674 
0.742364 -0.204227 1.226209 0.956549 -0.191467 -0.154528 
0.435705 0.120027 0.217070 -0.571009 -0.190794 0.753917 
-1.157464 0.684451 2.545357 0.905045 0.281083 0.133173 
0.377526 0.730877 -0.004381 0.765035 0.566675 -0.261209 
0.618204 -0.013134 0.679349 0.970047 -0.088488 -0.218611 
0.560750 0.416389 0.510961 0.859748 0.444974 -0.193851 
0.463275 0.041565 0.080261 0.885897 -0.083397 -0.444321 
-1.148315 0.511781 2.429288 0.892795 0.338366 0.260180 
0.988428 0.086756 2.707626 -0.939005 0.203064 -0.246034 
-0.311596 0.674799 -0.189624 -0.553484 0.314884 -0.763826 
0.331482 0.624481 0.280583 0.532750 -0.088882 0.785786 
-0.472856 -0.108250 0.119147 -0.880977 -0.105758 -0.434921 
-0.698833 0.116661 1.103173 0.936931 0.077917 0.247151 
0.603218 0.531414 0.901464 -0.963824 0.162269 0.154178 
-1.062718 0.392760 2.195870 -0.878061 -0.325831 -0.325966 
0.444490 0.343967 -0.052171 0.839989 -0.012036 -0.496633 
-0.959673 0.011598 2.335263 -0.892107 -0.407637 -0.158731 
0.764118 0.674975 1.266954 0.962126 -0.238451 -0.114506 
0.380796 0.749565 0.122507 0.873308 0.450494 0.086039 
-1.113384 0.388957 2.501954 -0.960662 -0.234878 0.021641 
-0.670484 0.483068 0.873753 0.909799 -0.080530 0.378701 
-0.006783 0.446956 0.386278 -0.050700 -0.125716 0.987007 
0.407284 0.031871 0.142952 -0.371465 -0.173671 0.839877 
0.799643 -0.219630 1.935688 0.868890 -0.474831 0.088640 
-0.580537 -0.602782 1.327385 0.937389 0.210318 -0.233975 
0.383437 0.385711 -0.139756 0.712814 -0.011347 -0.667649 
-0.353499 0.139201 0.195680 -0.211113 -0.194300 0.869730 
0.120143 0.262675 0.350269 0.257612 -0.170169 0.941820 
0.794744 -0.157863 3.023727 0.889943 -0.359988 0.257401 
1.013752 0.647665 2.287930 -0.927659 0.009556 0.211214 
0.820418 0.795575 1.487208 0.949582 -0.275061 -0.144506 
-0.903073 0.961711 1.545042 0.914729 -0.156464 0.344269 
-0.714382 0.486764 1.026477 0.903564 -0.083070 0.382328 
-1.040793 0.454425 3.476721 0.899377 0.408906 -0.146210 
-0.794330 -0.173563 2.929265 -0.868717 -0.476214 0.089458 
0.111735 -0.695127 -0.081418 0.041062 -0.300235 -0.940143 
1.074695 0.461509 2.279389 0.912209 -0.222080 -0.323187 
-0.125970 1.254026 0.239156 -0.403090 0.799227 0.355652 
0.418286 0.663136 0.173831 0.199108 0.562519 0.745308 
-0.709593 0.016519 0.931995 -0.962903 -0.200316 -0.128855 
-0.943856 -0.035653 2.459871 -0.862962 -0.476054 -0.124731 
-1.010710 0.851386 1.808335 -0.820211 -0.507625 -0.198048 
0.486281 -0.617638 2.129259 0.772831 -0.626677 -0.073894 
-1.040373 0.603565 2.053639 0.905363 0.093106 0.331143 
-0.622444 -0.766461 0.838848 0.925217 -0.023743 0.197177 
-0.597583 -0.616978 1.152970 0.953805 0.132815 -0.157982 
-0.641780 -0.289069 0.819861 0.970560 0.078797 0.133192 
0.391660 -0.516414 0.022137 -0.266430 -0.046788 0.953957 
0.302228 0.033941 -0.189242 0.570756 -0.126917 -0.801369 
-0.642617 -0.358731 0.844363 0.972628 0.065807 0.115652 
0.436681 -0.466031 0.169917 -0.431031 -0.033515 0.808595 
-0.704841 0.371973 0.990105 0.914821 -0.055295 0.352304 
-0.615540 -0.217264 0.623900 0.875420 0.028575 0.320070 
0.634008 -0.371381 0.941269 -0.967515 0.059255 0.123990 
-0.947000 0.987632 1.423693 -0.809562 0.165310 -0.389210 
0.291354 0.923745 0.077345 0.877021 0.353308 -0.234200 
0.646163 0.203077 0.795555 0.974403 -0.128239 -0.158752 
0.758696 0.229492 3.429431 0.877633 -0.229221 0.416268 
-0.518360 0.386176 0.508051 0.872528 0.286907 0.357572 
-0.604627 -0.352455 0.586139 -0.918646 -0.124958 -0.288053 
-0.197423 0.832807 -0.135612 -0.537721 0.482240 -0.679829 
0.061481 0.305362 0.365104 0.151529 -0.174239 0.961739 
-0.197040 1.046360 -0.015426 -0.639917 0.392332 -0.647143 
0.797852 0.805975 1.572786 -0.864374 -0.274701 0.339309 
-0.738980 0.318579 0.953349 -0.958172 -0.256645 -0.069339 
-0.615593 0.298856 0.428282 -0.943557 -0.004885 -0.287973 
0.458610 -0.470641 0.281682 -0.545245 -0.021570 0.700538 
-0.607150 -0.527218 0.676435 -0.922383 -0.090749 -0.251962 
0.612600 0.679043 0.826768 -0.970038 0.058680 0.223360 
-0.103765 0.543876 -0.277638 -0.434009 0.165910 -0.872047 
0.606735 0.254437 0.531568 0.970911 -0.040256 -0.198653 
1.029124 0.697271 2.466527 -0.940719 0.046260 0.090960 
-0.563693 -0.462958 2.048804 0.760497 0.504365 0.358091 
0.059399 -0.453408 -0.215889 0.220341 -0.461720 -0.850991 
0.819132 0.278569 1.576964 -0.924587 0.019499 0.200826 
0.704546 0.654999 1.227664 -0.862183 -0.262905 0.401761 
0.190151 0.249337 0.323979 0.355031 -0.162243 0.918343 
0.516666 -0.633497 0.524736 0.838050 -0.069046 -0.425989 
-0.449557 -0.000824 0.196667 0.502492 -0.166826 0.778232 
1.082076 0.356009 2.308536 0.916819 -0.251211 -0.290083 
-1.241988 0.914541 2.425682 -0.969958 0.026825 -0.168599 
-0.630953 -0.864303 0.894804 0.935383 -0.043025 0.163758 
0.622470 0.019533 0.841032 -0.930500 -0.072685 0.317775 
-0.484756 -0.210671 0.268864 0.527408 -0.068888 0.700832 
0.213155 -0.205682 -0.223488 0.503845 -0.182238 -0.832213 
0.843382 -0.186972 2.714310 -0.889130 0.387494 -0.134689 
1.071946 0.684744 2.996463 0.874580 0.234337 0.403476 
-0.301815 -0.646023 -0.053548 -0.654892 -0.216029 -0.699737 
-0.624442 -0.550047 0.768105 0.931229 0.011949 0.224997 
0.464698 -0.611142 1.487074 -0.783174 0.544472 -0.241098 
-0.898733 0.769220 1.667980 0.776045 0.109640 0.604014 
-0.715212 0.388496 0.750833 -0.958834 -0.073100 -0.216429 
-0.698705 -0.115439 1.644297 0.928463 0.345154 0.024921 
0.799817 -0.329626 2.526683 0.844386 -0.529552 0.005873 
0.102330 0.072971 -0.308851 0.492965 -0.055418 -0.856090 
-0.212362 0.132008 -0.249681 -0.538523 -0.066952 -0.829476 
0.945161 0.857969 2.129194 -0.894099 -0.038316 0.287358 
-0.681735 -0.067870 1.005128 0.956317 0.106991 0.205812 
0.584570 -0.631930 0.681217 -0.856684 -0.057318 0.367599 
0.683651 -0.307215 1.643244 -0.861378 0.421352 -0.135947 
-0.961742 0.226740 3.307945 0.885298 0.444053 -0.137723 
0.160851 1.124708 0.430873 -0.296205 0.049452 0.891975 
-1.036132 0.932571 1.978126 0.837945 0.147646 0.419615 
0.525694 -0.964642 0.533070 -0.716272 -0.123532 0.522600 
0.290169 -0.207803 0.185243 0.542912 -0.182928 0.800193 
0.446938 0.687848 0.103056 0.630750 0.721852 -0.098431 
-0.914970 -0.104000 2.463372 -0.867710 -0.473063 -0.111091 
-0.350896 -0.606976 1.590692 -0.819791 -0.547150 0.162514 
0.581256 -1.004646 0.551096 -0.783859 -0.308382 0.434313 
0.786794 -0.360236 2.464546 -0.846174 0.530325 0.029339 
0.592240 0.457808 0.822273 -0.942504 0.240394 0.165572 
-0.869188 0.460253 1.764265 0.901784 0.161693 0.312626 
-0.843625 -0.243276 2.573627 0.887408 0.442469 0.032370 
-0.624078 0.111892 0.691633 0.918806 -0.120536 0.353139 
-0.954002 1.026634 1.662560 0.876447 -0.038823 0.436575 
-0.818062 0.673722 1.049875 -0.942053 -0.091322 -0.226528 
0.488210 -0.547828 0.492397 -0.763680 0.004115 0.501833 
-1.018192 0.367372 3.399685 -0.888160 -0.432275 0.150672 
0.333003 0.030909 0.179852 0.410084 -0.170720 0.864892 
0.554706 0.060514 0.613760 -0.887923 -0.129974 0.372868 
-0.625711 -0.411125 0.670219 -0.934905 -0.102692 -0.244056 
-1.012881 0.592209 1.984232 0.894781 0.085175 0.363581 
-0.639916 -0.634229 1.028573 -0.970030 -0.086373 0.034509 
-0.620064 0.090725 0.514411 -0.941774 -0.099405 -0.292965 
0.421619 -0.554393 0.194255 -0.466802 -0.021160 0.788596 
0.374644 -0.723447 0.197728 0.736276 -0.153297 -0.596656 
-0.153810 -0.373724 -0.224560 -0.419462 -0.297191 -0.844292 
-0.888676 -0.160775 2.550163 -0.855116 -0.506426 -0.078382 
-0.263168 1.020521 0.094580 -0.887056 0.407166 -0.196987 
0.367189 0.514449 0.273515 -0.875137 0.214024 0.430946 
-0.704111 0.112274 1.180946 0.935874 0.108554 0.230723 
-0.179148 -0.521977 -0.135374 -0.097860 -0.454042 -0.861933 
0.721977 -0.862068 0.947240 0.971476 0.131722 -0.187234 
0.773073 -0.168372 1.531093 -0.936461 0.282881 0.105043 
0.040740 1.095802 0.395865 -0.057161 0.270606 0.926605 
0.738277 0.624046 1.165740 0.967880 -0.221639 -0.100752 
0.181400 -0.388453 0.196622 0.244668 -0.189667 0.947738 
0.656662 -0.405697 2.042702 0.824111 -0.546380 0.011100 
0.625140 -0.414400 1.482597 -0.872362 0.384571 -0.073596 
-0.723765 0.198079 0.863087 -0.963795 -0.214117 -0.099459 
-0.388966 -0.158669 -0.076987 -0.816333 -0.130547 -0.540873 
-0.564965 0.241794 0.570527 0.831179 -0.189009 0.483113 
0.117698 1.028515 -0.063762 0.503488 0.437058 -0.723593 
0.860082 0.214529 1.654633 -0.955190 0.025643 0.084276 
-0.367870 -0.985893 0.267320 0.573398 0.024458 0.728227 
-0.337861 -0.437198 0.100234 -0.371443 -0.141699 0.831805 
1.104373 0.597311 2.405812 0.994531 0.062847 -0.036168 
0.986788 0.702756 2.249142 -0.914732 -0.005142 0.212799 
0.762725 0.878243 1.459954 -0.849836 -0.338515 0.391337 
-0.579200 0.380307 0.584042 0.873265 0.365644 0.310495 
1.026778 0.921336 2.306646 -0.898456 0.247281 0.212575 
0.781243 0.203266 1.453790 -0.919924 0.050851 0.243187 
1.118977 0.757323 2.608568 0.994025 0.027969 -0.012438 
-0.530472 0.609343 0.472205 0.874984 0.193145 0.415812 
-0.757788 0.327167 1.220552 -0.943401 -0.321711 -0.056595 
-0.209496 0.905561 0.339587 -0.586578 -0.029552 0.778081 
-0.316439 -0.793315 0.028163 -0.717463 -0.189095 -0.649950 
-0.362380 0.343851 0.224888 -0.021759 -0.194590 0.894412 
0.624939 0.095322 0.861703 -0.920521 -0.098481 0.335697 
-1.029565 0.189958 2.477917 0.940425 0.261894 -0.048122 
0.989367 0.295194 1.968260 0.974076 -0.010034 -0.116836 
0.684233 0.527469 1.141238 -0.871414 -0.209027 0.395775 
-0.742731 0.258506 1.173707 -0.948846 -0.300552 -0.063653 
-0.461737 -0.784266 0.435756 0.704949 0.026967 0.550403 
0.366533 0.033702 -0.118533 0.698238 -0.136512 -0.653545 
-0.294362 0.884645 0.239256 -0.880367 0.192832 0.422431 
-0.639150 0.298135 0.502166 -0.955985 -0.002552 -0.256545 
-0.429721 -0.759494 0.345529 0.661497 0.041827 0.624992 
-0.253900 0.831325 0.294857 -0.681980 0.135219 0.672986 
-0.185338 0.110415 0.284714 -0.314319 -0.206671 0.924652 
0.620747 -0.432486 1.986035 0.817104 -0.554234 0.006723 
-0.843583 0.829185 1.375818 0.908568 -0.138104 0.369198 
0.863040 -0.034145 1.837901 -0.923744 0.255013 -0.188066 
0.245847 0.974644 0.024861 0.757716 0.375903 -0.444343 
-0.310614 -0.142190 -0.164668 -0.573914 -0.184378 -0.776406 
0.312481 -0.299276 -0.142476 0.598858 -0.226683 -0.732054 
-0.627615 -0.453825 1.285429 -0.939059 -0.226741 0.130814 
-0.189640 -1.082054 0.091457 0.456780 0.049491 0.860940 
-0.225165 -1.154995 0.110439 -0.219888 0.206089 0.825150 
-0.489717 -0.479011 1.801144 0.847413 0.491156 -0.059983 
-0.859501 0.303788 1.818492 0.928275 0.205374 0.246438 
-0.582561 0.610773 0.586003 0.907895 0.066112 0.399915 
-0.321508 -0.926694 0.107543 0.453819 0.028095 0.873527 
0.200036 0.739761 -0.188190 0.436881 0.472950 -0.743890 
-0.363192 -0.611527 1.663837 0.821977 0.540838 -0.113562 
-0.518349 -0.404114 1.547310 -0.875514 -0.433161 0.077637 
0.396930 -0.176790 -0.058665 0.860804 -0.125969 -0.490366 
-0.582491 -0.468758 0.585526 -0.897224 -0.120100 -0.310448 
1.018910 0.281822 2.854550 0.941159 -0.170440 0.273860 
-0.436840 -0.499090 1.647188 -0.804946 -0.538443 0.041516 
-0.937238 0.095627 2.069692 -0.924059 -0.337406 -0.117955 
0.659144 0.742300 0.984216 0.823011 0.275190 -0.393572 
0.609699 -0.971976 0.640893 0.840531 0.234395 -0.369181 
-0.646275 0.116632 0.608240 -0.954213 -0.110827 -0.263301 
-1.060748 0.324901 2.953967 0.858910 0.487939 -0.004149 
0.990060 0.123085 2.777435 0.931333 -0.179381 0.288225 
0.626468 -0.714670 0.762379 -0.886678 -0.091527 0.318310 
-0.216199 0.203169 0.294247 -0.354492 -0.176872 0.915441 
0.044932 1.103846 -0.051353 0.348908 0.442852 -0.814163 
0.739341 -0.279186 1.971958 -0.691723 0.507184 0.448107 
-1.025701 0.198593 2.355160 0.929414 0.289572 0.075612 
-0.658651 -0.381663 2.146807 0.740104 0.488515 0.362415 
0.282338 -0.571995 0.103965 0.374919 -0.166406 0.884144 
-0.659798 -0.856013 0.965640 -0.984273 0.015283 -0.081068 
0.350947 -0.800871 0.172953 0.703120 -0.163145 -0.639056 
-0.823811 -0.038252 3.147084 -0.871797 -0.465280 0.151802 
0.728998 0.183306 1.137358 0.966315 -0.202420 -0.124969 
0.067860 -0.621539 0.157513 0.298139 -0.254169 0.914583 
0.964887 0.196006 1.824444 0.986381 -0.085523 -0.012747 
1.053916 0.214141 2.373778 -0.955034 0.187984 0.037888 
-0.841051 0.691346 1.245433 -0.919918 -0.375247 -0.055770 
-0.174945 1.188080 0.432522 0.493374 0.473641 0.678156 
-1.135601 0.474686 3.026113 -0.910837 -0.399294 0.077609 
-0.795459 0.148749 1.654409 0.960549 0.200195 0.055497 
-0.561949 -0.164309 0.381039 -0.922402 -0.107644 -0.327867 
-0.614566 -0.580110 1.070632 0.961789 0.101055 -0.076723 
-0.101617 -0.558680 0.162959 -0.203200 -0.231952 0.948723 
0.481899 -0.582689 1.803779 0.755711 -0.614356 0.011724 
-0.774046 0.822353 1.024849 0.834414 0.309615 0.119344 
-0.116092 0.685374 0.364240 -0.108395 0.100850 0.980722 
1.012995 0.372720 2.951569 -0.949345 0.150726 -0.238613 
-0.408020 0.592813 0.262635 0.606004 0.296401 0.534176 
0.501883 0.197366 0.176812 0.904464 -0.076847 -0.396416 
0.666545 -0.632197 0.959094 -0.968985 -0.032032 0.112934 
0.521667 -0.473175 0.523885 0.859942 -0.092180 -0.405303 
0.037970 0.807046 -0.216439 0.417468 0.373292 -0.818880 
-0.266204 0.948223 0.278089 -0.839262 0.056966 0.495810 
0.498709 0.330737 0.092456 0.907021 -0.000485 -0.374724 
-0.018632 0.740681 -0.250365 -0.282326 0.369224 -0.881956 
-0.416262 -0.993656 0.349621 -0.748785 -0.048122 -0.525015 
-1.125069 0.399402 2.579372 -0.951580 -0.270753 0.045557 
0.638541 -0.453542 0.953623 0.967547 -0.102338 -0.051539 
-0.529656 -0.438988 1.848828 0.855044 0.475852 -0.039266 
0.719496 -0.299040 1.822761 0.766263 -0.556737 -0.208873 
0.642453 0.317173 0.776568 0.977121 -0.147633 -0.140084 
0.705687 -0.373732 1.197461 0.961530 -0.173191 -0.046448 
0.526147 0.177032 0.536152 -0.833298 -0.180737 0.448328 
-0.433995 -0.167991 0.135569 0.405592 -0.120543 0.843780 
0.548966 -0.500259 1.768729 0.758233 -0.595390 -0.022343 
0.598785 0.349880 0.496709 0.925632 0.205550 -0.213984 
0.647778 -0.537621 0.991926 0.968673 -0.086337 -0.026313 
0.828630 -0.214774 2.118459 -0.727936 0.485571 0.384956 
1.084849 0.465222 2.832329 0.964181 -0.164583 0.203807 
0.329535 -0.867605 0.148119 0.674323 -0.172036 -0.676352 
-1.235393 0.693492 2.965915 0.962636 0.229382 -0.081764 
-0.809921 -0.075971 3.080776 -0.874372 -0.458114 0.152543 
-1.224207 0.735794 2.433223 -0.954077 -0.237211 -0.178040 
-0.347815 -0.524184 -0.043913 -0.802894 -0.168677 -0.557405 
-0.912715 0.091810 3.041815 0.860106 0.487104 -0.072492 
0.280893 -0.208130 -0.183756 0.531557 -0.202810 -0.813400 
0.152999 1.019094 0.393396 0.270226 -0.201902 0.909404 
0.628601 -0.353883 0.727935 0.956219 -0.027875 -0.259584 
1.124535 0.621785 2.539908 0.991657 -0.001166 -0.043764 
0.564644 -0.481608 1.874013 -0.808420 0.537938 -0.100703 
-0.695239 0.239201 0.758256 -0.961205 -0.172985 -0.170411 
-0.557581 0.430911 0.207584 -0.923068 0.140882 -0.288680 
-0.475564 -0.567529 0.370468 0.660311 0.033196 0.591725 
-0.945009 -0.028068 2.541692 0.919589 0.337781 -0.044525 
0.917926 0.850509 1.843395 0.915405 -0.338003 -0.166320 
0.635365 -0.038311 0.880488 -0.938806 -0.031910 0.293876 
-0.776878 -0.012361 1.775940 0.943296 0.299063 -0.045128 
-0.511044 -0.073023 0.210508 -0.896363 -0.097328 -0.398073 
0.889341 0.123626 3.076094 0.905213 -0.232689 0.343678 
0.724827 -0.229966 1.542761 -0.907229 0.335698 0.041157 
0.126485 -0.470391 0.187222 0.171136 -0.223280 0.958377 
-0.416604 0.417661 0.342014 0.825548 -0.001543 0.523286 
1.045350 0.536128 2.255712 -0.955406 0.043869 0.258621 
0.540254 -0.621344 0.593807 -0.807556 -0.033627 0.434856 
-0.765295 0.305337 1.295301 -0.937883 -0.334474 -0.064377 
0.498152 0.631586 0.110807 0.854555 0.427513 -0.197281 
-1.283987 0.823714 3.023505 -0.984254 -0.000519 0.127108 
-0.775928 0.546674 1.040062 -0.947002 -0.313026 -0.036271 
0.021200 -0.497916 -0.173711 0.087292 -0.670545 -0.734496 
0.812762 0.060079 3.227599 -0.893266 0.280890 -0.347365 
0.726981 -0.308478 1.464319 -0.934295 0.269656 0.025626 
1.038470 0.208222 2.222062 -0.951733 0.205435 0.187122 
-0.781024 -0.316051 2.373730 0.823700 0.470813 0.193592 
0.714443 0.607500 1.035843 0.959175 -0.062489 -0.173760 
-0.947740 0.093201 2.785915 0.925840 0.308830 -0.165744 
0.155660 -0.541378 0.156248 0.216085 -0.231959 0.946965 
-0.015173 0.357158 0.379095 -0.067584 -0.169084 0.978541 
0.189483 1.015614 -0.038969 0.623542 0.409588 -0.659738 
-0.700073 -0.075983 1.269844 0.952073 0.208845 0.152121 
-0.254471 -0.799245 -0.017973 -0.111217 -0.307461 -0.875894 
-0.674499 -0.562121 0.866559 -0.986098 -0.037108 -0.120367 
0.725440 0.847494 1.227053 0.573822 0.498049 -0.512005 
-0.401914 0.363876 -0.123696 -0.735105 -0.008262 -0.647056 
-0.104595 -0.825272 -0.073230 -0.165767 -0.170715 -0.933330 
-0.127283 0.240533 -0.307228 -0.516823 -0.005656 -0.850252 
-0.357555 0.533857 0.221556 -0.194891 0.071841 0.895821 
-1.088069 0.322111 2.508072 -0.811672 -0.527350 -0.219433 
0.534954 0.462772 0.138097 0.934760 0.136304 -0.271643 
0.823867 -0.300011 2.439623 0.852818 -0.512730 -0.023026 
-0.969799 0.113295 2.131241 -0.918788 -0.344198 -0.160772 
-0.848058 0.222778 1.843000 0.893308 0.241985 0.279403 
0.958304 0.762715 2.168325 -0.899961 -0.027795 0.250676 
1.052653 0.600074 2.212712 0.990665 -0.007155 -0.074247 
-0.917877 0.034029 2.817696 -0.837468 -0.522652 -0.006646 
-0.284620 0.957834 0.207938 -0.918063 0.297227 0.186983 
-0.430971 0.190737 0.185262 0.479747 -0.239824 0.796964 
0.758863 -0.247280 3.024347 0.883581 -0.403521 0.233189 
-0.482957 -0.099436 0.276458 0.559345 -0.108531 0.692672 
0.877751 -0.153450 2.217226 -0.812601 0.439810 0.248004 
-1.133935 0.522335 2.354839 0.884134 0.329185 0.304514 
-0.931067 0.488363 1.783745 -0.930844 -0.280715 -0.046111 
0.936553 0.582547 1.849210 0.952303 -0.135909 -0.133623 
-0.261191 -0.775571 0.105682 -0.089109 -0.050934 0.908202 
0.750203 0.958266 1.512780 -0.959557 0.034151 0.247316 
0.268814 -0.949721 0.030033 0.559637 -0.211708 -0.784251 
1.113917 0.857455 2.590805 -0.972214 0.166879 0.157239 
0.413592 -0.262229 0.027022 0.870360 -0.127407 -0.465379 
1.063019 0.211966 2.294907 0.925846 -0.300017 -0.195652 
1.096532 0.540612 2.779198 0.971766 -0.117808 0.154791 
-0.515966 -0.577888 2.124272 0.779238 0.523637 0.290280 
0.453582 0.280810 0.308171 -0.673209 -0.232336 0.665239 
-0.872176 0.775775 1.554456 0.921453 -0.071765 0.294356 
-0.636343 -0.488457 2.295136 -0.835967 -0.517508 -0.147343 
-0.764098 -0.089557 1.790096 -0.788916 -0.459879 -0.348219 
-0.478998 -0.449775 1.675658 -0.796144 -0.534238 -0.018580 
1.033506 0.605412 2.359098 -0.938327 0.027970 0.171207 
-0.112965 -0.443134 -0.209090 -0.299827 -0.400704 -0.852816 
-0.121491 -0.038596 -0.289391 -0.488408 -0.099875 -0.852336 
0.518717 0.285801 0.193659 0.917623 -0.037189 -0.350712 
-1.028980 0.887227 1.921723 0.831736 0.160883 0.469528 
0.632028 0.259107 0.708069 0.979133 -0.114985 -0.155608 
-0.555736 -0.216873 0.461255 0.715415 -0.015088 0.494501 
0.512330 0.001865 0.460383 -0.771747 -0.116782 0.517591 
0.293667 0.550377 -0.209210 0.553176 0.137720 -0.806378 
-0.740101 0.006354 1.538176 -0.933247 -0.345683 -0.091759 
-0.779409 0.565819 1.288365 0.912808 -0.044636 0.329330 
0.487460 -0.330656 0.310075 -0.566728 -0.040197 0.668278 
0.641080 0.675578 0.898252 0.881862 0.237452 -0.385200 
-0.864467 0.434942 1.608889 -0.859044 -0.382553 -0.234662 
-0.068973 0.406713 0.382188 -0.168487 -0.130676 0.963324 
0.153150 -0.059801 0.269096 0.263071 -0.191898 0.942979 
-0.133620 -1.135905 -0.040038 -0.616352 -0.046748 -0.759338 
-0.647645 -0.430842 0.736028 -0.955989 -0.083448 -0.199317 
0.691648 0.823708 1.121835 -0.853826 0.289288 0.026352 
-0.798684 0.815007 1.204025 0.775389 0.419113 -0.056083 
-1.135882 0.434698 2.868500 0.892784 0.427169 0.003365 
-0.786465 -0.117736 1.988761 0.604461 0.446388 0.625091 
0.611325 -0.228399 0.664483 0.959462 -0.053872 -0.269111 
-0.425700 0.041118 0.144681 0.435614 -0.195602 0.837012 
0.820437 -0.108951 1.610208 -0.943373 0.272422 0.068306 
-1.145085 0.468471 2.527265 0.883662 0.387519 0.195130 
-0.835849 -0.117572 2.857767 0.890249 0.421729 -0.091483 
-1.027949 0.717472 1.965522 0.892104 0.007886 0.354037 
0.493801 -0.560486 1.717518 -0.782422 0.570615 -0.164491 
1.012536 0.738371 2.126294 0.995790 0.041324 -0.004747 
0.124191 0.648850 -0.252277 0.406344 0.262175 -0.862156 
-0.019486 1.265326 0.021930 -0.603932 0.275747 -0.730208 
1.030495 0.202675 2.146654 0.952897 -0.172936 -0.186833 
1.047541 0.567261 2.617251 -0.951733 0.078181 -0.045567 
-0.786773 0.606225 0.928640 -0.902726 0.074448 -0.396845 
0.436159 -0.050168 0.024382 0.875699 -0.101012 -0.462902 
0.908318 0.867827 2.028953 -0.874109 -0.067109 0.314918 
0.261891 -0.147209 0.208778 0.492895 -0.188075 0.826842 
-0.589298 -0.410450 1.972463 -0.764524 -0.536511 -0.307528 
0.100871 -0.767275 0.091151 0.075577 -0.271517 0.922925 
-0.643112 0.186609 0.598076 -0.951442 -0.112886 -0.274096 
-0.527823 0.144497 0.427461 0.744762 -0.168328 0.549617 
0.961228 0.140424 2.883214 0.923291 -0.189935 0.312530 
0.040914 -0.051271 0.280680 0.110002 -0.204360 0.970885 
-1.028604 0.263559 2.917172 0.839762 0.521696 0.012708 
-1.203317 0.541598 2.780109 0.926937 0.359200 0.022264 
0.120401 0.910848 -0.125175 0.543578 0.427639 -0.696860 
-0.811998 0.398359 1.456815 -0.917792 -0.380654 -0.079903 
0.783506 -0.312168 2.678484 -0.864706 0.476418 -0.068897 
-0.645629 -0.710328 0.878233 0.957806 -0.022060 0.154198 
-0.972556 0.074314 2.297646 0.908831 0.355052 0.166353 
-0.503472 0.218992 0.100880 -0.882211 -0.060043 -0.448956 
-1.106016 0.752007 2.290413 0.875178 0.237752 0.275372 
-0.152899 -0.678572 0.123149 -0.099701 -0.206227 0.915240 
-1.038886 0.255692 2.267806 0.924221 0.299675 0.202771 
0.651134 -0.623909 1.061702 -0.972520 0.052678 -0.009731 
-0.454751 0.259223 -0.056550 -0.851819 -0.052145 -0.515556 
-0.932674 0.093038 2.875180 0.841215 0.519324 -0.011711 
0.442784 -0.210880 0.177999 -0.468877 -0.097153 0.795917 
0.894055 1.054539 1.781926 0.920496 0.250441 -0.102888 
0.206103 -0.287145 -0.218794 0.485130 -0.217641 -0.835413 
-1.103055 0.389198 2.387615 -0.829156 -0.460005 -0.293583 
-0.961533 0.234273 2.006792 -0.950258 -0.237104 -0.117678 
-0.543324 -0.667575 1.322727 0.926534 0.227541 -0.267472 
-0.577718 -0.550633 2.250019 -0.822891 -0.530915 -0.175641 
0.838228 0.740163 1.555498 0.944085 -0.283716 -0.158925 
-0.149063 0.714607 -0.221951 -0.401591 0.349694 -0.827951 
0.672904 -0.660577 0.836390 0.956088 0.058925 -0.231136 
-0.749982 -0.320135 2.274293 -0.869171 -0.477864 -0.078467 
-1.042097 0.298802 3.022694 -0.909516 -0.383278 0.139037 
0.560168 -0.834624 0.624512 0.849161 -0.000712 -0.389090 
0.316752 0.616612 -0.198064 0.562136 0.219143 -0.789232 
-0.168767 1.132727 0.371322 -0.865806 0.168789 -0.335364 
-0.469885 0.039632 0.256509 0.570291 -0.165971 0.714048 
-0.693905 0.532225 0.922906 0.909345 -0.083870 0.381804 
0.040558 1.009802 -0.100023 0.361979 0.478760 -0.782697 
0.313114 -0.144061 -0.159327 0.584479 -0.187583 -0.762189 
0.081125 0.969446 0.406268 0.191677 -0.111349 0.967911 
-0.649468 -0.170720 1.597647 0.918172 0.363267 0.029768 
0.709554 -0.835477 1.013819 0.972776 0.071857 -0.102351 
0.118483 -0.998940 0.007948 -0.281238 -0.262934 0.894187 
-0.632473 -0.038147 0.556595 -0.950115 -0.098178 -0.264992 
-0.104516 -0.554505 -0.137886 -0.052698 -0.416460 -0.904119 
-0.451589 0.369065 -0.050357 -0.821300 0.033508 -0.513153 
0.465674 -0.523357 0.366786 0.828600 -0.115692 -0.464420 
0.834046 1.049413 1.742538 -0.912502 -0.045068 0.387694 
0.922810 0.511571 1.856508 -0.872672 -0.096514 0.387736 
0.204513 0.178183 -0.256987 0.548435 -0.049511 -0.824971 
0.649694 -0.566141 0.811321 -0.947281 -0.078923 0.252770 
-0.604349 -0.908062 0.793749 0.895081 -0.105994 0.228741 
-1.201423 0.861530 2.395246 0.891704 0.279809 0.300117 
-0.015931 -0.562328 -0.122679 -0.349170 -0.458182 -0.807508 
-0.485630 -0.565965 1.464661 0.886667 0.366971 -0.179748 
-0.688532 0.040258 1.017177 0.945817 0.072981 0.238789 
0.861938 0.121949 1.651587 -0.964619 0.078735 0.064852 
0.879015 0.830613 1.629817 0.949241 -0.114404 -0.041031 
0.892252 0.433489 1.660133 0.884330 -0.226915 -0.343895 
-0.428864 -0.424204 0.127431 -0.852578 -0.152098 -0.461395 
1.012485 0.733419 2.396193 -0.931444 0.028892 0.134124 
-0.561202 -0.767379 0.669805 -0.889492 -0.071225 -0.282185 
0.977861 0.035829 2.080590 0.933005 -0.313638 -0.032712 
-0.136130 -0.716599 -0.063404 -0.071311 -0.309280 -0.940229 
-0.733777 -0.386504 2.373249 -0.857471 -0.495620 -0.100717 
-0.157707 1.086144 0.292750 -0.727453 0.436769 0.034361 
-0.101415 1.107503 0.384779 0.203693 0.199938 0.920589 
-0.449061 -0.674344 0.335340 -0.785940 -0.164677 -0.503573 
0.108948 -1.185339 -0.049516 -0.350429 -0.258852 0.656351 
-0.979584 0.183197 2.140698 0.890851 0.328532 0.287680 
-0.584324 -0.631012 0.665909 -0.905422 -0.084348 -0.270475 
-0.745371 0.491821 0.897198 -0.956729 -0.266128 -0.059623 
0.495250 -0.262271 0.350275 -0.617455 -0.054482 0.628215 
0.962211 0.878332 1.981952 0.997527 -0.001330 -0.013726 
0.276764 -1.104326 0.095792 0.557200 -0.145756 -0.768280 
-0.458016 0.439141 0.412072 0.865933 0.223525 0.414045 
0.716370 -0.217194 1.116941 0.958637 -0.161129 -0.172285 
-0.708900 -0.139038 1.518738 -0.935169 -0.322022 -0.045103 
-0.074420 -0.099278 -0.297881 -0.431028 -0.157611 -0.863537 
-0.132037 0.556531 0.388977 -0.315563 -0.086247 0.940878 
0.684416 0.146416 1.091680 -0.916495 -0.033392 0.307796 
0.577536 0.438978 0.339392 0.934479 0.218211 -0.216469 
0.458915 -1.083133 0.257724 0.679417 0.307901 -0.600042 
-1.173050 0.533251 2.542408 -0.958351 -0.247124 -0.057753 
0.881697 -0.121968 2.708337 0.861394 -0.480571 0.024419 
0.487494 -0.487387 0.440689 -0.709008 -0.003439 0.547218 
0.783281 -0.208620 1.835240 -0.872118 0.413381 -0.243913 
-0.739870 0.357067 0.889253 -0.960623 -0.247428 -0.066968 
0.007723 0.398788 -0.348389 0.441593 0.116262 -0.884985 
-0.823113 0.358272 1.554747 -0.902979 -0.389137 -0.117138 
-0.869179 0.047361 3.192969 -0.874962 -0.459709 0.149860 
-0.530364 -0.642352 0.560827 0.801045 0.027878 0.419575 
-0.550549 0.548422 0.172225 -0.913191 0.321897 -0.234748 
0.553001 0.042590 0.399308 0.931024 -0.070776 -0.331413 
-0.379594 -0.623620 1.751462 -0.810256 -0.553627 0.037744 
0.984565 0.382412 2.001560 -0.933125 -0.011545 0.325195 
0.262927 0.372587 0.289251 0.287378 -0.149196 0.937647 
-0.627450 -0.369697 1.445018 0.933813 0.273072 -0.087102 
-0.401575 0.621799 -0.080046 -0.696372 0.277769 -0.578114 
0.749271 -0.038818 1.306079 -0.944195 0.130796 0.214968 
-0.694120 0.282880 0.908016 0.924839 -0.054249 0.339047 
0.527517 -0.304334 0.418561 0.921236 -0.089951 -0.348428 
0.572691 -0.180788 0.520298 0.940795 -0.063551 -0.312647 
-1.151725 0.623808 2.490807 0.899152 0.300241 0.186587 
0.471686 0.394231 -0.006941 0.870534 0.046745 -0.423784 
-0.772398 0.276913 1.376335 -0.932180 -0.347679 -0.072857 
-0.493471 -0.035163 0.149402 -0.887121 -0.092777 -0.423277 
1.113752 0.796992 2.542906 0.997668 0.048520 -0.041417 
0.914112 0.127636 3.007531 0.911501 -0.218443 0.332073 
-0.695671 0.333992 0.688765 -0.948411 0.022033 -0.271322 
-0.540773 -0.459026 1.919477 -0.775120 -0.540409 -0.226573 
-0.628680 -0.293385 1.824464 -0.757411 -0.526875 -0.263714 
0.794304 0.139639 1.401434 0.955861 -0.259113 -0.128507 
-0.679597 -0.302635 2.011364 -0.868621 -0.467637 -0.085411 
-0.465412 0.509018 -0.005159 -0.807239 0.181389 -0.447459 
-0.442907 0.283558 0.210501 0.578647 -0.269669 0.763355 
0.880207 0.015720 1.667281 0.877421 -0.256969 -0.332132 
0.558229 -0.667301 1.345400 0.875959 -0.351108 0.214798 
0.843782 0.053638 3.123640 -0.896508 0.308779 -0.283815 
0.343870 -0.177549 0.143331 0.409653 -0.156402 0.832194 
0.013870 -1.186969 -0.080078 0.371108 0.079194 -0.905368 
-0.961974 0.321957 2.003415 0.873490 0.252075 0.400380 
-0.451211 -0.230184 0.103314 -0.876333 -0.126434 -0.440253 
0.743542 0.581790 1.359438 -0.876017 -0.190090 0.351511 
0.637598 -0.947061 0.718455 -0.855145 -0.236199 0.340384 
1.033932 0.831470 2.231568 0.997512 0.009715 -0.039731 
-0.697495 0.309694 0.763624 -0.958946 -0.182526 -0.168177 
-1.234578 0.771106 3.186909 -0.956706 -0.198534 0.129213 
-1.156976 0.999445 2.155886 -0.938886 0.204298 -0.145885 
-0.902639 0.836634 1.428425 -0.894830 -0.432861 -0.072995 
-0.202534 0.550320 0.341775 -0.278230 -0.103176 0.950120 
-0.501245 0.138001 0.109473 -0.883616 -0.065180 -0.441097 
0.991477 0.829901 2.070536 0.997068 0.007242 -0.022285 
0.949719 -0.047186 2.529935 0.856784 -0.501753 -0.079788 
0.553004 0.496101 0.304401 0.906078 0.334418 -0.204047 
0.625816 -0.528764 1.388782 -0.905063 0.302365 -0.116023 
-1.206579 0.673234 3.122075 -0.930112 -0.344733 0.103254 
0.447527 0.076170 0.015986 0.877936 -0.086028 -0.463521 
0.884712 0.426700 3.276290 0.906348 -0.160596 0.376213 
1.025335 0.232485 2.772630 -0.922021 0.337268 -0.079272 
0.278691 0.936412 0.251325 0.877945 0.163613 0.399662 
-0.094644 0.764663 -0.210545 -0.449198 0.394833 -0.778858 
0.398099 0.438384 0.346368 -0.870337 0.097524 0.436685 
0.756795 0.522338 1.400508 -0.884148 -0.146185 0.327723 
0.542983 -0.519661 1.482823 0.818452 -0.485503 0.162648 
-0.625164 0.230785 0.516328 -0.943203 -0.089045 -0.297644 
-1.290696 0.843097 2.941091 -0.982530 0.059352 0.095879 
-1.021085 0.813918 1.900861 0.882392 -0.062181 0.369004 
-0.594123 -0.293546 1.723211 0.886831 0.426421 -0.106248 
1.072392 0.239924 2.445155 0.893683 -0.378311 -0.189330 
0.594396 -0.309615 0.657129 0.934686 -0.062368 -0.298806 
0.679511 0.107444 0.935649 0.969261 -0.141854 -0.161079 
0.353363 0.703879 0.229546 0.750742 0.318589 0.486555 
-0.585574 -0.620769 1.241628 -0.936866 -0.196680 0.244684 
-1.011101 1.338561 1.553803 -0.890963 -0.047481 -0.074057 
0.139275 -0.193282 -0.258687 0.457025 -0.187891 -0.849891 
-0.934271 0.504238 1.711276 -0.896696 -0.288811 -0.195107 
0.492134 -0.854600 0.493921 -0.698845 -0.047647 0.556004 
-0.129479 -0.640532 -0.093839 -0.054529 -0.344302 -0.932924 
0.013643 -0.810768 0.097846 0.436241 -0.254469 0.859640 
-1.203846 0.616890 2.725854 0.926848 0.327020 0.051337 
-0.103311 -0.286522 -0.257307 -0.401190 -0.264098 -0.856444 
-0.794113 -0.157694 2.046278 -0.898025 -0.434738 -0.023244 
0.820233 0.808742 1.664724 -0.804765 -0.127113 0.527412 
0.056903 0.767922 0.364312 0.103214 -0.112909 0.978100 
-0.791403 0.022749 1.703074 -0.832489 -0.373152 -0.323420 
0.840922 0.000987 3.068972 -0.896469 0.333947 -0.250240 
-0.288648 0.322885 0.263237 -0.305426 -0.158718 0.929819 
-0.615049 -0.078350 0.639662 0.905344 -0.027685 0.321263 
1.071055 0.707193 2.312677 0.995969 0.026127 -0.049312 
0.521010 0.306392 0.601217 -0.905666 0.144231 0.296652 
0.502035 -1.028723 0.401230 0.740326 0.215799 -0.520192 
-0.448282 -0.093486 0.047156 -0.869579 -0.105347 -0.464343 
-0.285677 0.141241 -0.207893 -0.566882 -0.084487 -0.811333 
-0.663826 0.287316 0.606401 -0.940136 0.070857 -0.251198 
0.819075 -0.077077 3.047096 0.893595 -0.324950 0.283707 
0.229887 0.900053 -0.076387 0.643496 0.451700 -0.612608 
0.577526 -0.281013 0.577183 0.940777 -0.069494 -0.303043 
0.998131 0.297649 2.045553 -0.942162 0.064550 0.304623 
0.490014 0.068142 0.158498 0.897436 -0.071551 -0.419884 
-0.879803 -0.113562 2.267296 -0.895760 -0.421609 -0.095145 
1.039359 0.452530 2.944876 0.947767 -0.162098 0.256435 
-0.953977 0.800732 1.637495 -0.937219 -0.304279 0.055218 
0.307403 0.891973 0.140003 0.915852 0.296966 0.026324 
0.063296 0.030187 0.295664 0.158510 -0.211146 0.959410 
-0.962063 0.354160 1.940497 -0.947382 -0.182899 -0.185982 
-0.596031 -0.462173 2.125580 0.750881 0.503251 0.343355 
-0.156368 1.190468 0.067397 -0.703122 0.533599 -0.389309 
-0.702035 -0.138965 1.098190 -0.957239 -0.214796 -0.145667 
1.106992 0.524484 2.604801 0.982449 -0.030759 0.061201 
-0.040552 -0.880832 0.058429 -0.265510 -0.282205 0.886533 
-0.884265 -0.176235 2.461923 -0.874095 -0.466932 -0.097711 
0.481084 0.259052 0.085010 0.893586 -0.077813 -0.423354 
-0.619103 0.015130 0.509785 -0.942614 -0.095477 -0.286687 
0.011634 -0.213195 -0.303177 0.344286 -0.258660 -0.877585 
0.556959 0.267408 0.343549 0.940585 -0.043060 -0.285975 
0.672001 0.439626 0.808250 0.934994 0.113458 -0.287364 
0.479832 0.245712 0.391035 -0.731393 -0.214654 0.586451 
-0.837436 0.914980 1.211161 -0.611277 0.396643 -0.545695 
0.867288 0.869690 1.739384 -0.816880 -0.363428 0.379826 
-0.692814 0.411932 0.891076 0.908711 -0.113905 0.388923 
1.079070 0.515710 2.348052 -0.958026 0.039111 0.238122 
-0.445434 0.092695 0.195951 0.522353 -0.202054 0.778986 
0.812490 -0.305535 2.366441 0.851122 -0.519123 0.009994 
-1.161942 0.693391 2.288801 -0.962199 -0.221674 -0.140585 
-0.614507 0.616834 0.656206 0.921604 0.048308 0.371642 
-0.232792 0.617193 0.341372 -0.473686 -0.097893 0.848709 
-0.305949 0.888748 0.161417 -0.909262 0.277754 0.112982 
0.888784 -0.160234 2.543671 0.848590 -0.520318 -0.044079 
-1.186388 0.702044 3.288463 -0.927252 -0.345257 0.127096 
-0.529169 -0.611513 1.380766 -0.905045 -0.298099 0.233225 
-1.090228 0.793402 2.220093 0.866789 0.217183 0.307627 
0.449643 0.165879 0.274284 -0.632922 -0.195600 0.697494 
-0.677098 0.031839 0.862560 0.949546 0.018176 0.265854 
-0.198555 0.829754 0.339905 -0.505990 -0.015359 0.835403 
-1.150537 0.471254 2.929753 0.913527 0.390834 -0.025998 
-0.075160 1.217869 0.309205 0.050264 0.753892 0.618457 
-0.418325 0.682755 -0.031450 -0.695992 0.535273 -0.374401 
0.752078 -0.217713 1.344982 -0.960713 0.186946 0.126339 
0.736416 0.116377 1.167847 0.963851 -0.204307 -0.135411 
-0.378883 -0.263496 -0.074980 -0.832059 -0.142048 -0.524822 
1.084251 0.641386 2.925606 0.957484 -0.078124 0.245853 
0.474958 0.119072 0.090584 0.889410 -0.072523 -0.439949 
1.110399 0.515916 2.447117 0.991444 0.078642 0.003399 
0.949351 0.472033 1.919495 -0.898695 -0.072910 0.356454 
0.672792 -0.476184 1.385980 0.921526 -0.285929 0.080270 
-0.784162 -0.140321 3.039357 0.876635 0.458684 -0.125765 
-0.430007 0.470803 -0.064154 -0.755646 0.116676 -0.550585 
-0.712723 -0.380108 2.291968 -0.857498 -0.492229 -0.102453 
0.552701 0.532357 0.187903 0.932665 0.266661 -0.221963 
-1.152448 0.595632 3.178641 0.940561 0.280395 -0.123209 
-0.255122 -0.453653 0.153100 -0.418779 -0.188208 0.876102 
0.454202 0.328463 0.417432 -0.804499 -0.104048 0.508123 
0.899088 1.040912 1.889184 -0.793803 0.393256 0.343232 
