0.760671 -0.160491 0.199652 0.374944 -0.010448 -0.888101 
1.316617 0.517256 0.287564 0.030717 0.022953 -0.975694 
-0.366880 -0.284492 -0.024220 -0.655875 -0.034956 -0.745699 
-1.296804 -0.334193 0.362191 -0.206210 -0.119108 -0.956100 
0.463321 -0.109175 0.178885 0.036278 -0.184994 0.951438 
-0.336859 -0.434787 0.090558 -0.390872 -0.114580 0.889716 
1.423222 -0.268373 0.312240 -0.157575 0.042411 0.978478 
1.336305 0.346558 0.345335 0.073123 -0.228680 0.953278 
0.367083 0.685377 0.015096 0.653678 0.593415 -0.430632 
1.362243 0.698943 0.338752 -0.082594 0.175785 0.939659 
1.610951 0.239228 0.339462 -0.013167 -0.145347 0.953653 
-0.253677 0.934535 0.329748 -0.763079 0.186445 0.572946 
3.101195 -0.434753 1.028384 0.591438 -0.386010 -0.689848 
-2.584713 0.135697 0.258836 -0.193323 0.031482 0.979048 
0.225434 -0.881435 0.130605 0.031948 -0.014531 0.983594 
2.093761 0.429799 0.374745 -0.204169 -0.160891 0.884727 
-0.266988 -0.295361 -0.147025 -0.599819 -0.200714 -0.759372 
1.967989 -0.973642 0.687041 0.307429 -0.482870 -0.818430 
-0.007990 0.050784 -0.342794 -0.470111 -0.068219 -0.847023 
-3.768266 0.173935 0.478966 0.448333 0.097014 0.876637 
1.313714 0.261192 0.340830 0.040736 -0.198455 0.957478 
0.212332 0.569894 0.416459 0.147049 -0.209026 0.963404 
2.655932 0.450249 0.487583 0.406827 -0.047448 -0.910399 
-0.933139 0.108397 0.298790 -0.288267 -0.100216 -0.951042 
-0.390253 0.174395 0.042152 -0.730606 -0.034884 -0.662640 
1.841301 -0.414023 0.345851 -0.220828 0.209447 0.937551 
1.295647 -0.100151 0.294276 0.193231 -0.106074 -0.969394 
-2.055218 0.775777 0.427311 -0.401391 -0.283106 0.853656 
-0.312778 -0.253164 -0.063491 -0.652623 -0.102308 -0.737509 
-0.076523 -0.632913 -0.066170 -0.105643 -0.443057 -0.881830 
2.870978 -0.402552 0.764434 0.434038 -0.432557 -0.786781 
-2.023609 -0.522135 0.503949 0.145954 0.304840 0.930351 
-0.695388 -0.557114 0.240605 0.125341 -0.001277 0.983414 
-0.358745 -0.273789 0.095092 -0.213288 -0.159360 0.956852 
-0.295886 -1.167573 0.106321 -0.031657 -0.180964 -0.975972 
-1.142314 -0.141669 0.352559 0.150047 -0.037199 0.971899 
3.290100 0.411049 0.828930 0.682447 -0.098558 -0.712787 
1.858977 0.593461 0.359563 -0.030441 -0.298987 0.936970 
-2.945226 -0.161065 0.288751 0.036658 -0.368503 -0.922330 
0.551634 -0.742277 0.188887 -0.024369 0.020154 0.992828 
1.474119 -0.212715 0.315083 -0.136084 0.030438 0.975008 
0.183115 0.975888 0.390192 0.419979 0.113714 0.859849 
0.178456 -0.769008 0.152609 0.104992 -0.078923 0.975854 
1.257762 0.671975 0.333191 -0.013444 0.198235 -0.973901 
2.196789 0.085580 0.399775 -0.271475 0.008698 0.925232 
-0.279954 0.212263 0.283299 -0.099759 -0.309458 0.944998 
-3.140581 0.026047 0.252265 0.040708 -0.445238 -0.893923 
-1.816860 0.701868 0.434471 0.035718 -0.021357 0.979183 
2.855056 0.111524 0.575858 0.277296 -0.326182 -0.891237 
0.106114 0.683177 -0.154048 0.374350 0.546405 -0.721339 
3.420856 0.007784 1.143949 0.747947 -0.243921 -0.610263 
-0.961179 -0.072769 0.336484 0.161716 -0.097464 0.973371 
0.162303 -0.462824 -0.148556 0.393597 -0.389795 -0.814780 
-0.823893 -0.939131 0.240026 0.275291 -0.064370 0.954293 
-0.017190 0.690639 0.440959 -0.041500 0.160586 0.980968 
-0.208551 0.369878 -0.223762 -0.687842 0.121559 -0.675659 
-3.135979 0.371392 0.247360 0.106749 0.096060 0.958512 
1.866378 -0.610623 0.446308 -0.399292 0.338167 0.820870 
-1.349060 -0.386108 0.377697 -0.198691 -0.136966 -0.955181 
1.463635 0.573792 0.376747 -0.005900 -0.041728 0.981247 
2.915093 0.435543 0.674502 -0.459425 0.057080 0.821873 
1.813504 0.005632 0.300538 0.157844 -0.208128 -0.964616 
-3.624938 0.224746 0.386491 0.424725 0.045865 0.889238 
0.333493 -0.120731 0.191866 0.366225 -0.214505 0.838574 
-0.475131 -0.527736 0.120356 -0.102624 -0.055505 0.971754 
3.305841 -0.362364 1.204147 -0.691287 0.346712 0.632135 
-0.735917 0.009835 0.208469 -0.460968 -0.046986 -0.842505 
0.647324 0.200895 0.314653 -0.128983 -0.247830 0.953063 
-2.157822 -0.887861 0.653337 0.101946 -0.428306 -0.882439 
-0.340073 0.765901 0.101468 -0.816753 0.437191 -0.335439 
-3.058970 0.439089 0.250825 0.041500 0.081989 0.958448 
0.169813 0.237808 -0.272554 0.667081 0.031014 -0.717328 
-3.578235 -0.355144 0.533414 -0.301750 -0.318719 -0.896105 
-0.305771 -1.084674 0.095016 -0.154158 -0.200759 -0.937069 
0.097368 -1.193619 0.199509 0.383343 -0.153116 0.713119 
2.297025 0.692506 0.402020 0.493953 -0.035501 -0.865378 
-0.042434 0.118718 -0.341898 -0.517440 0.001176 -0.839876 
0.839456 0.172966 0.326399 -0.054035 -0.202555 0.972857 
-3.418890 -0.060801 0.384740 0.197461 0.329234 0.907663 
0.322128 -0.394963 0.146977 0.633195 -0.123079 0.741263 
1.787077 -0.468505 0.337798 0.208585 -0.240619 -0.936318 
-1.707024 -0.631614 0.515009 0.115609 0.256507 0.945357 
-2.271681 -0.339723 0.424517 -0.254755 0.264683 0.914708 
2.093652 0.341244 0.366209 -0.331816 -0.182422 0.860476 
-0.277312 0.026387 -0.177469 -0.702068 -0.076836 -0.679345 
-2.117390 0.233717 0.337523 0.297674 -0.198209 -0.896437 
2.717424 -0.424716 0.667819 -0.448481 0.300784 0.825064 
0.660929 -0.575170 0.198286 0.279921 -0.094911 -0.945017 
-3.379250 -0.333096 0.465055 -0.191682 -0.352914 -0.900161 
1.884468 -0.009434 0.325793 -0.131948 0.004067 0.959724 
-2.829752 -0.682542 0.450345 -0.018480 -0.382579 -0.923133 
2.008809 -0.225527 0.340226 -0.368875 0.107224 0.885533 
-2.858547 0.523806 0.204088 0.010851 0.008868 -0.997674 
-0.409345 0.545630 0.015118 -0.723041 0.231554 -0.638675 
-3.071027 0.174735 0.209243 -0.079573 -0.168455 -0.966919 
3.018526 0.645903 0.640605 0.478890 0.244840 -0.840175 
0.099853 0.861389 -0.068879 0.503301 0.312834 -0.782989 
0.522549 -0.546535 0.143967 0.078778 -0.042824 0.978390 
-1.579699 0.168811 0.368245 -0.108845 -0.245396 -0.958137 
0.254402 -0.729212 -0.002085 -0.009939 -0.362876 -0.920314 
-2.505887 -0.409416 0.386651 -0.344620 0.297502 0.834871 
1.293534 0.185531 0.298075 0.169902 -0.164782 -0.966637 
-0.989656 -0.661686 0.305847 -0.325610 -0.007990 -0.942387 
-0.369260 -0.046925 0.004727 -0.700679 -0.034984 -0.699017 
1.969069 -0.096035 0.308773 0.109913 -0.182184 -0.971670 
0.190350 0.691727 0.428141 0.239775 0.299842 0.898923 
-0.555957 0.148996 0.300773 0.188552 -0.242088 0.940653 
1.884253 0.157475 0.304920 0.147949 -0.218341 -0.963653 
-1.534687 -0.872791 0.562455 -0.217150 -0.299784 -0.915796 
2.113956 0.283737 0.329093 0.024185 -0.176922 -0.978190 
0.411032 -0.482359 0.013922 0.530594 -0.068531 -0.821209 
-1.873469 -0.115344 0.429967 -0.008807 0.096301 0.970917 
1.220935 -0.559717 0.308604 -0.154691 0.034818 0.983137 
-0.840508 0.134516 0.335441 0.102647 -0.185005 0.969822 
-3.073187 -0.010151 0.255654 0.043418 -0.416070 -0.904356 
-1.818340 -0.248537 0.411107 -0.025687 -0.238330 -0.969066 
1.038965 -0.617177 0.284353 0.195288 -0.018393 -0.977962 
0.704830 -0.121168 0.174596 0.424370 -0.013481 -0.857652 
1.227864 -0.088286 0.322371 -0.091779 -0.073303 0.974538 
1.520538 0.335787 0.344786 0.028337 -0.201899 0.951097 
-0.087603 1.281222 0.029906 -0.679408 0.539265 -0.396153 
-0.629065 -0.523439 0.168824 -0.382692 -0.087809 -0.903944 
0.055090 1.331070 0.057542 0.613311 0.707034 0.016244 
0.422852 0.196050 0.062640 0.697624 -0.028985 -0.680292 
0.542844 0.349278 0.343942 -0.147094 -0.128777 0.956258 
-1.582810 0.285425 0.363149 -0.112976 -0.252002 -0.955950 
0.022501 0.107611 0.280278 0.063794 -0.215156 0.971463 
-0.560152 -0.175691 0.096088 -0.555489 -0.033676 -0.797113 
0.021524 -0.522206 -0.141333 0.140315 -0.665533 -0.730831 
-0.495420 -0.786700 0.163747 0.026226 0.023140 0.989384 
0.174621 0.462301 -0.225103 0.602243 0.184939 -0.748343 
2.550595 -0.053914 0.477343 -0.313436 0.126071 0.932039 
1.957766 -0.405959 0.376500 -0.352410 0.236723 0.865673 
0.595749 0.435832 0.373797 -0.146485 0.191784 0.959787 
0.364720 0.342358 0.027650 0.763859 0.041616 -0.632972 
2.318640 -0.604270 0.598656 -0.066232 0.364072 0.880338 
3.484190 0.266119 1.125449 0.772855 -0.152893 -0.608021 
-1.621222 -0.271328 0.404430 0.059120 0.125713 0.976395 
2.105527 -0.245990 0.358785 0.048527 -0.227290 -0.961761 
-0.136086 -0.380652 0.241388 -0.197182 -0.082055 0.973774 
2.250690 -0.820793 0.695765 0.380486 -0.445522 -0.800293 
1.961365 -0.798966 0.579445 0.247103 -0.450482 -0.845390 
-0.184525 -0.095912 0.237443 -0.275900 -0.162953 0.909063 
-1.113543 -0.712514 0.369675 0.285723 0.031913 0.949637 
-1.677477 0.634068 0.352404 -0.105776 -0.216253 -0.956441 
0.684317 -0.004134 0.293738 -0.137548 -0.184641 0.960208 
-1.022483 -0.236611 0.314972 -0.280716 -0.049211 -0.953281 
-0.202253 -0.562471 -0.068965 -0.055927 -0.434409 -0.876950 
-0.636846 -1.023554 0.184015 0.223906 -0.048025 0.970485 
-0.047190 -0.537346 -0.127742 -0.119255 -0.578108 -0.797524 
-0.484732 -0.148357 0.057255 -0.608265 -0.034189 -0.763071 
-1.893079 0.029028 0.430183 -0.018775 0.023258 0.965344 
0.601385 -0.117849 0.119174 0.501292 -0.020207 -0.815936 
-2.128444 -0.385238 0.414875 0.249337 -0.330325 -0.888416 
-0.689093 -0.154853 0.254462 0.101208 -0.120905 0.959899 
-0.377222 -1.334418 0.179761 -0.885564 0.226057 0.248760 
-1.460268 -0.475649 0.418119 0.157468 0.129677 0.964698 
-0.316044 0.659897 -0.100380 -0.576791 0.451919 -0.667061 
2.190099 -0.257023 0.391782 0.014323 -0.267000 -0.953292 
1.774615 -0.732561 0.472626 0.281061 -0.416088 -0.848890 
-0.375942 -1.047080 0.113308 -0.313568 -0.180757 -0.929029 
-0.177050 -0.135480 -0.226981 -0.565098 -0.117165 -0.796002 
3.578272 0.166091 1.319462 -0.812476 0.121608 0.553675 
-1.042974 -0.322723 0.333901 -0.290936 -0.065176 -0.950047 
0.128966 -0.284759 -0.223769 0.475742 -0.234837 -0.823884 
3.130396 -0.102519 0.860343 0.468487 -0.435210 -0.750218 
2.051348 -0.449706 0.424895 -0.496158 0.289748 0.782289 
-1.928976 -0.049734 0.425626 0.001379 0.061022 0.968969 
-1.602887 -0.847643 0.579921 -0.185386 -0.323101 -0.913664 
-2.300719 0.570321 0.346055 -0.260778 -0.283324 0.882368 
2.093971 -0.025320 0.324250 0.028191 -0.152821 -0.981609 
2.551704 0.736098 0.484741 0.437266 0.112623 -0.883248 
-2.103039 -0.555389 0.500455 0.213509 -0.391762 -0.865149 
-3.356090 -0.401478 0.485871 0.229447 0.294223 0.913888 
2.845341 0.466568 0.650703 -0.420783 0.041194 0.835148 
2.179610 -0.625174 0.552924 0.234043 -0.420084 -0.865423 
-0.259924 1.016345 0.282785 -0.864390 0.240348 0.313779 
-2.606503 0.045289 0.260574 -0.159081 0.090825 0.976989 
2.171938 0.588240 0.371849 0.388018 -0.279989 -0.852808 
-0.069365 1.101571 0.399831 0.021035 0.300059 0.905091 
-1.175449 -0.731287 0.397772 0.284158 0.070042 0.948302 
-1.428148 -0.774049 0.461618 -0.249263 -0.206163 -0.940272 
3.008155 -0.411251 0.915427 0.523370 -0.406540 -0.731288 
-0.640287 -0.452994 0.198320 0.027584 -0.042656 0.974245 
-1.614338 0.219949 0.405239 -0.037327 -0.106699 0.963163 
0.241636 -0.733560 0.143160 0.250522 -0.064185 0.923219 
0.400349 -0.034145 0.021475 0.667048 -0.032048 -0.718543 
2.290692 -0.753148 0.674141 -0.182288 0.404505 0.855152 
-1.837460 0.311049 0.422827 -0.039903 -0.129712 0.956056 
0.429979 -1.097357 0.142902 0.230593 -0.161965 -0.954221 
0.256992 0.079609 0.243111 0.155159 -0.260427 0.933833 
-3.629169 -0.280760 0.530733 0.331374 0.284569 0.897070 
-2.262945 0.472985 0.348235 -0.273994 -0.244503 0.891307 
0.594786 0.295674 0.328450 -0.118748 -0.223117 0.954035 
0.485138 0.276827 0.087675 0.656756 -0.000144 -0.710308 
0.099646 0.787410 -0.100555 0.454140 0.377796 -0.793947 
0.128945 0.499253 0.420003 0.143729 -0.286476 0.944946 
2.032732 -0.823907 0.625638 -0.403669 0.421871 0.793230 
0.536280 0.090159 0.110971 0.593059 -0.021162 -0.746173 
1.910322 0.573103 0.314190 0.125259 -0.242315 -0.961532 
-0.494944 -0.259314 0.050043 -0.580215 -0.034099 -0.789163 
1.963206 0.588752 0.359401 -0.061657 -0.286961 0.935837 
-3.344312 0.419703 0.226110 -0.235878 -0.103738 -0.956756 
-1.897372 0.242998 0.428452 -0.033985 -0.087709 0.957505 
2.101279 -0.672044 0.564276 -0.488359 0.378485 0.762376 
-2.233438 -0.681576 0.543928 0.238385 -0.401719 -0.868399 
2.680261 -0.364799 0.609110 0.418008 -0.304659 -0.847629 
-2.836012 0.145649 0.214761 0.191185 -0.299919 -0.926163 
3.089061 0.606452 0.689362 -0.390038 0.225027 0.878210 
2.919203 -0.117773 0.685717 -0.605409 0.160072 0.745365 
2.949627 0.652307 0.617594 0.479386 0.236963 -0.830095 
-1.961893 0.563157 0.387656 -0.021074 -0.292404 -0.955359 
-0.969729 0.390693 0.345265 0.094243 0.337974 0.931056 
0.246897 -0.945839 0.074231 -0.136835 -0.332539 -0.913579 
0.760763 -0.972038 0.214400 -0.162414 -0.050652 0.984532 
-0.038682 -0.856394 0.185838 -0.362477 -0.002576 0.924601 
0.458191 -0.228198 0.137876 0.106996 -0.149041 0.956582 
3.002098 0.349696 0.677784 -0.485054 0.061686 0.832483 
0.911910 -0.822989 0.256154 0.198564 0.018647 -0.977180 
2.914837 -0.290294 0.743779 0.413714 -0.443087 -0.793894 
0.092833 -0.689024 -0.036043 0.047068 -0.447019 -0.885230 
0.212138 -0.528965 0.185504 0.349555 -0.140575 0.915570 
-0.229363 0.480101 0.389612 -0.125162 -0.234975 0.958920 
-0.455963 0.577398 0.326657 -0.032304 0.325334 0.862647 
0.017044 1.027031 0.436567 0.161912 0.211250 0.959845 
-2.993857 0.188394 0.224628 0.079515 0.050371 0.970485 
0.362222 -0.446918 -0.026494 0.588285 -0.058638 -0.792815 
-3.600411 0.319982 0.354229 0.431949 -0.011297 0.890022 
-0.058326 -0.011040 -0.308770 -0.496307 -0.081298 -0.836042 
0.718248 0.432380 0.238553 0.355498 0.414214 -0.753935 
0.941988 -0.755735 0.272022 -0.156987 -0.078521 0.983982 
-0.134518 0.824767 -0.072208 -0.511015 0.368675 -0.759556 
-1.884644 -0.215767 0.431872 -0.001436 0.149827 0.974372 
0.340247 0.650203 -0.072956 0.632267 0.419444 -0.624655 
1.045520 -0.266622 0.314507 -0.148805 -0.047867 0.984767 
2.764689 -0.552936 0.748741 -0.485012 0.343197 0.786557 
0.571713 0.527737 0.207210 0.560833 0.395443 -0.648311 
-0.671532 0.268912 0.169121 -0.513478 0.007118 -0.813653 
2.005827 0.629847 0.318934 0.107341 -0.241742 -0.962732 
2.646986 -0.022784 0.506717 -0.348684 0.143037 0.920598 
-0.611241 -0.315303 0.173287 -0.041643 -0.088574 0.964374 
-0.086312 0.543850 0.435683 -0.115097 -0.281137 0.949947 
-3.527782 -0.030455 0.417417 0.270258 0.291237 0.898502 
-0.671359 0.139784 0.319510 0.173530 -0.217247 0.951188 
-0.161355 -0.948537 0.081202 0.130284 -0.390715 -0.905626 
-0.016518 -0.957403 0.185149 -0.465883 0.040897 0.872298 
-3.986528 0.132378 0.612456 -0.503606 -0.164981 -0.847015 
3.196046 -0.043134 0.908240 -0.562065 0.368907 0.726255 
1.661253 -0.660887 0.383973 0.243493 -0.287513 -0.906283 
-0.458742 0.492231 0.097101 -0.756912 0.187641 -0.610511 
-2.237316 -0.057466 0.367544 -0.024552 0.061650 0.991000 
-1.447724 0.598427 0.330483 0.093459 0.365608 -0.863545 
-0.313827 0.092266 -0.048048 -0.725345 -0.079971 -0.665555 
-0.737316 -0.981287 0.213375 -0.299469 -0.016374 -0.950761 
-1.538631 0.337461 0.397823 -0.047056 -0.176191 0.960188 
1.574769 0.440302 0.305907 0.141089 -0.226879 -0.963214 
1.952738 0.040678 0.307910 0.125044 -0.200141 -0.967915 
-1.274024 0.685741 0.358478 -0.019035 0.192110 -0.970824 
2.027542 0.239042 0.318420 0.080853 -0.197646 -0.971242 
0.552879 -0.243391 0.167287 0.066951 -0.130321 0.963100 
-0.974839 -0.338212 0.313866 -0.308082 -0.036515 -0.949154 
0.505495 0.343556 0.102537 0.661690 0.060370 -0.698094 
-1.987490 -0.933140 0.697788 -0.016654 -0.443881 -0.886653 
0.009735 -1.024765 0.187287 0.565611 0.063084 0.805052 
2.920782 0.426271 0.576797 0.493109 0.074003 -0.858884 
-2.369980 -0.885186 0.621287 0.065303 -0.409123 -0.902870 
0.405871 -0.163051 0.140290 0.096663 -0.176890 0.950377 
0.052498 -0.462389 -0.195653 0.305949 -0.454597 -0.833482 
-2.676200 -0.214735 0.274151 0.057577 -0.238568 -0.967096 
-3.097494 -0.426689 0.417330 -0.073483 -0.382085 -0.910069 
-0.294812 -1.326121 0.182447 0.441769 -0.197904 0.647004 
-1.790676 0.766043 0.387445 0.210872 0.648582 -0.661960 
-0.465607 -0.022546 0.211262 0.031180 -0.209043 0.945164 
0.084000 -0.347875 -0.229828 0.421723 -0.306982 -0.832335 
2.824413 -0.149105 0.634035 -0.531817 0.183666 0.793994 
0.265591 0.690646 -0.092528 0.497586 0.581405 -0.623233 
-3.725498 -0.050922 0.498863 0.402495 0.224799 0.885486 
-2.933093 0.429728 0.260558 -0.026734 0.045193 0.953976 
1.809094 0.385553 0.347859 -0.048287 -0.199927 0.945556 
-0.755745 0.420351 0.273410 -0.309153 0.453686 -0.769176 
-2.924726 0.671455 0.215790 -0.023357 0.237270 -0.951172 
0.577492 -0.589698 0.179322 0.015213 -0.021880 0.984848 
2.540967 -0.386633 0.557117 0.457229 -0.313593 -0.823075 
-0.165506 0.216100 -0.273457 -0.655692 0.023048 -0.727532 
-2.215387 -0.800412 0.607825 0.041861 0.373586 0.906923 
-0.100858 0.802796 0.422035 -0.146346 0.033884 0.985329 
0.000806 1.217346 -0.049694 0.699354 0.048646 -0.698546 
-1.972960 0.028698 0.387472 0.089325 -0.235930 -0.944042 
0.791272 -0.217826 0.262324 -0.070372 -0.102876 0.976584 
2.047590 -0.534907 0.454749 0.132787 -0.396713 -0.894763 
1.779927 -0.532429 0.371643 0.237370 -0.286488 -0.911359 
0.302090 -0.146549 -0.063300 0.649190 -0.136271 -0.728506 
2.514490 -0.622322 0.662650 0.470443 -0.401142 -0.781774 
0.380157 -0.041767 0.177517 0.082420 -0.226422 0.948393 
1.689331 -0.598488 0.362198 0.225856 -0.261175 -0.921528 
-0.215863 0.023191 -0.218389 -0.645705 -0.063987 -0.729602 
0.458689 0.574575 0.113912 0.752221 0.316717 -0.546183 
2.184812 -0.802684 0.669768 -0.145872 0.414817 0.862038 
-1.234869 -0.245991 0.361649 0.155084 0.028869 0.974405 
-0.282376 -1.271882 0.130744 0.161661 -0.166692 -0.932059 
0.274814 -0.137714 -0.156415 0.644815 -0.143748 -0.721998 
-2.306900 -0.722499 0.567502 -0.282020 0.359485 0.865700 
-2.346181 -1.024052 0.693304 0.121475 -0.430923 -0.893117 
-1.908790 -0.286962 0.423458 0.022677 0.179928 0.978389 
1.339485 -0.283713 0.312280 -0.157752 0.026072 0.980158 
-2.628891 0.341127 0.261510 -0.179222 -0.060382 0.956001 
-2.443848 -0.623382 0.490119 -0.335001 0.344427 0.825672 
-0.577850 -0.930977 0.181062 0.106488 0.009448 0.979285 
-0.688249 -0.074721 0.179181 -0.494580 -0.032833 -0.825409 
0.424556 -0.942660 0.129984 0.302062 -0.183919 -0.931041 
3.076290 -0.050381 0.781216 -0.707600 0.127930 0.677737 
-0.019551 1.327342 0.103801 -0.344321 0.790779 0.432041 
3.338495 0.097007 1.002524 0.716752 -0.208983 -0.655311 
1.387896 -0.352305 0.310850 -0.159353 0.047215 0.979659 
-0.006901 -0.304562 0.251672 -0.120367 0.020697 0.990873 
-1.955755 0.122725 0.393761 0.040529 -0.253162 -0.952298 
3.053918 -0.007986 0.724822 0.384652 -0.458645 -0.799785 
-1.582195 -0.037940 0.376287 -0.102878 -0.220431 -0.961576 
1.073042 -0.875537 0.277133 -0.161603 -0.021113 0.983096 
-0.794274 0.459010 0.331772 0.090054 0.330951 0.928246 
2.150035 0.387225 0.342770 0.567171 -0.061964 -0.815603 
3.042436 -0.151338 0.803935 -0.672744 0.175639 0.691097 
0.450223 -0.028063 0.200802 -0.003374 -0.211955 0.946913 
1.780436 0.188475 0.336784 -0.070650 -0.104297 0.953460 
-0.574767 0.260708 0.127626 -0.588663 -0.014429 -0.759602 
2.676427 0.552971 0.589493 -0.319760 0.003437 0.873715 
-2.007671 -0.862496 0.662965 0.071343 0.407991 0.899438 
0.150619 -0.853714 0.156074 0.126117 -0.021930 0.977841 
-0.435604 0.514755 0.357632 0.055556 0.157546 0.925605 
-2.985672 0.513707 0.180341 0.023282 0.016237 -0.999048 
-0.032799 -1.081882 0.178242 -0.417330 -0.012368 0.871949 
0.360957 0.030586 0.008592 0.709703 -0.033599 -0.689247 
0.216247 0.040442 -0.220119 0.648186 -0.058375 -0.726097 
-2.089763 1.112879 0.405618 0.074023 0.250799 -0.942710 
3.191508 -0.369737 1.085404 0.620190 -0.380472 -0.668598 
0.400712 0.520610 0.000948 0.730316 0.188203 -0.647435 
0.847455 0.092053 0.251405 0.319034 -0.072277 -0.919672 
2.313044 -0.188268 0.439975 -0.033254 0.189121 0.955189 
1.610080 -0.423801 0.295748 0.178784 -0.149559 -0.969948 
0.637646 -0.208413 0.127020 0.455505 -0.019272 -0.849449 
-0.054620 -0.701470 -0.021560 -0.177833 -0.445034 -0.864823 
2.361825 -0.881637 0.768372 -0.356449 0.442501 0.818358 
-2.047877 0.410055 0.362349 0.141727 -0.245941 -0.925351 
-2.235685 -0.940748 0.670031 -0.044127 0.402357 0.901709 
-2.904902 -0.648621 0.446868 0.027935 0.358484 0.929414 
0.221467 0.112847 -0.224343 0.675320 -0.030705 -0.704712 
0.404336 -0.105267 0.014414 0.649136 -0.032919 -0.735151 
0.245422 1.255856 0.462172 -0.582519 0.163914 0.787294 
-1.894037 0.736941 0.354748 -0.064731 -0.014451 -0.978809 
-2.638329 0.727609 0.264968 0.020726 0.141711 -0.977583 
-1.176055 -0.010132 0.357873 0.103515 -0.087096 0.969311 
-1.994159 -0.263115 0.408257 0.076508 0.161577 0.973584 
-0.141171 0.363939 -0.265928 -0.627734 0.140551 -0.725073 
0.734508 -0.258152 0.172874 0.373661 -0.013717 -0.898362 
2.570990 -0.228577 0.496628 0.423318 -0.246991 -0.865866 
0.570104 -0.861535 0.169674 0.273827 -0.125836 -0.944341 
2.379174 0.119315 0.411466 0.409405 -0.027305 -0.888783 
-2.902285 -0.574475 0.417966 0.050510 0.323474 0.932412 
-1.003654 -0.129613 0.308753 -0.286702 -0.062982 -0.951694 
0.092015 -0.224612 -0.251518 0.462105 -0.214160 -0.830927 
0.082239 -0.219398 0.248900 0.171679 -0.047884 0.977131 
-0.842785 -0.569690 0.276284 0.214585 -0.038348 0.967995 
0.270151 -1.235465 0.184007 -0.242099 0.157722 0.913224 
2.954646 0.028619 0.660201 -0.612249 0.105000 0.752253 
1.278072 -0.707022 0.305843 -0.156709 0.068817 0.982812 
-0.299436 0.778427 0.044096 -0.712719 0.444426 -0.482471 
0.723320 0.074531 0.195611 0.428714 -0.045980 -0.849642 
-0.920898 0.272631 0.276955 -0.315543 -0.007689 -0.945116 
2.503217 -0.318877 0.510563 0.457706 -0.290144 -0.831239 
1.934465 0.220997 0.307162 0.142808 -0.222880 -0.963252 
-0.376898 0.377967 0.026285 -0.762641 0.070072 -0.629146 
-0.109060 -0.836894 0.173231 -0.209442 -0.033689 0.969281 
-0.803385 0.631470 0.330542 -0.177490 0.233187 -0.882595 
-0.991171 0.129572 0.346346 0.074690 -0.166575 0.973780 
-2.861061 -0.023492 0.240101 0.078245 -0.313363 -0.937162 
0.176324 1.249078 0.243570 0.197279 0.865513 -0.067280 
2.158384 -0.329603 0.400130 0.046089 -0.305281 -0.942733 
0.040773 1.305102 0.141236 0.329268 0.860549 0.328556 
-0.348194 0.198175 0.256459 -0.061024 -0.283614 0.953529 
-0.196482 -0.895121 0.133891 -0.053962 -0.007563 0.984866 
-1.482740 0.077707 0.393105 -0.003452 -0.057319 0.968662 
-1.404852 -0.433620 0.406161 0.160819 0.108147 0.966440 
-2.134492 0.732855 0.391810 -0.301052 -0.420123 0.838345 
3.385713 0.330549 0.949108 0.739744 -0.138844 -0.653826 
-0.251296 0.037882 0.237865 -0.203453 -0.243482 0.915678 
3.218118 0.347427 0.778493 0.642432 -0.118681 -0.747067 
0.720622 -0.397223 0.225211 -0.027812 -0.058835 0.982237 
2.825334 0.190906 0.544989 0.216758 -0.304210 -0.921691 
-1.029889 0.049498 0.345012 0.111453 -0.137291 0.970485 
-1.516001 0.605258 0.421134 0.101111 0.091409 0.989322 
0.696859 -0.640736 0.210886 0.258084 -0.083235 -0.954338 
0.350469 0.190722 0.254881 0.059824 -0.291294 0.951035 
-3.518456 0.363765 0.286372 -0.340827 -0.132956 -0.928306 
-0.659958 -0.922690 0.192836 -0.341138 -0.076952 -0.929545 
0.644563 -0.865804 0.187952 0.256685 -0.093688 -0.951629 
1.590247 0.344374 0.345336 0.009290 -0.199709 0.949890 
2.891733 -0.468822 0.826200 0.475156 -0.417978 -0.764351 
-2.663911 0.279257 0.250127 -0.171354 -0.017359 0.969277 
-0.946043 0.045930 0.340607 0.109161 -0.139257 0.975638 
-0.220172 0.455042 -0.206638 -0.635562 0.146165 -0.735760 
-1.874743 0.377232 0.425269 -0.043974 -0.160098 0.953019 
-0.490366 -0.939316 0.144070 -0.339429 -0.145640 -0.924616 
-0.769514 -0.713225 0.233152 -0.330711 -0.052999 -0.936885 
-0.225922 1.082907 0.252547 -0.835852 0.521442 0.107719 
1.323485 -0.649385 0.299596 0.175249 -0.113434 -0.975841 
-1.669521 -0.845527 0.610257 0.159076 0.334496 0.914981 
-0.939760 0.182052 0.345899 0.049400 -0.186762 0.977552 
1.742088 -0.268688 0.311399 -0.154381 0.110712 0.972037 
2.303313 0.134693 0.389369 0.482477 -0.063634 -0.845689 
-0.032277 -1.014285 0.129086 -0.278338 -0.366352 -0.881800 
-0.408886 -0.977649 0.135404 0.012768 0.049254 0.994445 
-1.805512 0.701580 0.347968 -0.087152 -0.011457 -0.977914 
2.758220 0.156238 0.536837 -0.342510 0.087784 0.931842 
-2.212231 -0.544625 0.480785 0.287787 -0.388592 -0.859605 
-0.208320 -0.349722 0.212098 -0.412039 -0.051340 0.868581 
-1.934217 0.304730 0.430901 -0.037746 -0.115825 0.954637 
0.309947 -0.429685 -0.079967 0.589238 -0.127236 -0.786916 
-3.078956 0.085321 0.232863 0.075017 -0.412235 -0.901506 
-1.531353 0.437541 0.396244 -0.054334 -0.229111 0.956680 
-0.537478 -0.108219 0.091303 -0.582904 -0.033841 -0.775011 
0.959325 -0.878447 0.264539 0.185534 0.035964 -0.981682 
-0.137683 -0.599404 -0.079747 -0.187569 -0.391506 -0.895181 
0.815057 0.152706 0.237670 0.349024 -0.083979 -0.901458 
-2.387791 -0.172437 0.339472 -0.366489 0.197570 0.877656 
1.134001 -0.541313 0.309479 -0.152019 0.011132 0.984448 
1.066423 0.146370 0.293213 0.204451 -0.112445 -0.966345 
-0.143075 0.619921 -0.182689 -0.464238 0.404893 -0.760484 
-3.262502 -0.502478 0.496651 0.172023 0.330836 0.915196 
-2.315411 -0.074616 0.339081 -0.376642 0.138678 0.903714 
-0.067777 0.755510 -0.125461 -0.424789 0.358087 -0.820727 
1.524489 0.616011 0.289483 -0.065021 0.238230 -0.941040 
-0.265443 1.020379 0.206445 -0.911596 0.361874 0.000095 
-3.630544 0.054553 0.428218 -0.370625 -0.211096 -0.899220 
-0.318955 0.339350 -0.077694 -0.744476 0.018501 -0.661406 
3.168054 0.029750 0.837308 -0.530453 0.375134 0.749188 
-1.637389 -0.658081 0.496884 0.147321 0.231945 0.947361 
-1.660186 -0.040733 0.411494 -0.017061 0.033758 0.971782 
0.771295 -0.445278 0.236217 0.255372 -0.059766 -0.958125 
0.429243 0.491884 0.068490 0.758757 0.178807 -0.616761 
2.349379 -0.701888 0.663132 -0.180445 0.392180 0.856068 
-0.820025 -0.304107 0.274650 0.140860 -0.048084 0.972592 
-3.053236 -0.494761 0.430816 -0.071018 -0.378436 -0.913407 
2.943724 -0.437091 0.862438 0.494128 -0.413856 -0.750887 
0.167018 0.635129 -0.169678 0.476424 0.423610 -0.749777 
1.062626 -0.550601 0.302104 -0.152909 -0.022711 0.984594 
3.108787 0.161490 0.728054 -0.499434 0.278102 0.798436 
1.245148 0.234942 0.339604 0.030138 -0.202335 0.960017 
-0.329542 0.275892 -0.027277 -0.775374 -0.017002 -0.629334 
-0.483597 -0.475760 0.063960 -0.507727 -0.067323 -0.834944 
0.262858 0.724178 0.406653 0.409886 0.350627 0.821093 
1.252453 -0.425997 0.310557 -0.155388 0.024267 0.982106 
2.206015 -0.381033 0.452957 -0.464943 0.290910 0.792440 
-1.958738 0.621273 0.429844 -0.059927 -0.277999 0.942731 
-1.318790 0.138148 0.339132 -0.188540 -0.189191 -0.954031 
-3.083734 0.401421 0.192669 -0.067516 -0.023731 -0.983695 
0.086348 0.099376 -0.314049 0.548493 -0.004976 -0.818207 
-3.692148 0.343845 0.409249 0.331925 0.214501 0.895669 
0.056784 -0.013966 -0.309139 0.491191 -0.085012 -0.837776 
-0.923990 0.262644 0.365401 0.013141 -0.148783 0.987103 
-0.690077 0.061687 0.317839 0.202110 -0.187521 0.951460 
0.514042 -0.458457 0.074098 0.458605 -0.062383 -0.857122 
-1.557029 -0.648763 0.455204 0.178572 0.185539 0.955900 
2.055640 0.640729 0.382768 0.019663 -0.194373 0.933578 
-1.246254 -0.026770 0.335177 -0.210201 -0.140963 -0.954938 
-2.135574 -0.170178 0.375211 0.159610 0.093750 0.970128 
2.154005 0.006910 0.361306 -0.531278 -0.030865 0.816742 
0.329707 -0.088339 -0.027721 0.692037 -0.060104 -0.707902 
-0.460996 0.448920 0.375325 0.211096 0.056902 0.959026 
2.691925 0.716310 0.548832 -0.260603 0.307988 0.865493 
-3.750045 0.313316 0.441573 -0.494737 0.104173 -0.818367 
0.288965 -0.923103 0.139432 0.060137 0.050006 0.963352 
-2.297614 -0.590756 0.511323 -0.337720 0.336518 0.854764 
0.080970 1.234743 0.008747 0.640329 0.228981 -0.666086 
2.666087 0.166684 0.506008 -0.304499 0.043095 0.949143 
0.233802 -0.337674 0.202109 0.473742 -0.075328 0.829087 
2.114249 0.481352 0.321958 0.458605 -0.079840 -0.871669 
-2.245746 0.812347 0.337604 0.064411 0.102153 -0.978835 
-3.201521 -0.316278 0.408059 0.213778 0.236713 0.925742 
-0.175116 -0.781609 0.148756 -0.101305 -0.074213 0.976986 
0.949734 -0.370141 0.304743 -0.149542 -0.077180 0.985538 
2.635367 0.351290 0.506316 -0.270611 -0.056150 0.929608 
2.335427 -0.454123 0.504429 0.528872 -0.361458 -0.766049 
0.083146 -0.957105 0.096064 0.057735 -0.403193 -0.896374 
2.376742 -0.007463 0.429951 -0.172861 0.078384 0.972678 
2.256747 0.830826 0.414552 0.425047 0.504565 -0.700607 
-2.208553 0.401432 0.364111 -0.326833 -0.194506 0.877617 
0.417783 -1.025761 0.125733 0.287402 -0.172839 -0.937619 
0.669953 0.484949 0.259973 0.402338 0.467239 -0.706783 
-2.209500 -0.043619 0.300094 0.265739 -0.118910 -0.928637 
3.586848 0.097110 1.357615 -0.806745 0.169476 0.554675 
2.362805 0.377665 0.430930 -0.184720 -0.168701 0.929666 
2.119303 -0.401412 0.408985 0.079811 -0.339468 -0.931171 
-0.800871 0.367199 0.254169 -0.297358 0.346432 -0.822561 
1.011176 0.188574 0.334391 -0.003925 -0.197253 0.973611 
-1.442086 -0.104577 0.386422 0.059401 0.013183 0.972272 
2.422312 -0.684586 0.669976 0.441878 -0.415039 -0.787540 
1.499983 0.419830 0.349476 0.047459 -0.245723 0.948139 
-0.691119 0.449421 0.237613 -0.410386 0.408330 -0.729744 
-2.900515 -0.345980 0.348218 0.079384 0.241621 0.943301 
-0.104881 0.678801 -0.159332 -0.377595 0.535311 -0.730212 
0.202227 1.213464 0.424708 0.796569 -0.051104 -0.567133 
-2.294222 0.643273 0.334706 0.063985 -0.363793 -0.916026 
0.700377 -0.330954 0.204550 0.015855 -0.081668 0.976648 
-2.209559 0.242799 0.333832 -0.105671 -0.145984 -0.961794 
0.071072 -0.301708 0.246336 0.174212 0.001460 0.981023 
-2.518877 0.431912 0.277496 0.154029 -0.273925 -0.926731 
-0.114109 1.258488 0.238049 -0.086038 0.943349 0.217830 
-1.123637 -0.039420 0.320665 -0.249222 -0.108852 -0.952748 
-2.701237 0.557842 0.314366 -0.132166 0.007630 0.927582 
0.452871 -0.497253 0.099957 0.157197 -0.067748 0.970548 
-3.505204 -0.400576 0.529368 -0.277501 -0.323015 -0.899380 
1.952042 0.668183 0.363843 -0.046001 -0.327613 0.932937 
-2.085470 -0.891298 0.664610 0.058677 -0.433252 -0.883197 
0.806354 0.340355 0.229609 0.374594 0.137359 -0.866279 
0.319264 -0.805938 0.026254 0.406483 -0.209066 -0.876598 
1.277553 -0.339695 0.311786 -0.155983 0.018617 0.981365 
-0.020850 -0.591942 -0.083832 -0.345149 -0.501994 -0.788516 
-2.749567 0.612376 0.286928 -0.158232 0.020342 0.943777 
0.668025 0.245686 0.168478 0.488067 -0.046756 -0.819066 
-2.384876 -0.061716 0.318401 -0.301688 0.139171 0.930387 
-1.949656 -0.126176 0.416127 0.027228 0.092740 0.973376 
-2.273425 -1.014159 0.699114 -0.097560 0.414695 0.899629 
2.864590 -0.194038 0.678260 -0.562943 0.195591 0.767612 
-1.469522 0.416306 0.345917 -0.149580 -0.251666 -0.952045 
0.261446 -0.653730 0.146948 0.399851 -0.078845 0.878893 
-0.324517 0.203631 -0.031967 -0.761588 -0.042724 -0.638004 
-1.901767 -0.645735 0.576563 0.100513 0.341026 0.924368 
-0.385549 0.120428 0.235897 0.004727 -0.277421 0.942972 
0.341141 0.426045 -0.066265 0.723509 0.084260 -0.676049 
0.062426 -0.952248 0.175912 0.304407 0.043355 0.942890 
0.296091 0.837133 0.314128 0.740556 0.371595 0.475239 
-2.045745 -0.603580 0.538609 0.179800 0.341055 0.914783 
-0.175183 1.266854 0.288736 0.257185 0.956911 0.050784 
2.179636 0.824919 0.422630 -0.179571 0.061118 0.951237 
-2.774368 0.483843 0.222991 -0.055406 0.077720 -0.987865 
2.910477 0.519048 0.647058 -0.403062 0.061185 0.869141 
-2.730644 -0.757707 0.502791 -0.029148 0.375990 0.922753 
2.821736 0.495177 0.550337 0.485656 0.040085 -0.867412 
-2.506066 0.781937 0.311203 -0.249657 0.424554 0.824840 
2.563167 0.319658 0.484182 -0.252532 -0.067879 0.934720 
0.024075 -0.308839 -0.262937 0.383545 -0.315216 -0.843704 
-0.292939 -0.574850 -0.065752 -0.512607 -0.209322 -0.820895 
-0.813578 0.043887 0.245690 -0.390426 -0.066838 -0.887608 
-0.092843 -0.481112 -0.163250 -0.310708 -0.460863 -0.827692 
1.580636 -0.358595 0.294448 0.185247 -0.137778 -0.969377 
1.920242 -0.752820 0.540323 -0.439832 0.406231 0.783311 
1.845301 -0.529744 0.401797 -0.313153 0.282232 0.875892 
1.666586 -0.187634 0.295086 0.175789 -0.173823 -0.966651 
0.613143 -0.522128 0.187777 0.012386 -0.036975 0.982947 
2.106512 0.563446 0.381875 -0.008634 -0.264920 0.928727 
2.201839 0.157173 0.394898 -0.042796 -0.013032 0.976806 
1.210763 0.342992 0.345278 0.069666 -0.251994 0.956366 
2.279016 0.070141 0.407037 -0.106073 0.020101 0.977244 
1.741698 -0.637828 0.420957 -0.276141 0.316951 0.887084 
-0.136860 -0.863662 0.042695 0.086348 -0.412287 -0.902119 
2.350731 0.187424 0.422887 -0.171970 -0.057214 0.957026 
3.310501 0.005050 1.015141 -0.643592 0.308024 0.675894 
-3.398928 0.467854 0.245629 0.324752 -0.057252 0.919660 
-3.381760 0.271885 0.261402 0.253694 0.116615 0.951476 
-3.938575 0.079028 0.595338 -0.486977 -0.183231 -0.852224 
-0.262829 -0.388700 -0.139068 -0.569131 -0.236368 -0.783500 
-1.368140 0.674859 0.366021 0.138445 0.236253 0.910453 
-0.788540 -0.233774 0.267266 0.120872 -0.075567 0.967388 
-3.881588 0.100273 0.558441 0.462640 0.156188 0.867205 
-0.173765 0.675366 -0.138113 -0.438902 0.505141 -0.712320 
3.152969 0.565519 0.741841 -0.435282 0.237576 0.839314 
-0.598674 -0.243304 0.109685 -0.518077 -0.033404 -0.825247 
1.705040 -0.786540 0.481813 -0.341717 0.402424 0.836378 
-0.207775 0.995810 0.369969 -0.593836 0.081674 0.758064 
0.137033 -1.034241 0.156100 0.150471 0.086097 0.979544 
3.401971 0.399632 0.977280 -0.763297 0.033304 0.624929 
1.657025 -0.263052 0.311920 -0.153142 0.090212 0.973512 
-3.324195 -0.281606 0.431003 0.258350 0.234467 0.920269 
-0.136094 -0.519939 -0.114239 -0.277254 -0.493756 -0.822936 
-1.606246 0.455525 0.402271 -0.054299 -0.230276 0.954751 
-0.694303 0.594433 0.323555 0.111247 0.282154 0.932281 
-1.094732 -0.251091 0.347798 0.193810 -0.002689 0.973153 
-0.750283 -0.304780 0.237832 0.072876 -0.062388 0.969545 
2.029840 -0.893098 0.664688 -0.365765 0.440722 0.806401 
-0.084861 -0.372628 -0.224024 -0.422362 -0.322007 -0.829158 
-3.915268 0.190906 0.557878 -0.498628 -0.102816 -0.850010 
0.331343 -0.201499 0.177751 0.452579 -0.186400 0.805330 
-1.768819 0.321163 0.379832 -0.063586 -0.266309 -0.957579 
-1.149959 -0.867344 0.373919 0.305590 0.045177 0.942425 
-0.153259 1.242156 0.161110 -0.636710 0.728354 -0.128343 
2.727570 -0.297291 0.625778 -0.456498 0.251527 0.832159 
2.120044 0.212872 0.364765 -0.413444 -0.124588 0.841879 
1.537939 -0.419991 0.295554 0.182574 -0.134933 -0.970625 
-0.301447 -0.649197 -0.039187 -0.483113 -0.209622 -0.837649 
-0.360295 0.624112 0.360317 -0.438266 0.019671 0.824684 
-1.681408 0.242318 0.374867 -0.084144 -0.256180 -0.957998 
-0.270072 0.534397 -0.161417 -0.618249 0.217384 -0.728032 
-1.555349 -0.308883 0.383777 -0.112503 -0.169000 -0.963881 
-0.107396 0.994297 0.421328 -0.204311 0.071593 0.970389 
-1.947183 -0.198814 0.395840 0.090790 -0.222129 -0.948371 
1.794285 0.261130 0.340870 -0.063366 -0.139247 0.950505 
3.227414 0.066745 0.878263 0.756294 -0.118208 -0.632426 
0.539948 -0.923948 0.159431 0.276990 -0.135445 -0.942067 
3.170579 -0.114487 0.917449 -0.720160 0.179457 0.654878 
0.172113 -0.126789 -0.232001 0.556396 -0.114901 -0.801678 
-2.634321 -0.281489 0.305785 0.024175 -0.262884 -0.959168 
-1.293968 0.350617 0.329869 -0.198382 -0.222616 -0.950581 
0.230262 1.130465 0.420373 0.571360 0.434926 -0.690710 
1.775191 0.456902 0.309519 0.134955 -0.232574 -0.962517 
1.159697 -0.863992 0.287070 0.170964 -0.059213 -0.979977 
2.943784 -0.498644 0.899385 0.520322 -0.403760 -0.737564 
-2.086781 -0.454838 0.464821 0.168723 0.284755 0.933968 
-0.014918 0.433280 -0.317434 -0.484334 0.251762 -0.822368 
2.060869 0.734759 0.378466 0.031299 -0.340092 0.919352 
3.389254 0.455340 0.925489 0.805012 0.311978 -0.485963 
2.069664 0.141016 0.355070 -0.357058 -0.084951 0.868003 
2.350441 -0.133238 0.412602 0.548667 -0.128940 -0.808599 
0.974261 0.381169 0.331367 -0.069557 0.351820 0.930493 
0.151551 0.784965 0.409722 0.213071 0.128154 0.949688 
2.514530 -0.466951 0.583300 0.477777 -0.348565 -0.799082 
-2.577948 -0.318268 0.327568 -0.006432 -0.280027 -0.953269 
0.148066 1.125854 0.407392 -0.079306 0.174857 0.908959 
-0.531650 -0.295813 0.149057 -0.082428 -0.111530 0.960412 
-0.838475 -0.862211 0.251224 0.251483 -0.052114 0.955761 
3.371236 0.197246 0.994798 0.728606 -0.183121 -0.651509 
0.362375 -0.169521 -0.016566 0.666527 -0.036691 -0.732091 
-1.346229 -0.805568 0.459370 -0.283659 -0.193559 -0.936779 
0.470318 -0.253363 0.030853 0.569336 -0.030952 -0.792604 
1.362280 -0.461581 0.296059 0.187874 -0.103965 -0.972951 
-0.524904 0.457999 0.122735 -0.692397 0.163075 -0.660988 
0.071841 0.617444 -0.207900 0.407124 0.428702 -0.779720 
-0.346761 0.391486 -0.039518 -0.738141 0.062918 -0.660754 
-0.622855 0.437793 0.163492 -0.606559 0.154027 -0.724738 
2.438299 -0.831792 0.763359 0.382887 -0.448539 -0.802254 
-0.466628 0.325496 0.322502 0.194204 -0.224073 0.938462 
0.496642 -0.712583 0.155548 0.033824 0.003245 0.987225 
1.919440 -0.354998 0.325847 0.155513 -0.231448 -0.954657 
-3.365468 -0.026831 0.347260 -0.362281 -0.127174 -0.913934 
-3.201599 -0.142215 0.336720 -0.041767 -0.409845 -0.898069 
-0.262114 1.008302 0.127290 -0.894093 0.345194 -0.238460 
-0.577828 0.350392 0.135854 -0.615324 0.071495 -0.730272 
-0.329097 0.672896 0.403834 -0.570856 -0.070437 0.801008 
-1.652806 -0.377476 0.419986 0.079822 0.159743 0.972734 
0.372361 0.754308 0.254354 0.871707 0.429328 0.175634 
0.039409 0.145134 -0.348780 0.520694 0.018096 -0.841203 
-0.792383 -0.785874 0.236407 -0.335287 -0.036041 -0.935983 
-1.253947 -0.668094 0.430295 0.264253 0.113441 0.951052 
2.186554 -0.539251 0.533435 -0.338157 0.347013 0.839144 
-3.682547 0.168474 0.430469 0.429548 0.086477 0.884742 
3.508282 0.159555 1.206490 0.780926 -0.186947 -0.587656 
-0.952369 -0.861165 0.279648 0.318355 -0.079949 0.944282 
-0.258353 -0.286873 0.195752 -0.527820 -0.125976 0.789575 
-0.180653 -0.290419 -0.199862 -0.525525 -0.204857 -0.808925 
0.419519 -0.401837 -0.001113 0.564269 -0.046514 -0.805058 
2.245212 -0.159465 0.377844 0.516343 -0.154350 -0.823835 
-2.057808 0.570426 0.411450 -0.094983 -0.223212 0.933721 
-0.655816 0.336902 0.361367 0.116224 -0.091504 0.969140 
-3.173359 -0.464817 0.455078 -0.124415 -0.364464 -0.909515 
1.533140 0.503872 0.354220 0.050873 -0.284559 0.944504 
-0.628777 -0.583597 0.208698 0.071283 -0.007512 0.982173 
3.466598 0.089844 1.170211 0.767975 -0.214019 -0.596319 
-3.609883 0.388227 0.334563 -0.425426 0.013852 -0.888031 
0.250106 1.058377 0.224749 0.903476 0.407410 0.043136 
-0.121093 0.630957 0.454616 -0.176613 -0.239331 0.953315 
2.943421 -0.224503 0.742913 -0.624081 0.197259 0.721567 
-1.155664 0.262857 0.360193 0.024011 -0.206568 0.965085 
0.988419 0.491884 0.330985 -0.075552 0.230655 0.954566 
1.632674 0.175752 0.301218 0.153578 -0.213390 -0.964335 
-1.003874 0.355937 0.287037 -0.178237 0.183909 -0.938192 
0.078703 -0.157186 -0.270817 0.469755 -0.174047 -0.833504 
-2.712493 0.477891 0.265287 -0.183576 -0.015223 0.954312 
3.266358 0.130591 0.898051 0.718580 -0.160048 -0.665821 
-2.405753 0.778591 0.352552 -0.230301 0.061629 0.948364 
2.589415 0.467825 0.501810 -0.251560 -0.109846 0.920503 
1.567314 -0.268358 0.293480 0.189012 -0.134113 -0.968398 
0.472822 0.144605 0.083762 0.651281 -0.024454 -0.709509 
-0.271477 -0.194988 -0.155503 -0.632818 -0.162391 -0.733429 
0.887640 -0.708743 0.255192 0.210801 0.002168 -0.973613 
-0.730072 0.345392 0.201633 -0.490290 0.081108 -0.819844 
1.260284 0.295597 0.299366 0.163067 -0.179891 -0.965889 
-2.052222 -0.323966 0.417351 0.120319 0.212753 0.958182 
-2.591035 -0.711281 0.501469 -0.005858 -0.384193 -0.917797 
0.167460 -0.693676 -0.028838 0.120027 -0.369595 -0.906385 
0.637572 0.466439 0.193602 0.486720 0.352231 -0.706547 
-0.202758 0.222432 0.308387 -0.124340 -0.290612 0.947330 
0.241615 0.285858 -0.229259 0.747124 0.033647 -0.647346 
2.574684 -0.679623 0.716550 0.449452 -0.414330 -0.787751 
-1.367687 0.104557 0.380593 0.019618 -0.094581 0.967671 
1.571318 0.285857 0.302564 0.149357 -0.218119 -0.963983 
0.055997 0.530145 0.435164 0.079119 -0.294401 0.950984 
2.026340 0.803986 0.303577 0.044996 0.343775 -0.926639 
2.329274 0.566765 0.432073 -0.151664 -0.269582 0.905145 
-3.478344 -0.144408 0.428467 -0.351279 -0.200614 -0.904337 
0.246729 0.195375 -0.216130 0.723780 -0.003611 -0.664570 
1.439477 0.691037 0.342692 -0.131136 0.287043 0.890277 
-0.320963 -1.401131 0.188712 0.340395 -0.548262 0.522112 
0.106325 -0.629538 -0.071398 0.055530 -0.432792 -0.895845 
1.703948 -0.356475 0.308685 -0.168946 0.124773 0.974647 
-0.028942 -0.091371 -0.304990 -0.449961 -0.156403 -0.842065 
2.532533 0.678442 0.520876 -0.199437 -0.025445 0.936110 
3.156830 0.223654 0.748440 -0.562275 0.191958 0.783144 
0.174963 -0.594318 0.178765 0.215947 -0.193142 0.956218 
2.616306 0.260623 0.495858 -0.275799 -0.020699 0.941821 
-1.059874 -0.154507 0.343216 0.175728 -0.049904 0.971851 
2.954912 0.487935 0.589892 0.456404 0.016459 -0.889199 
0.646385 -0.044161 0.153017 0.483648 -0.016085 -0.818208 
-2.867939 0.465348 0.275438 -0.056654 0.034510 0.946690 
-1.249634 -0.740926 0.427665 -0.298521 -0.155289 -0.937989 
-2.924415 0.464047 0.188888 -0.005051 0.046741 -0.993542 
2.370237 -0.640628 0.634928 -0.139961 0.375847 0.864953 
1.390036 0.265769 0.340878 0.043253 -0.184018 0.955732 
2.774044 0.429706 0.573642 -0.329846 -0.001402 0.906947 
2.847645 0.674507 0.587047 0.474132 0.270652 -0.808321 
-2.377553 -0.589643 0.485938 -0.407538 0.336655 0.802593 
-0.085751 0.587658 -0.213189 -0.436735 0.372791 -0.781612 
-1.338177 -0.729109 0.443604 -0.271109 -0.181475 -0.939912 
1.483635 0.293402 0.301299 0.151257 -0.216459 -0.964215 
-0.190687 1.087652 0.338111 -0.699623 0.593378 -0.332975 
-2.273547 0.213272 0.342779 -0.332441 -0.061530 0.904138 
0.048840 0.179378 0.303283 0.052635 -0.269476 0.955979 
0.519321 -0.172912 0.178272 0.043911 -0.157035 0.957805 
-2.547943 -0.648740 0.483830 -0.239972 0.351744 0.855355 
0.098535 1.281973 0.093915 0.659468 0.691909 0.033687 
-1.751132 0.674909 0.428246 0.030156 -0.033652 0.979029 
-0.520827 0.016155 0.096488 -0.617619 -0.033976 -0.743793 
0.381148 -0.387353 0.057536 0.237683 -0.111367 0.959145 
0.384893 0.667090 0.322563 0.504751 0.223457 0.759496 
0.179831 -0.686653 0.163998 0.156123 -0.140138 0.966516 
2.931599 -0.042997 0.653075 0.386581 -0.385222 -0.828392 
1.837803 0.111923 0.332549 -0.099369 -0.060791 0.955667 
0.362765 -1.392312 0.173964 0.283228 -0.091343 -0.940490 
-3.433333 -0.410193 0.511908 0.247915 0.307109 0.909267 
-1.882601 -0.708520 0.607948 0.104040 0.364568 0.916478 
0.050041 -0.748184 0.001368 0.200638 -0.434107 -0.866010 
1.819337 -0.893388 0.581579 0.317321 -0.468756 -0.819805 
-2.530830 -0.859914 0.583932 0.054413 -0.407096 -0.906865 
-2.160770 -0.457132 0.456350 0.215369 0.294635 0.925202 
3.452638 0.359330 1.070036 -0.642367 0.295114 0.663305 
0.154666 1.184545 0.316712 0.934314 -0.064933 -0.225770 
2.028224 -0.064495 0.341343 -0.356612 0.016967 0.885160 
-0.079572 0.302676 0.351868 -0.057970 -0.328208 0.938147 
1.398719 0.552685 0.287507 0.011111 0.068184 -0.976985 
-0.459789 -0.030938 0.057013 -0.646841 -0.034378 -0.730105 
-2.228580 0.571411 0.345329 0.055197 -0.270195 -0.935894 
-1.709144 0.697100 0.356754 0.137340 0.474658 -0.771871 
-0.432065 -0.439055 0.022324 -0.561483 -0.055105 -0.805525 
0.255998 0.896272 0.054842 0.767352 0.280326 -0.512005 
2.539711 -0.740308 0.741531 0.423615 -0.428026 -0.793624 
1.791299 0.710025 0.293288 -0.036856 0.188816 -0.978414 
-2.297473 0.319777 0.319077 0.037801 -0.137683 -0.959843 
3.321218 -0.287703 1.182308 -0.690665 0.335637 0.633856 
3.228798 -0.420565 1.155490 0.665068 -0.365459 -0.643042 
-1.218124 0.590362 0.361316 0.157236 0.231832 0.949901 
-0.241740 -0.824282 0.130312 -0.129836 -0.036647 0.955711 
0.129100 0.563907 -0.202821 0.486328 0.318264 -0.766709 
-2.079268 -0.259796 0.400411 0.131671 0.162750 0.964074 
0.266774 -0.347734 -0.134100 0.571085 -0.226518 -0.779852 
-1.279696 -0.595384 0.420863 0.237766 0.106547 0.955564 
-2.481722 -0.906822 0.615438 -0.113101 0.395593 0.901559 
0.158763 -0.202614 -0.227950 0.522608 -0.158245 -0.818320 
0.836304 -0.820676 0.244159 -0.123024 -0.051541 0.986156 
-0.014138 -1.143521 0.206551 -0.617818 -0.247027 0.682044 
1.975147 -0.312785 0.347149 -0.328595 0.174828 0.890895 
0.423071 0.220929 0.276345 -0.109748 -0.297159 0.936542 
0.693860 -0.207915 0.230185 -0.025903 -0.120370 0.970141 
-1.336294 0.280597 0.337066 -0.184240 -0.219888 -0.952377 
1.064481 0.526403 0.334557 -0.103518 0.236018 0.952317 
-2.197138 -0.408157 0.416962 0.318473 -0.358490 -0.864544 
1.863456 -0.949093 0.632056 0.325709 -0.478864 -0.814384 
-0.537015 0.568526 0.335538 0.157710 0.343796 0.916092 
-3.798789 0.276473 0.478690 0.336170 0.275257 0.860292 
-2.705402 0.661394 0.251108 -0.033583 0.014324 -0.997281 
-1.805404 0.436113 0.418953 -0.049402 -0.198357 0.952063 
2.919890 -0.571648 0.917870 -0.533144 0.377639 0.741737 
-1.797258 0.077618 0.421774 -0.023935 -0.012541 0.965213 
-3.743143 0.234988 0.452852 0.450982 0.058879 0.878019 
3.300728 -0.076252 1.040462 0.757012 -0.197836 -0.607484 
-1.837103 0.190306 0.423975 -0.031283 -0.066867 0.960444 
-2.884174 0.081682 0.237428 0.026307 0.102953 0.971119 
0.191363 0.683743 -0.124071 0.444505 0.544902 -0.679828 
0.454713 -0.300227 0.112923 0.149986 -0.127339 0.959672 
1.866378 0.431536 0.350493 -0.057866 -0.217541 0.943074 
-2.423378 -0.841939 0.591734 0.047614 -0.402904 -0.906559 
0.640236 0.083326 0.306484 -0.164885 -0.218152 0.953486 
-2.210230 0.327357 0.337686 -0.064998 -0.175665 -0.955686 
-2.597559 -0.141571 0.259313 0.038581 -0.197817 -0.974241 
0.844385 -0.637375 0.260859 -0.121621 -0.053462 0.986752 
2.225277 -0.745527 0.642412 0.410018 -0.428347 -0.792690 
2.824076 -0.367820 0.717669 -0.531307 0.266086 0.772496 
0.216236 -0.072061 -0.208092 0.613378 -0.103234 -0.752714 
-2.214669 0.779732 0.391721 -0.399193 -0.088892 0.891832 
2.610901 -0.533223 0.659708 -0.318783 0.346632 0.844693 
-1.384683 -0.317001 0.385344 0.134653 0.081749 0.972921 
0.147547 0.122002 -0.275186 0.611048 -0.010040 -0.762894 
0.270782 -0.089523 0.215444 0.361449 -0.208113 0.845809 
0.410121 0.681555 0.103851 0.700779 0.644727 -0.255916 
-2.293984 -0.142378 0.358408 -0.441544 0.170935 0.863126 
1.137935 0.133626 0.296554 0.184498 -0.118004 -0.968649 
-2.864054 -0.195514 0.290176 0.040537 -0.331371 -0.935353 
0.177745 -0.921135 0.067800 -0.140605 -0.387397 -0.903606 
1.235336 0.541513 0.310755 -0.118308 0.397596 -0.907647 
0.288910 -1.380199 0.197665 -0.503134 -0.448177 0.532168 
-2.324165 0.503047 0.321971 0.090680 -0.251303 -0.936737 
0.429499 0.146993 0.251036 -0.091634 -0.269261 0.937758 
1.098998 0.470809 0.306157 -0.039347 0.409243 -0.901470 
0.476606 -0.077985 0.056968 0.601628 -0.027749 -0.758041 
0.324391 -0.903133 0.056935 0.361917 -0.223120 -0.898987 
0.684812 -1.000834 0.195438 -0.156861 -0.037000 0.985313 
-0.288358 -1.201889 0.169055 0.203108 0.149983 0.963106 
0.249852 -0.258617 0.200360 0.493746 -0.130602 0.803787 
1.983846 0.178438 0.344834 -0.210859 -0.093098 0.917232 
-1.294155 0.012205 0.371305 0.065601 -0.070617 0.969299 
1.318869 0.065214 0.330341 -0.033021 -0.116879 0.965966 
1.299495 -0.006672 0.295544 0.185296 -0.126335 -0.968448 
-2.170564 0.289609 0.385562 -0.347062 -0.011658 0.913019 
-0.775414 0.323975 0.377153 0.064557 -0.054058 0.985039 
2.771501 -0.454742 0.715669 -0.490410 0.305365 0.792573 
2.917923 0.340038 0.574637 0.547680 0.163404 -0.814340 
-0.144850 0.918117 0.417274 -0.274984 0.024634 0.952614 
2.260595 0.192641 0.379321 0.498109 -0.101806 -0.830860 
0.144864 1.233928 0.118195 0.689745 0.645757 -0.166174 
-0.238380 0.358638 0.352814 -0.110641 -0.280171 0.949446 
