-1.262859 0.809387 0.174472 0.031552 0.258866 0.932401 
-0.545848 0.143239 0.088062 -0.484306 0.035083 -0.802691 
0.113564 0.388107 0.419822 0.084278 -0.337098 0.935810 
0.793602 -0.271945 0.089097 0.137776 0.010805 -0.948837 
-1.029536 0.768327 0.220793 0.313437 0.197680 -0.923538 
3.260593 0.721329 0.213591 0.480647 -0.034004 -0.868981 
-1.994217 1.162966 -0.028670 -0.638483 -0.078927 0.751791 
-1.370043 0.924600 0.140664 0.476817 0.422161 -0.688982 
0.236645 -0.037866 0.260904 0.282829 -0.218662 0.891615 
3.473917 0.677949 0.348681 0.514585 -0.092220 -0.849182 
1.081561 -0.754727 0.054869 -0.051703 0.034552 -0.984025 
1.392170 1.003593 0.119777 -0.473597 0.403401 -0.662312 
0.872953 0.180923 0.145002 0.113595 0.013152 -0.954170 
0.204996 0.311028 -0.211325 0.714004 0.068943 -0.671315 
2.291409 0.891366 -0.000432 0.081509 -0.177503 -0.956749 
-1.448347 0.252972 0.102769 -0.325102 -0.100647 0.916440 
-0.019300 1.176349 0.022440 -0.461971 0.152294 -0.859597 
2.326712 1.234691 0.010640 0.158248 0.113809 -0.978890 
-0.119070 0.708324 -0.107546 -0.390360 0.571669 -0.692415 
-2.769494 0.822213 -0.595978 0.397523 -0.153568 -0.885218 
-0.192607 -0.428865 0.254377 -0.330585 -0.115844 0.932770 
3.400510 0.707975 0.300330 -0.477677 0.062870 0.869053 
-0.002954 -0.800443 0.032368 -0.642799 -0.330882 -0.670597 
2.886055 0.468434 0.082920 -0.356007 0.031069 0.912531 
-2.569892 1.164795 -0.497006 0.432385 0.041280 -0.898718 
2.001474 0.273835 -0.015581 -0.180887 -0.023514 0.950905 
-1.786549 0.544693 0.043068 -0.408698 -0.121981 0.874373 
-0.145977 1.157671 0.070814 -0.640336 0.379707 -0.612554 
-0.042153 1.067730 -0.000789 -0.358730 0.226157 -0.895624 
1.407839 0.334845 0.073977 -0.027210 -0.109130 -0.990217 
-2.344197 -0.210768 -0.141571 -0.230000 0.169687 0.943214 
2.423780 0.299165 -0.000927 0.269001 -0.107402 -0.945248 
0.186152 -0.202235 0.261270 0.299575 -0.110012 0.912833 
1.823000 0.714468 -0.018303 -0.010038 -0.200768 -0.977361 
-0.164765 0.320242 -0.234377 -0.676345 0.085934 -0.700685 
-0.112201 -0.909943 0.088998 0.069651 -0.443867 -0.892042 
1.740299 -0.539186 0.120813 0.211369 -0.220446 -0.929104 
-0.110136 -0.104912 -0.234023 -0.528550 -0.110381 -0.819011 
-2.268450 1.289691 -0.256279 -0.470829 0.406327 0.732305 
-0.525691 -0.594638 0.076262 -0.251087 -0.070329 -0.929150 
0.350931 -0.603776 0.027466 0.402366 -0.083234 -0.883875 
-0.632190 -0.900347 0.093478 -0.112889 -0.090750 -0.975372 
0.205142 -0.514312 -0.063448 0.191757 -0.396920 -0.851287 
1.597049 -0.387074 0.016630 0.022004 -0.053910 -0.996902 
2.603445 0.658642 -0.004170 0.036902 -0.151875 -0.975247 
-0.057623 0.514434 0.464121 -0.071299 -0.309052 0.947281 
-0.453172 0.375804 0.108735 -0.615992 0.138484 -0.725799 
2.336836 -0.080598 0.108004 0.211029 0.306545 0.894464 
-2.700445 0.846054 -0.550640 -0.385982 -0.036208 0.904245 
-1.828892 0.616039 0.038180 -0.416795 -0.142128 0.866075 
-1.214958 0.723775 0.122686 0.375340 0.236140 -0.870134 
-1.348102 -0.645997 0.060274 0.032883 0.082649 -0.992541 
-2.414038 1.125927 -0.390661 0.401156 0.044282 -0.909735 
0.278007 -0.715316 0.022835 -0.030129 -0.343019 -0.927706 
-0.706321 -0.304495 0.076512 -0.226559 0.005497 -0.926818 
-1.624594 0.713345 0.052869 0.183271 -0.182945 -0.956622 
1.348464 -0.176133 0.091851 0.081267 -0.046457 0.988499 
2.987782 0.507361 0.106913 -0.434766 -0.005935 0.887490 
-2.270717 0.875757 -0.274549 -0.597388 -0.109282 0.757940 
-2.319601 1.080842 -0.320960 0.356395 0.099777 -0.922208 
-1.992958 -0.298016 0.022331 0.250719 -0.177770 -0.942883 
3.287303 0.639628 0.246372 -0.383805 0.190898 0.884734 
0.720839 -0.205428 0.135481 0.243600 -0.135468 0.948544 
-1.482338 0.190565 0.060898 0.157104 -0.087678 -0.967333 
0.182574 -0.676482 0.193782 0.174872 -0.169214 0.962047 
1.291899 0.367496 0.137000 0.290547 -0.155086 0.916778 
0.444631 0.468951 0.128310 0.658459 0.225726 -0.684707 
1.344052 0.264248 0.118721 0.231936 -0.115995 0.936328 
0.056475 -0.263925 -0.224494 0.430066 -0.259118 -0.835562 
0.705939 0.208758 0.270714 0.119893 -0.271736 0.944004 
-0.292955 -0.886020 0.057830 -0.072884 -0.255539 -0.958485 
3.240473 0.989803 0.158712 0.447623 -0.029953 -0.892166 
-0.728439 0.171430 0.127082 -0.279710 0.020915 -0.890338 
0.315622 -0.368758 0.196131 0.657830 -0.132495 0.737416 
1.841602 0.635392 0.011038 0.129597 -0.132579 0.942411 
2.196222 1.199402 0.046991 0.133246 -0.060885 0.956068 
1.945665 -0.077160 0.036660 0.065204 -0.218625 -0.953809 
-0.342243 0.299272 0.047371 -0.694927 0.055083 -0.713225 
-2.855074 0.465869 -0.565158 -0.252942 0.033075 0.946526 
-0.291095 0.633822 0.445998 -0.432126 -0.108743 0.855514 
-1.945553 1.281027 -0.029953 0.407064 0.645966 -0.630599 
0.137760 0.210304 0.345507 0.104513 -0.285955 0.949655 
-1.828861 1.172033 0.102321 -0.215182 0.179997 0.956822 
2.167212 0.003760 0.041555 -0.054755 -0.308860 -0.936872 
0.502042 0.601054 0.272247 0.430641 0.559384 -0.639608 
-1.783333 1.348125 0.058039 0.815109 0.018198 -0.542434 
-0.556131 -0.370386 0.100769 -0.307403 -0.104821 0.936324 
0.289359 0.862667 0.129707 0.824922 0.339838 -0.385221 
-2.050097 0.910730 -0.106699 -0.672422 -0.187464 0.663793 
0.542068 -0.223176 0.033660 0.393410 0.009052 -0.869050 
2.267816 0.810517 -0.003644 0.078708 -0.085793 -0.971292 
-0.319713 -0.679270 0.155701 -0.396547 -0.061280 0.898473 
0.617189 -0.787306 0.109873 0.083745 -0.111405 -0.976271 
-2.831374 0.067206 -0.492876 0.348492 -0.223146 -0.908355 
1.337086 0.959280 0.134529 -0.008497 0.259552 0.880366 
0.554645 0.058645 0.239364 0.143187 -0.255676 0.937981 
-0.755434 0.619579 0.276203 0.072438 0.366454 -0.831031 
-0.481151 -0.269541 0.023004 -0.451607 0.004397 -0.851927 
-2.427561 1.183619 -0.340106 -0.552267 0.009016 0.792737 
0.048447 -1.049744 0.186248 0.339774 0.139163 0.924821 
-1.496959 0.373929 0.064978 0.151796 -0.128840 -0.966936 
-1.217151 0.666925 0.205002 -0.286580 -0.120260 0.926555 
1.517252 0.945453 0.114461 0.324088 -0.137482 0.914956 
-1.386533 0.822188 0.188358 -0.170117 0.030657 0.983260 
2.549700 0.431376 -0.010398 0.153174 -0.087533 -0.979485 
-2.566778 0.296009 -0.421802 -0.502174 0.198958 0.809086 
1.212022 0.580745 0.120119 -0.040550 -0.137387 -0.987669 
-1.474811 -0.222289 0.075010 0.114381 -0.029648 -0.980121 
0.421989 0.340250 0.097580 0.624639 0.115688 -0.734793 
-0.370658 0.251860 0.308642 -0.101449 -0.265970 0.955661 
-0.109517 0.771121 -0.073725 -0.465522 0.402450 -0.773050 
-2.088367 -0.023545 -0.070801 -0.276792 0.122515 0.946322 
-1.104336 -0.468399 0.092915 0.010588 0.074499 -0.992473 
0.086184 -0.767888 0.208494 0.241777 -0.058957 0.954518 
-0.373426 0.637316 0.034561 -0.719214 0.382623 -0.537752 
2.233146 0.236725 0.028572 0.183306 0.176913 0.918885 
3.242792 0.187670 0.315110 0.387326 -0.232082 -0.879697 
0.348728 -0.430620 0.116554 0.470328 -0.113010 0.864472 
-3.240093 0.510059 -0.646384 0.235396 -0.237094 -0.923040 
0.341362 0.808155 0.307638 0.868204 0.409101 0.264060 
-0.101613 -0.531452 -0.087017 -0.196120 -0.479498 -0.846410 
1.851160 -0.013420 -0.014944 0.024473 -0.129048 -0.987048 
-2.161477 0.393434 -0.200297 -0.235426 -0.101391 0.962995 
-0.524821 0.420988 0.129035 -0.552013 0.178941 -0.744216 
3.296133 1.027079 0.185335 0.473142 -0.019639 -0.879683 
0.669861 -0.351589 0.112502 0.266338 -0.093633 0.949712 
0.171027 -0.756118 0.017724 -0.027455 -0.369639 -0.911112 
-1.427387 -0.270486 0.104164 -0.138562 -0.028422 0.980852 
-0.860540 -0.831921 0.083768 -0.104891 -0.059776 0.984211 
-1.915761 0.156151 -0.017730 -0.363409 0.058453 0.918611 
-2.117541 0.163850 -0.154159 0.537200 -0.223477 -0.776732 
1.491812 -0.593328 0.024814 0.001368 -0.008670 -0.996252 
0.002315 1.330210 0.015399 0.330523 -0.095266 -0.910882 
1.196045 0.749706 0.181727 0.031934 0.195739 0.964182 
-0.602560 0.556023 0.269885 -0.273028 0.568955 -0.674581 
-1.036615 -0.410188 0.125636 -0.104862 -0.108777 0.985268 
-2.515633 0.784483 -0.464703 0.548476 -0.189508 -0.800920 
-3.791528 0.987009 -0.698291 0.004758 -0.006860 0.999517 
-0.342339 -0.154268 0.207495 -0.373839 -0.205935 0.858857 
0.506558 0.508224 0.144057 0.600792 0.257545 -0.700277 
0.693319 -1.004512 0.106803 -0.005841 -0.186745 -0.972065 
-1.585569 -0.464542 0.089809 -0.100877 0.006680 0.989391 
-2.758848 0.453740 -0.539371 0.397080 -0.255787 -0.873083 
2.452904 -0.011180 0.085518 0.331623 -0.218832 -0.913381 
-1.914704 -0.579946 0.080633 0.147176 -0.163288 -0.965081 
-2.291712 -0.251935 -0.107312 0.450988 -0.309166 -0.808763 
0.027011 0.501200 0.457634 0.042608 -0.316547 0.946000 
-0.264981 0.460423 0.411986 -0.117347 -0.234560 0.961264 
3.217436 0.883714 0.162858 0.429302 -0.054656 -0.899147 
-0.489086 -0.927844 0.122811 -0.154631 0.042846 0.984797 
3.694099 0.680765 0.507797 0.576347 -0.078471 -0.811847 
1.696150 0.949846 0.056423 0.274502 -0.276637 0.901505 
-0.488893 -0.309555 0.109874 -0.317465 -0.134625 0.926548 
-0.963139 0.732536 0.235492 0.305718 0.187610 -0.927263 
-0.786038 -0.293771 0.097039 -0.153410 0.008302 -0.949306 
3.058711 0.085017 0.241685 -0.346807 0.193633 0.904880 
-0.034927 -0.850688 0.209229 -0.366590 0.013792 0.918528 
0.698150 0.305626 0.127797 0.278925 0.055437 -0.896812 
0.156576 -0.752931 0.185488 0.140496 -0.102781 0.973775 
0.588119 -0.104294 0.177648 0.214715 -0.191418 0.938385 
-0.252876 0.897667 0.377250 -0.742692 0.187249 0.597653 
-3.394123 0.810782 -0.696098 0.099276 -0.060307 -0.989545 
-0.781276 0.360427 0.153808 -0.215404 0.134683 -0.917007 
2.073271 1.152919 -0.005737 0.215733 0.002156 -0.971641 
-0.081040 0.388284 0.418242 -0.059288 -0.341362 0.935439 
0.284211 -0.310262 -0.063401 0.575203 -0.145963 -0.794818 
0.723776 0.565506 0.279095 0.046384 0.280424 0.936143 
-0.290333 0.640018 -0.096653 -0.619516 0.337768 -0.698889 
-0.672268 0.299995 0.127254 -0.320919 0.070821 -0.880892 
1.010763 -0.122499 0.123771 -0.001095 0.052216 -0.983362 
0.870984 0.360639 0.154022 0.079589 0.118878 -0.976641 
2.277393 1.191893 0.048128 0.098501 -0.049689 0.958980 
0.222765 1.112978 0.175502 0.873067 0.410922 -0.225277 
-2.660594 -0.429275 -0.230222 0.405254 -0.292013 -0.863797 
-0.650172 0.197562 0.116124 -0.360872 0.020979 -0.857864 
2.842980 0.937366 0.072327 -0.192454 0.001679 0.949428 
2.172115 -0.423185 0.203524 -0.273256 0.284252 0.904369 
-1.858375 0.743776 0.040684 -0.431446 -0.187304 0.851340 
0.103497 1.178638 0.416706 -0.313036 0.515816 0.774187 
-0.293112 0.562582 -0.112207 -0.659825 0.225313 -0.699138 
-2.856838 1.289823 -0.611312 -0.385475 0.308728 0.853830 
1.377730 0.169129 0.105244 0.181984 -0.084553 0.953542 
-0.175246 -1.185078 0.207446 0.267037 -0.375992 -0.876998 
-1.809307 -0.254492 0.023989 -0.213499 0.063771 0.962458 
-0.332001 0.528019 -0.059012 -0.694547 0.190950 -0.682363 
1.015672 0.529334 0.150287 -0.239776 0.275746 -0.900201 
1.238756 0.180249 0.106062 -0.038421 -0.042153 -0.992792 
-1.305843 -0.124496 0.115486 -0.166450 -0.055442 0.974543 
0.944346 0.147813 0.151877 0.041842 0.014717 -0.980073 
-0.495576 0.058839 0.243004 -0.135095 -0.267734 0.932932 
-0.110075 0.585602 0.478739 -0.139711 -0.266669 0.951422 
-0.354422 -0.072793 0.210235 -0.265257 -0.234229 0.905151 
0.078107 -1.126176 0.198620 0.022418 -0.478530 -0.868264 
1.285944 0.756353 0.098933 -0.117673 -0.075029 -0.970345 
-0.483915 0.092503 0.070365 -0.528837 0.028210 -0.792032 
1.779854 0.296367 -0.007501 -0.004293 -0.146813 -0.988107 
-1.801578 -0.177781 0.018375 -0.238362 0.063089 0.956628 
-2.917105 0.712561 -0.632739 0.385473 -0.371484 -0.841596 
1.391164 -0.114074 0.067458 -0.020628 -0.013427 -0.995691 
3.251409 0.399551 0.268246 0.332607 -0.275611 -0.880256 
-2.621290 -0.202034 -0.288220 -0.510482 0.289618 0.768272 
0.571365 0.397090 0.127290 0.467343 0.159829 -0.790834 
1.262914 0.504905 0.107874 -0.037073 -0.127072 -0.988486 
-0.884100 0.627529 0.244447 0.281365 0.245058 -0.910341 
1.614875 1.050285 0.106756 0.220441 0.019428 0.969309 
1.142183 0.862650 0.180330 0.187100 0.061976 0.968152 
2.106051 0.044722 0.017085 -0.053842 -0.260596 -0.953183 
-2.887998 0.781990 -0.637567 0.187307 0.038656 -0.969917 
-0.148997 -0.763944 0.016896 0.080368 -0.399909 -0.906510 
-0.393882 0.323508 0.088726 -0.661720 0.092326 -0.717726 
-0.950020 -0.103870 0.178523 -0.126472 -0.141281 0.975795 
0.687988 -0.702568 0.111214 0.062915 -0.085804 -0.979085 
1.664477 -0.545888 0.076681 0.134765 -0.143954 -0.959061 
-2.885909 0.016902 -0.500999 0.333352 -0.242483 -0.910295 
-2.211343 1.192334 -0.189133 -0.638885 -0.007001 0.726211 
-0.557182 0.563220 0.346873 0.049412 0.282221 0.946021 
-0.403313 -1.304998 0.175463 -0.686419 0.238948 0.566287 
-3.287852 0.979239 -0.700268 -0.104304 -0.071478 0.979866 
-1.692851 0.224842 0.015915 0.230131 -0.129606 -0.951669 
-2.740955 0.654254 -0.553818 -0.297522 -0.004782 0.933372 
-1.562150 0.754960 0.113503 -0.433721 -0.249986 0.850841 
-3.187011 1.222286 -0.696042 -0.195525 0.199372 0.934090 
-2.377568 -0.539168 -0.047590 -0.336577 0.266878 0.895615 
0.149607 -0.024737 0.287157 0.154108 -0.173083 0.965567 
0.839467 -0.434243 0.146149 0.155873 -0.051326 0.982000 
-0.788499 0.289687 0.153056 -0.194446 0.025147 -0.933397 
1.400906 -0.663916 0.026606 -0.055732 0.046098 -0.992131 
0.645973 -0.534425 0.097811 0.143137 -0.062562 -0.955811 
1.730182 -0.227346 -0.006469 0.019980 -0.087054 -0.994771 
0.351200 0.323342 0.051018 0.684982 0.083567 -0.717126 
-3.285969 0.743307 -0.673632 -0.178020 0.161501 0.952070 
-0.385518 0.358639 0.346974 -0.088616 -0.222178 0.967427 
-1.447706 0.893924 0.155808 0.039099 0.259283 0.881806 
1.771551 0.500745 0.023461 0.144652 -0.087029 0.947219 
-1.990776 -0.000402 -0.040997 0.330933 -0.153413 -0.929402 
1.076482 -0.481036 0.088888 -0.050839 0.044456 -0.989547 
0.735222 0.022662 0.099718 0.276945 0.045677 -0.882716 
2.675785 -0.254800 0.211123 -0.193782 0.281028 0.932567 
-2.668179 1.187415 -0.561869 0.443720 0.056216 -0.893806 
-1.948424 0.354708 -0.050768 0.358739 -0.173358 -0.898758 
-0.138130 1.225373 0.121161 -0.758270 0.526738 -0.306984 
-2.949432 1.256165 -0.634434 -0.298856 0.070947 0.940594 
-2.117634 0.490734 -0.174343 -0.266672 -0.143056 0.947008 
-1.442921 -0.157367 0.073052 0.124802 -0.025921 -0.977238 
-0.804066 -0.137771 0.168077 -0.171589 -0.150531 0.960692 
-2.238346 -0.022342 -0.150800 -0.174040 0.111978 0.972968 
-3.154476 0.695786 -0.654114 -0.242357 0.218596 0.930158 
-1.397289 0.807441 0.104265 0.098909 -0.147361 -0.974978 
-2.429511 0.705137 -0.397179 -0.554658 0.025400 0.829567 
0.683744 0.472790 0.321901 0.041803 0.240577 0.956776 
-0.358816 -0.054121 0.029007 -0.607214 0.010390 -0.779335 
0.367689 0.486499 0.022831 0.706907 0.185855 -0.672908 
3.638571 0.858615 0.457599 -0.567147 -0.029086 0.813243 
-0.707721 0.216656 0.272925 -0.114734 -0.276699 0.942630 
-1.542393 -0.404516 0.093064 -0.113580 -0.002793 0.986492 
2.610620 0.395628 -0.003344 0.158059 -0.127351 -0.977894 
1.863805 0.866147 0.021513 0.109682 -0.241782 0.911721 
-1.417467 -0.441465 0.113095 -0.084606 -0.039957 0.992345 
2.421236 0.989496 -0.012542 0.131572 -0.012945 -0.990742 
-0.482256 0.632651 0.301426 -0.473662 0.612653 -0.597432 
-0.440183 0.399232 0.369420 -0.042342 -0.182047 0.967864 
-0.369162 -0.577821 0.100235 -0.351025 -0.070449 0.922937 
-0.236048 0.321418 -0.188056 -0.743351 0.068866 -0.641525 
0.047506 0.591928 0.486547 0.084965 -0.281995 0.953560 
-2.568562 -0.271147 -0.236162 -0.534290 0.301502 0.749486 
0.772967 0.273566 0.260353 0.193720 -0.257343 0.934700 
-1.729754 -0.012662 0.001676 0.249534 -0.089013 -0.949588 
1.780374 -0.255348 0.035336 0.089482 -0.150467 -0.968543 
0.779755 -0.962371 0.096936 0.090005 0.072347 0.983207 
3.027992 0.447553 0.135979 0.203604 -0.341571 -0.908661 
-2.058074 0.477602 -0.120660 -0.306108 -0.116943 0.928304 
3.242176 0.503723 0.245542 -0.356186 0.233892 0.892025 
0.352060 0.550574 -0.017226 0.689878 0.239067 -0.673431 
-2.059854 1.257390 -0.084500 -0.579659 0.126825 0.766889 
0.847601 0.582042 0.234328 -0.251064 0.302819 -0.884624 
0.655190 0.496644 0.193924 0.219216 0.440640 -0.722064 
0.262687 -0.773018 0.158602 0.242876 -0.052226 0.930922 
-0.178474 1.115451 0.404773 -0.783503 0.406542 -0.371110 
0.226683 0.687621 -0.085964 0.519539 0.492739 -0.661765 
2.204150 0.173713 0.006450 -0.149290 -0.268520 -0.945875 
0.304788 0.702334 -0.044693 0.586115 0.563693 -0.570680 
-3.032155 0.560369 -0.623152 0.324761 -0.308504 -0.878943 
-2.962766 0.377418 -0.579355 0.336483 -0.294638 -0.885025 
0.889119 -0.043780 0.189756 0.144719 -0.170302 0.965976 
1.522945 0.377456 0.083500 0.229751 -0.083738 0.927982 
1.926218 0.913636 0.026054 0.109605 -0.175844 0.893682 
0.791873 0.518318 0.261354 0.081556 0.288386 0.936365 
-2.610909 0.453212 -0.479020 -0.411095 0.116565 0.893398 
1.549163 -0.510439 0.025378 -0.008283 0.010204 0.998540 
-3.028248 1.113501 -0.689999 0.207507 -0.023965 -0.974893 
0.678049 -0.919559 0.086017 0.066301 -0.098005 -0.974494 
-0.305724 0.187499 -0.064108 -0.727114 -0.002916 -0.672539 
1.856479 0.299549 -0.025085 -0.000325 -0.151801 -0.987034 
2.819985 -0.129634 0.182836 -0.239633 0.257912 0.934387 
0.662705 -0.637191 0.136151 0.170305 -0.008758 0.979511 
-1.991627 0.725942 -0.067065 -0.353912 -0.213980 0.890534 
3.126911 1.161318 0.133693 0.402930 0.405565 -0.787179 
-3.003222 0.185908 -0.551082 0.302631 -0.246449 -0.912526 
0.170208 0.733974 -0.071709 0.501372 0.466294 -0.698351 
-1.895697 1.026403 0.027910 -0.606332 -0.143767 0.731610 
-0.136979 -1.102767 0.197678 -0.224733 0.199519 0.947084 
-0.409912 -0.356992 0.093702 -0.356177 -0.129041 0.917924 
-0.380801 -0.651508 0.099294 -0.311055 -0.045474 0.936812 
-1.632237 0.272718 0.059880 -0.365097 -0.050907 0.907905 
0.637347 0.056785 0.235819 0.132597 -0.243129 0.945271 
0.106661 -0.792457 0.036497 -0.025478 -0.434593 -0.897771 
-2.537555 -0.504305 -0.140778 0.419149 -0.305568 -0.849162 
-1.264918 0.903733 0.171910 -0.083805 0.153008 0.923364 
-2.182179 0.860237 -0.211154 -0.623498 -0.132952 0.730180 
-2.459882 0.444524 -0.420719 0.398374 -0.091746 -0.903595 
-2.233788 1.053141 -0.275446 0.492451 -0.133173 -0.850786 
-0.822763 -0.230469 0.096339 -0.150714 0.024845 -0.947968 
-0.443330 0.586907 0.179174 -0.673859 0.395027 -0.574911 
3.729280 0.745196 0.529461 0.585404 -0.060553 -0.806747 
0.429252 0.348766 0.345768 0.072224 -0.264561 0.956762 
0.142137 -0.559389 -0.063253 0.246168 -0.430858 -0.861426 
-0.094375 0.250475 -0.291299 -0.611930 0.051135 -0.769873 
1.022792 0.777059 0.209838 0.178276 0.055138 0.974636 
-1.187683 -0.471273 0.084793 0.025483 0.095314 -0.993810 
1.699443 -0.104057 0.002825 0.005538 -0.082032 -0.994216 
1.664631 0.035941 0.030252 0.044559 0.035760 0.990938 
3.084876 0.417489 0.173993 0.241432 -0.320931 -0.901291 
-3.112923 0.934092 -0.683623 -0.216547 0.050527 0.968783 
0.473854 -1.014201 0.111281 0.103736 -0.195106 -0.969138 
-2.169468 0.608308 -0.227982 0.306700 0.015226 -0.928375 
0.385848 0.297188 0.325661 0.096429 -0.252874 0.958933 
2.320724 0.321945 0.016452 0.157263 0.166339 0.948432 
-0.055719 -1.167737 0.233584 -0.464345 -0.116905 0.809116 
0.863143 -0.237804 0.134941 0.209828 -0.105551 0.965051 
-1.011668 -0.243592 0.156023 -0.119033 -0.102049 0.985921 
-2.144640 1.172799 -0.136020 -0.656052 -0.014781 0.705818 
-1.304236 -0.338577 0.131316 -0.096064 -0.062395 0.990484 
-0.423728 -0.004556 0.220330 -0.179541 -0.254272 0.927456 
0.643196 0.024012 0.085014 0.359169 0.039149 -0.856816 
-0.294881 0.748087 0.018075 -0.652054 0.503364 -0.532295 
-0.553040 -0.681488 0.121946 -0.199493 -0.014292 0.970168 
-0.596303 -0.587469 0.122537 -0.209148 -0.036641 0.966360 
-0.199925 -0.564402 0.211241 -0.299436 -0.175573 0.928226 
-0.600991 0.036386 0.233575 -0.125580 -0.243967 0.943112 
-1.933728 0.066104 -0.028963 -0.346100 0.094075 0.929930 
-0.752662 -0.365484 0.132886 -0.202543 -0.082993 0.965592 
-1.826962 0.983112 0.066429 -0.459183 -0.288980 0.823962 
0.255986 -0.468542 -0.083174 0.414336 -0.268255 -0.822830 
-1.165777 0.782787 0.178259 0.407194 0.303329 -0.842937 
0.025670 0.845220 0.477767 0.130949 -0.109310 0.982159 
1.486967 0.315691 0.057027 -0.021887 -0.117687 -0.990203 
0.164077 1.084786 0.294327 0.539693 0.622774 0.322712 
0.286290 0.151383 -0.139281 0.743432 -0.020050 -0.647923 
-2.339806 -0.303497 -0.113074 0.443617 -0.308240 -0.817399 
0.236544 0.096638 -0.176541 0.691373 -0.033542 -0.692354 
-0.283136 -0.235765 0.224760 -0.509974 -0.166781 0.798234 
-3.315582 0.822860 -0.689714 0.111820 -0.043078 -0.987784 
2.692338 0.962708 0.053003 -0.100794 -0.011286 0.960198 
-2.782070 0.127358 -0.488162 0.363485 -0.208342 -0.905101 
-0.693746 -0.467608 0.101364 -0.152349 -0.037128 -0.955628 
0.359789 0.395697 0.041354 0.694602 0.130425 -0.697164 
2.806505 -0.016500 0.144179 0.250743 -0.242248 -0.934439 
0.567636 0.558143 0.241602 0.336830 0.514200 -0.674250 
2.529558 0.625716 0.002714 -0.056330 0.024725 0.995011 
-0.244853 0.820284 0.015691 -0.611070 0.450430 -0.633811 
-0.624821 -0.510919 0.089540 -0.197514 -0.048448 -0.943007 
-0.135459 -0.335351 -0.175648 -0.487137 -0.253652 -0.814920 
1.477362 -0.020103 0.051884 -0.021513 -0.034349 -0.994563 
-0.751325 0.018379 0.225196 -0.105123 -0.215173 0.957847 
-0.765311 -0.223995 0.137380 -0.221523 -0.124879 0.955483 
-1.029748 -0.309401 0.122406 0.005890 0.045564 -0.994412 
0.243540 -0.257095 -0.133949 0.596291 -0.171535 -0.766876 
0.148200 -0.440716 0.262055 0.202900 -0.137889 0.965300 
-0.086110 0.068041 -0.277140 -0.554836 -0.015648 -0.817074 
2.112311 0.157948 0.009647 -0.322844 0.056133 0.912672 
-0.094091 -0.439620 0.268737 -0.136245 -0.168151 0.974215 
1.223734 0.317185 0.149999 0.288327 -0.165814 0.921116 
-0.497203 -0.187317 0.153972 -0.255765 -0.177891 0.929275 
2.664143 1.088710 0.070173 -0.100118 -0.009564 0.952946 
2.261296 -0.554978 0.265006 0.178521 -0.346803 -0.916905 
-1.866084 1.276018 0.032539 -0.596993 0.423539 0.624195 
0.356194 -0.069901 0.025269 0.593461 0.009744 -0.792098 
-2.726582 -0.277175 -0.317810 -0.414747 0.265344 0.860044 
2.093641 1.074675 0.020558 0.160432 -0.297810 0.901293 
2.679557 0.737517 -0.001106 0.005968 -0.228583 -0.965627 
-2.396882 -0.260492 -0.151333 -0.266278 0.188805 0.927105 
0.323295 -1.169010 0.120879 0.041910 -0.144413 -0.967178 
-0.308045 -0.347113 -0.034130 -0.577173 -0.059120 -0.808335 
-2.300569 1.025139 -0.279302 -0.571613 -0.104375 0.789467 
2.836241 0.157988 0.118620 0.218728 -0.261007 -0.934186 
-1.441931 0.396925 0.115478 -0.374891 -0.140773 0.894939 
1.921357 -0.460673 0.174543 -0.335903 0.298100 0.888721 
-2.879050 0.318612 -0.548680 -0.274446 0.088654 0.937713 
0.294917 -0.835921 0.052291 -0.008791 -0.300635 -0.946051 
-0.188864 1.036382 0.428416 -0.500166 -0.010290 0.804299 
-2.108120 1.113679 -0.182912 0.415680 -0.031992 -0.903415 
0.348519 0.239018 0.310006 0.109707 -0.279142 0.951462 
2.339567 -0.235224 0.164315 0.110604 0.315766 0.905835 
2.709384 1.028259 0.084684 -0.147091 -0.014357 0.937951 
-1.687868 -0.495234 0.071620 -0.108972 0.030837 0.987280 
0.170071 0.606042 -0.145942 0.527576 0.340377 -0.743229 
1.860028 1.308928 0.025606 0.230093 0.403336 0.867700 
0.021971 0.184098 0.338419 0.036411 -0.269907 0.956505 
-1.343551 0.206522 0.124481 -0.289853 -0.119651 0.926609 
1.008970 -0.866178 0.068805 -0.067853 -0.042489 -0.980126 
-1.655196 0.563018 0.076370 -0.411250 -0.155109 0.872618 
0.948523 -0.612528 0.102115 0.151432 -0.066185 0.981655 
2.324713 1.129046 0.005464 0.250810 0.056746 -0.962215 
0.278998 0.518391 0.423629 0.127026 -0.200563 0.969387 
-0.419327 -1.173499 0.147397 -0.439327 0.291487 0.790406 
-2.225348 0.424340 -0.226648 -0.705817 0.169784 0.680324 
2.842727 0.292082 0.094334 0.194869 -0.268144 -0.935544 
-0.178134 1.223696 0.467463 0.503384 0.534496 0.626926 
-1.544843 -0.184122 0.071856 -0.189498 0.001182 0.968638 
1.005521 -0.558164 0.088495 -0.029979 0.019124 -0.986886 
1.976035 0.544394 -0.031243 -0.121304 -0.167906 -0.969506 
0.117950 0.142780 -0.263492 0.600463 0.006324 -0.776804 
1.539310 0.757635 0.091326 0.307401 -0.226701 0.897368 
-1.703338 -0.181926 0.039001 -0.219076 0.039373 0.961362 
-1.952462 0.222954 -0.021592 -0.371000 0.039010 0.910849 
-2.359936 0.940630 -0.350345 0.478584 -0.259775 -0.816463 
-0.154352 -0.264143 0.270771 -0.241609 -0.050945 0.955555 
1.852753 -0.080270 0.020350 -0.057102 0.127883 0.977147 
-3.070658 0.764562 -0.651458 -0.271557 0.242672 0.916758 
0.899927 0.409987 0.197019 -0.260613 0.499598 -0.825009 
-0.546348 0.650422 0.330072 0.062621 0.307918 0.932375 
-0.903518 0.166968 0.159744 -0.088918 0.012282 -0.970180 
3.513951 0.627180 0.380805 0.526301 -0.102287 -0.841756 
1.330779 -0.009377 0.082812 -0.032090 -0.010429 -0.994954 
2.491466 1.100513 0.006590 0.222650 0.050194 -0.970366 
-0.131454 -0.014240 -0.236839 -0.572868 -0.055125 -0.798276 
2.079930 -0.428590 0.189908 -0.300222 0.286582 0.897879 
-2.656481 0.507706 -0.516869 0.421897 -0.212101 -0.873580 
2.188534 0.097798 0.015318 -0.109035 -0.286253 -0.947272 
0.347147 -0.805865 0.147338 0.319816 -0.008551 0.926242 
1.687408 1.137711 -0.003502 -0.377471 0.235672 -0.852301 
-0.897349 -0.045242 0.126538 -0.131966 0.045978 -0.939049 
0.228015 -0.578141 -0.020281 -0.046951 -0.398933 -0.906541 
1.888775 1.217024 -0.009998 0.147559 -0.160743 -0.962364 
-0.828485 0.437999 0.260871 -0.078131 0.329974 0.936054 
-1.048878 -0.172268 0.162015 -0.117913 -0.112388 0.986081 
2.808380 0.583882 0.045818 -0.284102 0.016259 0.936905 
1.227042 -0.350468 0.086346 -0.046847 0.047327 -0.995258 
-2.449254 1.188045 -0.408878 0.406202 0.041987 -0.909446 
-3.120969 0.234921 -0.577170 -0.240317 0.146742 0.947110 
-1.865328 1.094911 0.055018 -0.644985 -0.149246 0.706996 
1.202435 0.818589 0.168877 0.035849 0.203617 0.949045 
-1.722545 0.468614 0.052862 -0.400127 -0.104202 0.883272 
0.322322 0.280315 -0.027638 0.721057 0.040030 -0.686300 
-2.328923 1.262395 -0.322935 0.458683 0.123055 -0.877865 
-0.146031 1.062883 0.030586 -0.529162 0.255788 -0.799286 
-0.022562 -0.348536 0.282159 -0.110155 -0.000553 0.991847 
-1.046084 -0.086742 0.174116 -0.137154 -0.126742 0.980305 
2.641217 0.932445 0.005296 0.267524 0.183894 -0.941552 
0.662690 -0.096375 0.178019 0.200680 -0.183605 0.945110 
2.105872 -0.360891 0.170340 -0.323727 0.264116 0.893879 
-3.032833 0.084564 -0.537302 -0.295723 0.201100 0.927339 
-0.321020 -0.295917 0.203274 -0.564045 -0.156755 0.777494 
0.970357 0.231562 0.164559 0.006368 -0.005582 -0.998745 
-0.185917 1.185175 0.206595 -0.775328 0.565467 -0.180324 
-1.509344 0.047568 0.049260 0.174926 -0.061906 -0.964760 
2.406120 0.602991 -0.009668 0.060789 0.025487 -0.992819 
-0.094953 0.654681 0.479853 -0.069226 0.183308 0.975968 
-1.682765 -0.072596 0.032968 -0.252774 0.036100 0.953481 
-0.323981 -1.236673 0.126627 0.137697 -0.147658 -0.949177 
-2.110315 0.909426 -0.156346 -0.642174 -0.181570 0.700580 
-0.645287 0.440951 0.358918 -0.060005 0.099385 0.975041 
-0.056320 -0.268705 0.280603 -0.152386 -0.013161 0.982984 
1.788270 0.870087 0.030166 0.214609 -0.229968 0.919491 
1.070781 0.200272 0.181501 0.266278 -0.175056 0.937790 
2.685595 1.243319 0.040387 -0.084224 0.264838 0.941384 
2.670422 -0.185822 0.185513 -0.145383 0.277357 0.927182 
0.133571 0.991436 0.464935 0.209989 -0.020985 0.975367 
0.719923 0.496839 0.231959 0.049993 0.529611 -0.740382 
-0.043542 0.417103 -0.276440 -0.537299 0.218032 -0.790677 
3.123990 0.758006 0.129671 -0.321893 0.166399 0.917982 
3.455120 0.329083 0.401757 -0.478229 0.168671 0.857914 
2.115465 -0.042382 0.059999 -0.389258 0.156108 0.887600 
1.960815 0.199358 -0.017206 -0.115670 0.022406 0.967622 
-0.138426 1.260335 0.222957 -0.620635 0.753642 -0.012102 
1.884411 1.032525 -0.026913 0.245413 -0.021558 -0.947801 
-0.187193 0.215106 -0.223299 -0.685102 0.020184 -0.701895 
0.391401 0.541305 0.061365 0.702379 0.256313 -0.657512 
2.824088 0.084744 0.133064 -0.254719 0.189937 0.937346 
-2.982738 0.616578 -0.619621 -0.170095 -0.036353 0.975522 
-1.027472 -0.579900 0.087678 -0.012198 0.048109 -0.988848 
2.253238 1.140816 0.004974 0.263107 0.060004 -0.958605 
-0.400130 -0.296061 0.005078 -0.517430 -0.002677 -0.832225 
2.076475 0.379026 -0.014208 -0.303849 -0.093972 0.923719 
2.504690 -0.441145 0.258253 0.176477 -0.327013 -0.925738 
-0.107222 -0.265616 -0.202137 -0.480902 -0.224191 -0.821164 
-0.630880 -0.663747 0.117837 -0.110338 -0.088384 -0.975513 
-1.550592 -0.331360 0.084503 -0.140123 0.000304 0.980235 
-1.880030 0.673573 0.030109 -0.423268 -0.155035 0.859338 
-2.274341 0.457998 -0.267880 -0.650979 0.147538 0.734616 
-1.112370 0.242099 0.183641 -0.265806 -0.193883 0.928784 
3.114571 0.181034 0.249367 -0.384824 0.156814 0.894037 
3.054497 1.149064 0.097987 0.352304 0.205899 -0.891372 
-0.072074 1.298628 0.216513 -0.365516 0.845882 0.352763 
0.379799 -1.314965 0.192807 0.426335 0.156887 0.645422 
-1.405199 -0.087599 0.091554 -0.197155 -0.030955 0.967122 
-0.956696 0.611601 0.218406 0.323007 0.321186 -0.867545 
-0.862126 -0.106894 0.112208 -0.150445 0.040139 -0.938202 
-2.044382 0.689760 -0.105107 -0.413354 -0.120035 0.854384 
-2.041952 0.290439 -0.131932 0.533255 -0.180760 -0.781860 
2.401548 -0.483019 0.261362 -0.100356 0.324385 0.928395 
0.186390 -0.109132 0.266712 0.271174 -0.160251 0.913271 
2.857781 0.993455 0.024576 0.219064 0.052728 -0.967483 
-0.976099 0.158094 0.169346 -0.016624 0.008668 -0.998822 
1.349627 0.794383 0.089980 -0.035721 -0.182316 -0.981626 
0.588629 -0.974441 0.100139 0.073089 -0.153856 -0.971743 
-0.956674 0.091137 0.209975 -0.186084 -0.184087 0.957318 
-1.857798 0.981640 -0.012600 0.322751 -0.236490 -0.885578 
-2.399099 0.074179 -0.283358 0.238353 -0.172441 -0.953650 
2.382292 0.358186 0.012281 0.077253 0.145288 0.961699 
2.814842 1.099165 0.019624 0.190206 0.065436 -0.978956 
-0.395122 0.241296 0.074164 -0.632443 0.027701 -0.746518 
-3.347269 0.588564 -0.667836 0.101359 -0.048873 -0.987621 
-2.714721 -0.178974 -0.345784 -0.445821 0.268306 0.826864 
2.673851 0.429081 0.011106 0.156885 -0.167148 -0.967501 
-0.177139 0.230216 0.350566 -0.122160 -0.293055 0.946849 
0.627930 -0.426331 0.071853 0.220315 -0.032744 -0.930221 
0.694795 -0.133381 0.071089 0.277719 0.028371 -0.896973 
-2.337469 0.107326 -0.226465 -0.659792 0.287982 0.674353 
0.589472 0.071475 0.083036 0.417705 0.039640 -0.834057 
2.840571 0.648490 0.049711 -0.290877 -0.005982 0.934682 
3.588171 0.935216 0.418107 -0.452795 0.205967 0.826221 
2.050524 0.718481 0.023793 0.208687 -0.021714 0.946118 
2.210744 0.853569 0.008707 0.093706 -0.165501 0.946106 
1.410234 -0.043593 0.065374 -0.025293 -0.019004 -0.995051 
-2.257723 0.791969 -0.269666 -0.604542 -0.073963 0.763191 
2.337140 0.828873 -0.002284 0.063112 -0.130485 -0.966821 
-2.654351 0.712523 -0.533636 0.478374 -0.265898 -0.826781 
1.965484 0.120095 -0.010163 -0.111391 0.075482 0.966841 
1.797837 1.273459 0.012977 -0.795431 0.058978 -0.524699 
1.104833 0.038346 0.161437 0.203151 -0.142892 0.959512 
-0.565557 0.229210 0.104791 -0.448037 0.020514 -0.823209 
-0.325460 -1.161826 0.113516 0.046036 -0.161847 -0.973651 
-3.295743 1.054603 -0.711408 0.108516 -0.020226 -0.991554 
-2.170953 -0.164035 -0.076877 0.418617 -0.272354 -0.835120 
2.401989 1.262594 0.035036 -0.031745 0.370970 0.888055 
-0.881632 -0.196219 0.145979 -0.185194 -0.117782 0.967532 
-2.006213 -0.180662 -0.002159 0.287017 -0.174711 -0.936110 
-2.205118 -0.087277 -0.121796 0.478929 -0.290918 -0.795801 
-2.565508 -0.442149 -0.174557 -0.395663 0.259136 0.869332 
0.381491 -0.157749 0.162302 0.262754 -0.201081 0.926678 
0.534146 -0.393788 0.038969 0.332516 -0.024212 -0.897058 
0.204113 -0.827828 0.045126 -0.094882 -0.354949 -0.910158 
0.223089 -0.439240 0.239785 0.408069 -0.104258 0.902450 
2.219656 0.923855 0.000058 0.103248 -0.184043 -0.952390 
-0.296402 -0.689719 0.002894 -0.196780 -0.270249 -0.896781 
-0.046200 0.548671 -0.225600 -0.473262 0.334989 -0.796208 
-0.485532 -0.412355 0.092034 -0.330909 -0.100915 0.930245 
1.223136 -0.614178 0.054027 -0.093292 0.084532 -0.989062 
1.529576 -0.082683 0.039176 -0.011299 -0.044742 -0.994817 
-0.139674 -0.592202 -0.051271 -0.196585 -0.378187 -0.897445 
-2.397733 0.169399 -0.313590 0.270423 -0.158471 -0.944659 
-0.943539 -0.275385 0.158130 -0.130760 -0.086726 0.984605 
0.007903 0.040960 0.296952 0.074945 -0.170362 0.980623 
1.426457 0.946408 0.091168 -0.544722 0.470589 -0.600877 
-0.875757 0.065372 0.223794 -0.125524 -0.202117 0.961422 
0.763418 -0.567519 0.118102 0.040621 -0.056651 -0.983000 
2.166385 1.112750 -0.003274 0.228108 0.012687 -0.969326 
-2.062381 0.974129 -0.136092 0.381856 -0.198340 -0.870312 
0.011065 1.181623 0.407192 0.011889 0.640375 0.745263 
2.117796 0.596677 -0.028404 0.365103 0.072625 -0.925695 
0.170598 -1.125611 0.193653 -0.211019 -0.391609 -0.893768 
-0.083492 -1.045768 0.153902 -0.032283 -0.445548 -0.874660 
-2.045218 0.663500 -0.172956 0.346305 -0.038661 -0.918111 
0.824930 0.697840 0.256437 0.216787 0.004134 0.970759 
-1.835209 0.390405 0.019569 -0.390723 -0.050852 0.891947 
2.606870 1.110824 0.012042 0.208813 0.050128 -0.974858 
-0.972030 -0.809892 0.070964 -0.089538 -0.090571 0.984011 
-2.098896 -0.097797 -0.051871 -0.268725 0.139918 0.945992 
-0.243715 0.250905 -0.188135 -0.745288 0.022821 -0.647786 
-2.084826 0.742061 -0.129339 -0.695100 -0.063491 0.661766 
0.160921 0.770793 0.445278 0.230912 0.119949 0.942525 
1.575388 0.395965 0.039158 -0.016797 -0.146810 -0.988350 
-0.068746 -0.774140 0.212844 -0.283715 -0.044334 0.943915 
0.306383 -1.305148 0.177141 -0.674922 -0.313557 0.371346 
-0.021570 -0.544330 -0.088442 -0.239451 -0.586104 -0.762078 
0.776585 -0.378873 0.132732 0.203711 -0.073175 0.967907 
-1.360785 0.481493 0.099240 0.097116 -0.129136 -0.977564 
3.320499 0.363701 0.317164 -0.403183 0.215719 0.880146 
0.558336 -0.644601 0.094185 0.171235 -0.093487 -0.951342 
1.798614 -0.171973 0.021010 -0.051181 0.107646 0.980905 
-0.810274 0.515152 0.266696 -0.098894 0.244658 0.944758 
-2.224987 0.288857 -0.258584 0.397670 -0.118466 -0.900406 
3.306914 0.787948 0.231920 -0.446241 0.037370 0.885898 
0.626114 0.351734 0.326027 0.122857 -0.193221 0.948125 
0.242512 0.912180 0.389037 0.716927 0.152559 0.642491 
-0.774146 -0.634561 0.128097 -0.130208 -0.036116 0.985127 
-2.201421 0.938703 -0.220858 -0.614763 -0.163547 0.727622 
-0.224085 0.975541 0.407783 -0.696168 0.048712 0.703977 
2.754996 -0.195127 0.198873 -0.224729 0.268889 0.934223 
-1.634502 1.055325 0.049975 0.369002 0.281510 -0.810176 
-1.293695 0.368795 0.149104 -0.338329 -0.177628 0.903660 
-2.501182 0.699947 -0.441845 -0.517694 0.043793 0.850482 
-1.937281 0.989966 -0.049704 0.233375 -0.201794 -0.928935 
2.720111 0.681612 0.019564 -0.152578 0.028164 0.977775 
-2.099045 0.356101 -0.154463 -0.277090 -0.072282 0.949560 
1.794528 -0.107188 -0.013451 0.018677 -0.106879 -0.991920 
0.648163 0.542824 0.263942 0.154353 0.576025 -0.702841 
2.817240 0.719995 0.029761 0.049041 -0.301268 -0.944205 
0.000758 1.120592 0.451065 0.112332 0.450523 0.864492 
1.442866 0.091680 0.061512 -0.024657 -0.054474 -0.993265 
-1.626946 0.986205 0.064970 0.172335 -0.213620 -0.956047 
-1.011496 0.666291 0.228446 -0.095177 0.135187 0.971680 
-0.237528 -0.748175 0.167742 -0.199466 -0.102387 0.947240 
0.524490 -0.037086 0.204823 0.192116 -0.225072 0.933809 
0.304895 0.296320 -0.101020 0.760468 0.038664 -0.643091 
-0.626249 -0.254191 0.128188 -0.263475 -0.134458 0.941126 
-1.682199 0.807954 0.088346 -0.439440 -0.247538 0.844443 
0.419534 -0.627758 0.051555 0.320194 -0.089525 -0.908168 
0.357643 -1.428970 0.187491 -0.430664 -0.790509 0.179282 
-2.016689 1.149259 -0.118694 0.413484 -0.042822 -0.903907 
2.749725 -0.102046 0.162253 0.274259 -0.260900 -0.923433 
3.537689 0.543256 0.409645 -0.517712 0.121749 0.842207 
3.092052 0.247664 0.219157 0.292577 -0.282537 -0.899076 
-1.869063 -0.191762 -0.001403 0.235735 -0.111078 -0.954107 
-0.981450 -0.481945 0.105856 -0.015106 0.030258 -0.990041 
-1.997027 0.539299 -0.108572 0.500817 -0.204346 -0.789193 
0.184804 1.181401 0.192919 0.795008 0.536828 -0.200499 
-0.219771 0.300818 0.372217 -0.119150 -0.329787 0.936361 
-0.029480 -0.002138 -0.289805 -0.483748 -0.093331 -0.837715 
0.290259 0.952019 0.238515 0.922871 0.341471 -0.043320 
-1.881383 0.814050 0.029611 -0.428535 -0.219575 0.848688 
0.498009 0.560508 0.204824 0.514209 0.426586 -0.653587 
-1.489995 -0.104083 0.057731 0.154127 -0.037474 -0.970528 
0.249581 -0.330465 0.227045 0.496055 -0.097182 0.822797 
-3.418808 1.141582 -0.704842 0.027597 0.225066 -0.949165 
2.155849 0.806532 -0.007061 0.173764 -0.083496 -0.949848 
0.461905 0.577026 0.355221 0.208885 0.287298 0.862847 
1.515266 -0.273283 0.047151 0.032095 -0.000888 0.993709 
2.365248 1.067888 0.004860 0.270672 0.108286 -0.950442 
-2.727461 0.194588 -0.482733 0.379260 -0.192796 -0.901544 
-0.711148 -0.105114 0.181040 -0.173652 -0.176164 0.951918 
-1.567875 0.881242 0.072836 0.155191 -0.196688 -0.960867 
-0.295273 0.420730 -0.127990 -0.724867 0.069533 -0.682857 
-2.286870 -0.543779 -0.000350 -0.299524 0.259817 0.911986 
-2.323261 0.464255 -0.334799 0.329257 0.005983 -0.930195 
1.174308 0.650006 0.125223 -0.066450 -0.102841 -0.979954 
1.146412 -0.675591 0.061989 0.144303 -0.106372 0.981149 
2.174879 0.418154 -0.053042 0.205327 -0.011355 -0.974907 
-2.787802 0.379487 -0.535161 0.384809 -0.257373 -0.878976 
0.305714 0.123863 -0.055008 0.695757 -0.021959 -0.699345 
2.998180 0.716889 0.082290 -0.219928 0.231851 0.936568 
-0.839315 0.389687 0.180809 -0.028802 0.305654 -0.876342 
1.661392 0.693564 0.018712 -0.017560 -0.188604 -0.980017 
-0.330154 0.681525 -0.020600 -0.647940 0.487387 -0.545807 
0.192568 -0.084193 -0.187658 0.601020 -0.095249 -0.768502 
3.326266 0.552070 0.285305 -0.401117 0.199135 0.877523 
0.570888 0.124422 0.263251 0.110189 -0.277347 0.940451 
-1.422197 0.324270 0.114612 -0.345638 -0.127389 0.906486 
0.170770 -0.824021 0.174925 0.120095 -0.056024 0.978314 
0.208541 -0.696111 0.003342 0.139544 -0.312400 -0.931029 
1.730919 0.043564 0.000243 -0.004977 -0.091833 -0.992914 
1.812286 0.362159 0.008762 0.096410 -0.025636 0.963515 
-1.216157 0.548030 0.133730 0.041778 -0.119370 -0.988670 
-2.698155 1.125640 -0.576796 0.426587 0.027241 -0.899989 
2.105899 -0.283239 0.142888 -0.360204 0.238524 0.887044 
-0.152799 0.323298 0.395318 -0.113129 -0.325724 0.937255 
3.390502 0.314818 0.366924 -0.443066 0.193624 0.868857 
1.619275 -0.122803 0.019191 0.000185 -0.063883 -0.994726 
-0.101522 0.370508 -0.256420 -0.603872 0.154572 -0.747663 
0.934829 -0.819203 0.072662 0.151173 -0.052689 0.981594 
1.455803 0.886966 0.124303 0.352707 -0.185866 0.898932 
1.714321 0.879711 0.049618 0.251232 -0.245970 0.909446 
-2.717013 -0.026198 -0.405535 0.307463 -0.224044 -0.921330 
3.407756 0.553789 0.332274 -0.445915 0.168915 0.863865 
-0.196031 -0.669737 0.190957 -0.192299 -0.177344 0.954698 
-0.420866 -0.898135 0.099631 -0.193546 -0.149641 -0.957588 
-0.155590 0.158300 0.323325 -0.124045 -0.260844 0.956217 
0.050544 1.243128 0.331855 -0.085734 0.825724 0.524949 
-2.337787 -0.432436 -0.063560 -0.289704 0.232616 0.916493 
3.780586 0.807913 0.563386 0.598562 -0.042006 -0.799039 
0.307867 -0.863610 0.157283 0.176043 -0.001657 0.949330 
1.055611 0.140757 0.143983 -0.028239 0.000007 -0.995961 
-2.281494 0.718679 -0.290888 -0.600689 -0.030744 0.779506 
0.946717 0.044180 0.137276 0.057220 0.035846 -0.966195 
3.126991 1.054371 0.127443 -0.378185 -0.082959 0.895969 
-0.486922 -0.744741 0.115436 -0.213071 -0.003637 0.967116 
0.064392 -0.507707 0.249815 0.138221 -0.202686 0.965815 
1.944548 -0.198123 0.087271 -0.249486 0.203992 0.919883 
-1.606501 0.047570 0.048643 -0.280804 0.001157 0.942616 
-2.676441 1.138607 -0.502589 -0.436249 0.022660 0.869591 
0.337091 0.446764 -0.029345 0.703726 0.129781 -0.691015 
-0.435780 0.464829 0.125348 -0.679927 0.213714 -0.673255 
1.074839 0.422358 0.195110 0.350671 -0.214012 0.905855 
-3.635134 1.053891 -0.702645 0.016001 0.007236 -0.996612 
0.579450 0.652991 0.316465 -0.035471 0.281375 0.933551 
-0.728044 0.497630 0.262207 -0.039356 0.584288 -0.732415 
-0.769856 -0.047461 0.201158 -0.133871 -0.188466 0.958676 
2.426817 0.901827 0.013390 0.020633 -0.120941 0.958190 
-0.897825 0.035318 0.138788 -0.117666 0.033285 -0.950009 
-0.097691 1.198193 0.396288 0.290328 0.649715 0.666750 
0.085487 0.914949 -0.024876 0.472107 0.346675 -0.788533 
0.302134 0.471460 -0.115055 0.707708 0.104733 -0.695684 
-1.703780 -0.396156 0.059035 -0.145794 0.036189 0.978590 
-1.443443 0.482541 0.081198 0.126755 -0.141192 -0.971272 
-2.575187 0.559624 -0.477391 -0.444387 0.095050 0.882874 
-2.726444 1.227434 -0.566838 -0.458585 0.038810 0.884252 
0.404339 0.004106 0.043536 0.567304 0.020046 -0.793421 
-2.145675 -0.051275 -0.103599 0.442713 -0.252343 -0.830483 
0.104608 -0.015066 -0.255512 0.543580 -0.053331 -0.822448 
1.906853 -0.375490 0.142586 -0.306609 0.267393 0.899323 
-3.074865 0.615548 -0.634399 -0.152434 -0.024422 0.980965 
0.199815 0.886119 0.021099 0.644144 0.326930 -0.680469 
-0.848904 -0.064641 0.193964 -0.126904 -0.170518 0.966305 
0.150684 0.088335 0.293165 0.123036 -0.235236 0.964062 
0.454919 0.228421 0.083578 0.559097 0.034078 -0.781461 
1.363915 0.719141 0.086885 -0.033636 -0.173911 -0.983264 
-0.965887 0.514863 0.202140 0.305241 0.436222 -0.829718 
0.311667 0.882338 0.212961 0.918180 0.318836 -0.102669 
-0.345486 0.607075 -0.033535 -0.666891 0.301706 -0.675600 
-0.074031 -0.784520 0.036702 -0.112337 -0.419424 -0.885917 
-0.284054 0.095207 -0.129516 -0.728413 -0.041384 -0.660740 
1.480242 0.645113 0.103272 0.311340 -0.192062 0.899050 
1.789588 1.506343 0.025835 0.253758 0.207117 -0.850166 
-0.406955 0.140031 0.062750 -0.607365 0.026237 -0.761122 
-1.616152 -0.035038 0.043162 -0.253520 0.020639 0.953441 
-0.080967 1.211360 0.055620 -0.598328 0.234893 -0.742686 
-0.159649 0.409368 0.426070 -0.130993 -0.321207 0.936925 
0.802172 0.318275 0.145994 0.163568 0.050364 -0.943286 
0.805616 0.437789 0.187125 -0.067176 0.461195 -0.786754 
-0.353147 -0.745474 0.134935 -0.325349 -0.029992 0.926229 
0.037034 0.915720 0.480208 0.164077 0.008666 0.974016 
-0.798975 -0.423833 0.144603 -0.156872 -0.060464 0.979052 
-0.917909 -0.764838 0.076849 -0.046370 0.010818 -0.983150 
-0.507897 -0.507166 0.102338 -0.285382 -0.070567 0.944094 
-2.912457 0.880829 -0.646284 0.188906 0.057544 -0.972332 
-0.103228 -0.436534 -0.159044 -0.403342 -0.364022 -0.825490 
-0.155973 -0.488805 0.246062 -0.207175 -0.162489 0.960787 
-0.355219 -0.838548 0.144695 -0.294260 -0.003311 0.935350 
2.619573 0.995787 0.055938 -0.072385 -0.020203 0.956074 
1.357437 0.891225 0.135008 -0.105981 0.345728 0.881063 
-0.047132 0.887791 0.477713 -0.169788 -0.032103 0.974334 
-0.266907 -0.221051 -0.111568 -0.630442 -0.157235 -0.741026 
-1.699524 0.531590 0.028343 0.218636 -0.169260 -0.950957 
-0.309533 -1.016602 0.131068 0.014200 0.034734 0.998482 
1.462503 0.844054 0.063969 -0.030675 -0.195201 -0.978954 
0.060664 1.330397 0.117752 0.626215 0.668594 -0.066979 
0.823510 -0.316495 0.135156 0.202111 -0.086496 0.967880 
-0.226399 1.110728 0.216583 -0.885970 0.422009 -0.115611 
3.034257 0.571980 0.109108 0.172094 -0.366833 -0.908838 
-0.587432 0.337895 0.120368 -0.436768 0.110036 -0.819242 
-2.777164 1.031606 -0.602098 0.349386 0.034042 -0.924977 
-2.155309 0.306410 -0.207730 0.674794 -0.236895 -0.675138 
-2.502023 0.535569 -0.435454 -0.489550 0.103054 0.862070 
-2.229268 -0.481406 0.007621 -0.257605 0.236619 0.930607 
-1.927254 0.299794 -0.009652 -0.379956 0.003394 0.902100 
2.209800 -0.048946 0.067967 -0.045078 -0.326473 -0.932010 
-3.199464 1.054817 -0.698941 -0.121390 -0.109063 0.974432 
2.680014 0.621489 0.000543 0.063229 -0.210221 -0.966670 
0.648635 0.136756 0.265153 0.093650 -0.270690 0.947526 
-2.588709 0.218385 -0.409788 -0.517569 0.225606 0.781347 
0.255936 0.101135 0.279551 0.136045 -0.269675 0.946544 
2.339647 -0.413511 0.225380 0.079211 -0.343639 -0.928778 
0.266826 0.661530 0.456839 0.362203 0.336702 0.835162 
1.115695 0.493165 0.188527 0.376361 -0.222857 0.893803 
0.632810 -1.041536 0.116752 -0.002027 -0.225565 -0.970195 
-2.910154 0.205228 -0.537904 -0.288886 0.133369 0.931570 
-1.352708 0.276596 0.127702 -0.316295 -0.135512 0.915771 
-3.013223 0.686270 -0.630725 -0.216282 0.070151 0.966508 
1.630034 0.751484 0.067630 0.263662 -0.209299 0.909235 
-2.603549 -0.375479 -0.221362 0.383497 -0.276196 -0.874975 
-0.177879 -0.219432 -0.181356 -0.558286 -0.144328 -0.803554 
0.159480 0.281553 0.377391 0.119175 -0.307896 0.942582 
0.107701 0.569257 -0.179314 0.492552 0.319572 -0.768380 
0.119927 0.312485 -0.265781 0.634695 0.091615 -0.740099 
2.737415 0.089611 0.108841 -0.183574 0.206835 0.949856 
-1.094797 0.469626 0.207066 -0.356566 -0.247586 0.896534 
-0.521790 -0.044694 0.059380 -0.465145 0.021753 -0.826330 
2.075671 0.307215 -0.010957 -0.296855 -0.050140 0.926688 
0.376469 -0.653270 0.102793 0.320806 -0.040607 0.933319 
0.922096 0.746580 0.233215 0.218971 0.006653 0.973969 
-1.222483 0.379925 0.125645 0.053673 -0.084884 -0.987553 
-1.330344 0.836461 0.128458 0.492198 0.416340 -0.706021 
2.665153 1.158982 0.023169 0.218195 0.070231 -0.971927 
-1.805083 -0.325581 0.031538 -0.188387 0.061662 0.968370 
-0.549330 -0.196223 0.044691 -0.407441 0.013679 -0.859952 
-0.520297 -0.329807 0.028661 -0.397102 -0.001125 -0.874398 
-0.418620 -0.574364 0.042657 -0.367757 -0.065035 -0.891994 
-2.404193 -0.002280 -0.257994 0.259032 -0.186984 -0.941881 
3.329734 0.971996 0.214383 0.481908 -0.030900 -0.873700 
2.582466 0.053999 0.094732 0.017240 0.252250 0.919211 
-1.088354 0.172940 0.184313 -0.239038 -0.180911 0.940160 
2.788206 0.240280 0.094150 -0.252005 0.138887 0.941683 
3.351617 0.634043 0.281488 0.520674 -0.037773 -0.845963 
-2.403166 -0.447910 -0.091271 -0.321706 0.243093 0.902325 
0.895935 -0.007526 0.121502 0.121294 0.050203 -0.936954 
-1.754055 0.385982 0.009878 0.244949 -0.157812 -0.946854 
2.344880 0.251255 0.022937 0.190304 0.207921 0.928420 
-0.039189 0.711893 -0.133068 -0.308501 0.579669 -0.739035 
2.139300 0.510420 -0.051199 0.230653 0.013310 -0.968307 
0.039221 0.746020 0.459500 0.071035 0.039682 0.994877 
2.507878 -0.370655 0.233237 -0.121439 0.306105 0.928288 
0.210521 0.553004 0.449936 0.147640 -0.228456 0.960216 
2.221433 -0.174285 0.116585 0.010750 -0.331478 -0.928176 
-0.291766 0.355047 0.370524 -0.106890 -0.262363 0.955256 
-2.289781 0.636274 -0.295034 -0.615627 0.028443 0.773883 
-0.114063 -0.961272 0.185224 -0.182405 0.062845 0.973496 
-0.724374 0.099040 0.115381 -0.296540 0.032514 -0.878817 
0.223189 0.318871 0.378493 0.116367 -0.320995 0.938840 
-2.977090 1.011119 -0.675374 0.239166 -0.051034 -0.968591 
-1.976669 0.291705 -0.072154 0.401165 -0.170166 -0.873218 
1.860940 -0.215275 0.075237 -0.147549 0.194241 0.947485 
1.070388 -0.649396 0.069132 -0.048683 0.035493 -0.986010 
1.746403 1.101100 0.047920 0.282845 -0.328009 0.895590 
0.188070 0.704477 0.457220 0.252870 0.262794 0.907911 
0.402185 -0.180242 0.017096 0.527620 0.002898 -0.822990 
-1.528695 0.908943 0.145839 -0.311932 -0.115586 0.919787 
-0.924695 -0.878877 0.074062 -0.076191 -0.045169 0.983860 
0.750948 -0.067791 0.185599 0.175089 -0.181370 0.953370 
-1.279477 0.630884 0.123345 0.060152 -0.143292 -0.984024 
-1.529538 -0.027321 0.041833 0.186415 -0.049405 -0.962959 
-2.477512 -0.030801 -0.271757 -0.656725 0.322938 0.625487 
1.137923 0.588434 0.198852 0.386686 -0.191605 0.893251 
0.175045 -0.368201 0.260439 0.307057 -0.041506 0.941345 
1.837072 0.428629 0.004324 0.098812 -0.047766 0.961254 
1.728066 0.553321 0.003757 -0.011571 -0.175339 -0.982551 
2.263446 -0.098668 0.104163 -0.396497 0.176757 0.882699 
