-0.853356 0.031430 0.543262 0.454198 -0.356642 0.698796 
-0.038093 0.213661 -0.226822 -0.463867 0.031849 -0.882175 
1.281524 0.060872 1.118809 -0.683902 -0.584389 0.184579 
0.839727 -0.350023 0.540468 0.592652 0.282640 -0.658454 
-0.693533 1.040895 1.358254 -0.892823 0.385219 -0.075170 
-1.112083 0.363474 0.923751 -0.792110 0.436880 -0.399661 
-0.049359 1.358330 0.234637 -0.592440 0.691885 0.305710 
-1.195611 0.074784 0.875116 0.706863 -0.413683 0.540587 
0.271194 -1.118211 0.038830 -0.200486 -0.141042 0.959119 
1.473062 0.026224 1.984732 0.836920 0.296490 -0.447419 
-1.243220 0.618861 2.424512 -0.751616 0.553020 -0.327766 
-1.395324 0.083317 1.176834 -0.784926 0.546786 -0.013574 
-0.663426 0.446098 0.561302 0.423868 -0.565490 0.689835 
0.397712 0.636111 0.034880 0.661276 0.389211 -0.551647 
-1.183105 0.778852 2.586381 0.778019 -0.378448 0.493015 
-0.674005 0.931089 1.042490 -0.891475 0.437597 -0.076254 
-0.663818 1.177796 1.620377 -0.862917 0.412992 0.070917 
0.010675 1.271386 0.107028 0.647559 0.232117 -0.707303 
0.080722 0.141873 -0.201832 0.476522 0.001695 -0.873232 
-0.801026 0.794354 1.340163 0.639570 -0.663751 0.349060 
0.837457 -0.488440 0.506375 -0.441756 -0.355739 0.726248 
0.657483 0.592554 0.792547 -0.879365 -0.371700 0.247556 
0.335711 0.304939 0.373131 0.275373 -0.101280 0.942527 
0.130061 0.307530 0.502497 0.275802 -0.075439 0.948340 
0.676661 0.553247 0.616527 0.385626 0.799261 -0.383498 
0.007177 -0.162154 0.366403 0.019944 -0.302566 0.949831 
-0.958990 0.953946 2.293823 -0.834721 0.485158 -0.250111 
0.417518 -0.144921 0.062194 0.779871 -0.008992 -0.614207 
0.222497 0.891632 0.418928 0.664436 -0.016898 0.736930 
0.446226 1.309188 1.636330 0.863734 0.287606 -0.369451 
1.301239 -0.442682 0.809297 -0.437359 -0.669466 0.536051 
-0.728678 0.792014 0.854393 -0.621315 0.624926 -0.451932 
1.664060 0.846975 2.673470 -0.678224 -0.460582 0.561642 
0.431856 0.598714 0.089328 0.686688 0.413357 -0.470158 
1.537956 1.103001 2.779787 -0.682258 -0.548392 0.481324 
0.123250 0.033922 -0.176419 0.487459 -0.037350 -0.864238 
-0.106124 -0.695993 -0.043309 -0.010564 -0.102541 -0.981809 
1.192775 1.432367 2.650234 0.689730 0.528379 -0.493718 
-1.140692 0.395169 1.459754 -0.751095 0.590834 -0.110177 
0.706837 -0.406963 0.416506 0.598826 0.204027 -0.691342 
1.224859 1.003097 2.241777 -0.663082 -0.600811 0.437504 
1.411982 0.917338 2.375373 0.661814 0.288339 -0.675968 
-0.289990 0.770924 -0.020101 -0.668350 0.509588 -0.500226 
-0.724085 0.104692 0.436694 0.374554 -0.385113 0.762177 
-0.259392 0.970192 0.142122 -0.806201 0.372522 -0.353265 
0.736944 0.601246 0.996415 -0.533942 -0.648068 0.522392 
-0.509701 -0.324824 0.168442 0.103575 -0.219096 0.937326 
1.472151 -0.057030 1.934483 0.842554 0.270715 -0.408954 
1.010997 1.190203 2.178749 -0.609481 -0.463165 0.629651 
-0.551154 -0.927366 0.155295 -0.422492 0.174718 -0.837928 
-1.086644 -0.481524 0.715701 0.545058 -0.303301 0.704909 
0.400541 -1.109774 0.054749 0.214872 -0.070018 0.799679 
-1.585838 0.213910 1.934560 -0.644740 0.705156 -0.261619 
-0.832452 -0.558234 0.476813 0.466239 -0.271295 0.768653 
-0.933006 1.113335 2.430768 0.780422 -0.464144 0.406005 
0.727335 0.920004 1.605763 -0.568705 -0.671611 0.393793 
1.348600 -0.398015 0.863725 0.477499 0.664636 -0.506134 
0.782064 -0.539447 0.452283 0.533658 0.246995 -0.703531 
1.389800 1.069704 2.522237 0.674577 0.613166 -0.399956 
0.175171 1.131689 0.483997 0.851796 0.174263 -0.389145 
0.198690 0.334666 0.484295 0.340511 -0.047042 0.935549 
-0.753772 0.529546 0.758966 0.545838 -0.591934 0.561087 
-0.021029 1.374189 0.113707 -0.598089 0.272446 -0.747971 
-1.068238 0.947601 2.576919 -0.794685 0.508336 -0.312047 
1.131590 -0.288924 0.773419 0.584607 0.437338 -0.557882 
1.215919 0.779570 2.028669 -0.651934 -0.361557 0.628991 
0.609621 0.541639 0.381035 0.760808 0.525094 -0.318026 
-1.390612 0.457932 2.075192 -0.655589 0.744646 -0.103979 
0.096401 0.694591 0.450846 0.088662 0.115528 0.980685 
0.931306 0.348906 0.784200 0.769239 0.480301 -0.394062 
1.510183 0.137539 2.102739 -0.781049 -0.282506 0.542921 
-0.759122 0.730208 0.829135 -0.734575 0.562643 -0.329007 
0.143663 1.560834 1.562596 0.047989 0.365554 -0.749378 
1.686383 1.254996 3.197784 0.700496 0.560721 -0.441196 
0.022981 0.697922 0.447532 0.039252 0.086941 0.989507 
0.485127 1.126018 1.551409 -0.428808 -0.714952 0.508830 
-1.209791 0.249941 0.915455 -0.783897 0.439184 -0.381901 
1.274212 0.086763 1.658110 0.854233 0.273200 -0.171670 
0.528319 0.460308 0.554508 -0.701210 -0.414482 0.534347 
0.154485 0.888971 -0.032252 0.567162 0.421955 -0.686318 
-0.979513 1.015870 2.433734 0.820272 -0.415479 0.384140 
0.145364 0.498198 -0.150899 0.438898 0.065176 -0.889011 
0.934553 0.402735 1.018123 -0.634055 -0.564110 0.502231 
0.740130 0.027388 0.428525 0.763182 0.200719 -0.561926 
-0.173275 1.119549 0.468436 -0.840888 0.240215 -0.350272 
1.256269 0.371693 1.800742 0.746963 0.234438 -0.551600 
-1.376363 1.109325 3.232380 0.722903 -0.496460 0.474213 
0.840863 -0.113115 0.567716 0.707436 0.270004 -0.577957 
1.187756 -0.333968 0.804860 -0.493417 -0.516198 0.578854 
0.717187 1.389979 2.011961 0.710978 0.552266 -0.412616 
0.579301 0.451368 0.265769 0.757070 0.347601 -0.453617 
0.467420 -0.365504 0.115611 -0.110492 -0.201296 0.966411 
1.036844 0.802629 1.794415 0.738058 0.629785 -0.217464 
0.969701 0.288279 0.850917 -0.637096 -0.575245 0.496197 
-0.239249 1.150838 0.582883 -0.522292 0.486084 -0.677482 
0.435243 0.289342 0.004372 0.643302 0.016483 -0.742853 
0.843842 0.446242 0.771240 0.783583 0.522170 -0.322219 
0.497860 0.121857 0.091393 0.763446 0.059356 -0.630638 
-0.653992 1.104328 1.607983 0.651100 -0.615476 0.187867 
0.355648 -0.041817 -0.039470 0.597741 -0.072250 -0.776696 
-1.193376 -0.094958 0.854601 0.664820 -0.382180 0.585397 
1.113317 1.300615 2.392793 0.662136 0.557119 -0.499683 
-0.566758 0.184899 0.305511 0.275366 -0.416297 0.840451 
-1.046999 -0.005683 0.712587 -0.714432 0.330941 -0.552829 
0.962403 1.119590 2.033693 0.676999 0.421525 -0.579888 
0.313269 -0.778068 -0.024542 0.472826 -0.061300 -0.866724 
0.039678 0.306616 -0.220614 0.452639 0.052999 -0.888167 
0.361078 -0.827336 0.103387 0.008624 -0.205580 0.928004 
1.429211 -0.019190 1.222105 -0.650304 -0.654097 0.103395 
-0.747743 0.215980 0.353671 -0.754011 0.211735 -0.587112 
0.794398 0.187863 0.453712 0.753169 0.245466 -0.570430 
1.002871 0.854917 1.738852 0.714408 0.565201 -0.407839 
1.589813 0.977377 2.710551 0.685071 0.584117 -0.423774 
1.759347 0.856023 2.821245 0.693425 0.506793 -0.505747 
1.033694 0.292012 0.895504 0.761262 0.467971 -0.423023 
-0.836230 0.577206 0.756291 -0.730747 0.554547 -0.387712 
-1.261693 -0.112501 0.905809 -0.726124 0.339059 -0.550944 
1.371000 0.197326 1.934663 -0.755469 -0.284765 0.569541 
-0.072468 -0.140465 -0.184822 -0.414576 -0.132460 -0.879227 
-0.404573 -0.963417 0.069759 0.212839 -0.170896 0.948080 
0.738461 -0.111431 0.450728 -0.370803 -0.330652 0.772560 
1.511471 0.504741 2.291866 0.756322 0.310910 -0.567860 
1.246543 -0.311700 0.853889 -0.500577 -0.543094 0.554748 
-0.094562 -0.557323 0.229090 -0.141994 -0.329284 0.926143 
1.750933 0.803249 2.748475 0.689285 0.500653 -0.513216 
-0.206960 -0.559605 -0.042149 0.065017 -0.263481 -0.947188 
1.125983 0.278060 1.155226 0.758967 0.482285 -0.385389 
1.088993 1.183174 2.260200 -0.632849 -0.467368 0.606464 
0.338634 1.212880 1.467957 -0.769184 -0.557079 0.244251 
0.595666 -0.672238 0.281219 0.506764 0.145511 -0.781088 
-1.344491 0.546753 2.361476 -0.705581 0.635660 -0.246209 
0.049332 -0.010733 -0.205347 0.428321 -0.071791 -0.881583 
0.488209 0.407959 0.426066 -0.586338 -0.407801 0.668021 
0.143520 -0.730070 0.155103 0.065671 -0.362587 0.893971 
-0.377076 0.530497 0.321274 -0.263268 0.091355 0.696332 
-1.101589 1.035277 2.737394 -0.797511 0.454873 -0.393282 
-0.808923 -0.418962 0.467888 -0.605449 0.204972 -0.689506 
-0.587670 0.362072 0.354590 0.335713 -0.485165 0.805947 
1.051300 0.710677 1.805761 -0.633996 -0.429883 0.555161 
0.247686 1.059429 0.228671 0.884737 0.405461 -0.085165 
-1.335673 0.542499 2.515327 0.669692 -0.718689 0.108425 
-0.306543 -0.245437 -0.068895 -0.568114 -0.117936 -0.800144 
0.601503 1.187532 1.685548 0.815898 0.391533 -0.340346 
-0.846008 0.277689 0.453808 -0.755286 0.265940 -0.567265 
0.771552 -0.016849 0.481112 0.764900 0.216750 -0.548807 
0.351889 -0.512577 0.142453 0.209923 -0.240205 0.917416 
0.511330 0.445275 0.128610 0.757878 0.302511 -0.481366 
-0.780656 0.908236 1.707298 0.697583 -0.547625 0.411450 
0.487854 0.616116 0.424639 0.481817 0.812016 -0.188625 
-0.208640 0.747843 -0.084962 -0.562657 0.470516 -0.632474 
0.928545 -0.072257 0.673600 -0.561157 -0.401493 0.639940 
1.249752 0.158999 1.321048 -0.711681 -0.591365 0.094075 
0.791466 0.639865 1.233822 -0.593869 -0.630710 0.460506 
-1.196593 -0.015185 0.850936 -0.734303 0.350880 -0.535082 
0.492411 0.545900 0.519846 -0.855515 -0.243700 0.419161 
1.589377 1.238368 3.025795 -0.673892 -0.587600 0.442187 
-0.651470 0.843945 0.989796 0.548187 -0.655443 0.518899 
-0.135038 0.853245 0.467841 -0.268456 -0.199767 0.940719 
0.016454 0.359155 0.518231 0.099177 -0.058848 0.988498 
0.378616 1.280152 1.444341 0.167492 0.652624 -0.538044 
-0.413264 -0.043601 0.261209 -0.218472 -0.217549 0.918000 
0.573603 0.836348 0.973722 0.406710 0.723138 -0.543296 
1.228026 0.115137 1.137631 -0.700300 -0.563881 0.205074 
0.772683 1.293947 1.985092 0.698278 0.580300 -0.397718 
1.042080 0.271182 0.971618 -0.680391 -0.516962 0.505454 
0.876976 1.247057 2.059870 0.674687 0.596770 -0.418279 
-0.055722 -1.187982 -0.115869 -0.324623 -0.646538 0.421684 
0.117343 -0.268235 -0.157151 0.421947 -0.180606 -0.870514 
-1.259188 0.417257 1.720331 -0.623912 0.557662 -0.486515 
0.910779 0.289637 0.669871 0.758302 0.390429 -0.477824 
-1.070212 0.764734 2.165298 -0.725736 0.633149 -0.224181 
-1.134604 -0.256468 0.783709 0.611433 -0.348229 0.637766 
0.344868 0.036116 -0.048414 0.563453 -0.075897 -0.805685 
1.073379 -0.272855 0.733674 0.595863 0.407293 -0.573925 
0.119878 -0.654169 0.190907 0.191342 -0.387521 0.897212 
-0.090494 0.772519 -0.111220 -0.459278 0.348571 -0.787786 
0.750370 -0.733264 0.382490 0.470591 0.224833 -0.741056 
-0.562790 1.259874 1.261874 -0.696695 0.606266 -0.361982 
-0.692217 0.223285 0.285010 -0.748208 0.188271 -0.606006 
0.659633 1.161105 1.725508 0.784055 0.420811 -0.372504 
1.212496 0.544984 1.850657 -0.514224 -0.125634 0.846944 
0.161188 -0.951088 0.023607 -0.196491 -0.364025 0.882389 
-0.444986 0.661933 0.527941 0.797109 -0.370437 0.449560 
-0.905190 0.918352 2.069374 0.775891 -0.595391 0.155541 
-0.123798 -1.066011 -0.063489 0.233660 -0.398033 0.876751 
0.777010 0.275345 0.428918 0.751818 0.256360 -0.567886 
-0.874749 -0.665263 0.503198 0.449880 -0.255270 0.789170 
-0.288546 -0.589172 -0.058353 -0.512114 -0.116940 -0.841827 
1.389553 -0.269263 0.971148 0.565766 0.573084 -0.473872 
-1.194826 0.284457 1.185278 0.750483 -0.552987 0.250847 
0.736559 0.431994 0.570295 0.775291 0.411867 -0.400501 
0.970517 0.321241 0.914893 -0.639341 -0.553361 0.514448 
-0.126317 0.541448 0.497504 -0.279687 0.043407 0.953591 
-0.565265 0.402849 0.155202 -0.711819 0.234981 -0.616327 
0.356279 0.699620 0.008084 0.640221 0.527492 -0.439109 
-0.464773 -1.038061 0.077935 0.059414 -0.177541 0.861058 
-0.555836 0.412740 0.435600 0.444011 -0.527393 0.704827 
-0.826048 -0.770063 0.389141 -0.453441 0.332051 -0.750771 
0.243971 1.194240 0.591289 -0.663662 0.447165 0.591716 
-0.806311 0.109723 0.454311 -0.772010 0.219741 -0.549238 
-0.858821 0.128320 0.564374 0.482769 -0.394132 0.683408 
-0.298407 0.899810 0.276305 -0.907383 0.253633 0.193175 
-0.663159 -0.701322 0.307693 0.391245 -0.232989 0.835186 
-1.035685 0.946902 2.493181 0.810523 -0.403760 0.413171 
0.032462 -0.487052 0.262486 0.120056 -0.243832 0.945405 
1.059228 0.512989 1.583029 -0.769852 -0.534168 0.341304 
-0.703056 0.699968 0.776350 -0.274295 0.758671 -0.568590 
0.128362 0.607941 -0.143627 0.375804 0.134413 -0.899574 
0.641157 0.181995 0.258652 0.756932 0.151325 -0.605259 
0.262328 -1.046591 0.034872 -0.276004 -0.201521 0.928042 
-0.817557 0.786973 1.254834 -0.841556 0.497384 -0.125974 
-0.108920 0.173969 -0.186722 -0.470834 -0.002901 -0.877023 
0.703413 0.887903 1.452211 0.847712 0.453234 -0.243598 
-0.834699 0.840461 1.436918 -0.840041 0.471466 -0.127624 
-0.613431 -0.734535 0.268318 -0.520255 0.106766 -0.795717 
-0.476933 -0.051801 0.227921 0.042489 -0.288493 0.908628 
-1.171826 0.570774 1.850985 -0.688902 0.719868 -0.071898 
0.687729 0.615586 0.927578 -0.509270 -0.699864 0.496974 
-0.931776 0.599368 1.074143 -0.820972 0.484601 -0.233696 
0.084414 -0.331697 0.300553 0.067134 -0.299982 0.946502 
-0.714465 0.877688 1.074005 -0.876601 0.460425 -0.091043 
0.445290 -0.858176 0.087228 -0.233182 -0.175456 0.948781 
-1.135710 0.099356 0.800964 -0.746200 0.367111 -0.514292 
-1.189826 0.338481 1.405252 -0.768325 0.606766 -0.092061 
0.019632 1.171655 0.444398 -0.053148 0.609325 0.778182 
-1.128167 -0.425545 0.763917 -0.650329 0.250534 -0.648167 
1.174163 -0.084700 0.853828 0.650152 0.465499 -0.515452 
-0.911288 -0.593657 0.552930 -0.588676 0.181617 -0.719934 
-0.230810 0.363244 0.459486 -0.294684 -0.031883 0.950963 
0.331740 0.475105 0.369035 0.251572 -0.009080 0.937244 
0.335534 -1.088430 0.015324 0.404081 -0.016430 -0.906411 
0.959353 -0.522183 0.584799 -0.423592 -0.410814 0.690029 
-0.091420 0.088179 0.455036 -0.188684 -0.268769 0.940377 
1.625561 0.609988 2.451478 0.707331 0.330068 -0.614371 
0.313565 0.403993 0.385594 0.201177 -0.030547 0.973773 
0.414621 -0.134219 0.223134 0.139327 -0.203583 0.935081 
-1.183281 0.656246 2.119725 0.663250 -0.697436 0.211141 
0.754748 0.519911 0.652432 0.757456 0.558928 -0.307662 
-0.554104 1.142471 1.153522 -0.154891 0.625547 -0.668279 
1.299410 1.367521 2.728108 0.698862 0.522430 -0.487979 
-0.486154 0.097601 0.073955 -0.745086 0.075235 -0.648303 
1.021589 1.068753 2.048859 0.639552 0.481407 -0.589528 
-0.118797 0.466839 0.503558 -0.253970 0.021837 0.957549 
1.717000 0.716003 2.598699 0.680546 0.497202 -0.518695 
-1.136767 0.672425 2.060603 0.646535 -0.659956 0.283770 
-1.326026 0.174782 1.433750 0.744772 -0.581644 -0.210664 
0.677014 0.720389 0.906834 0.692115 0.618675 -0.308962 
0.817886 0.564452 1.115621 -0.590349 -0.616446 0.487286 
1.332944 -0.052436 1.683036 -0.899520 -0.323455 0.043108 
-0.292971 0.300231 0.414877 -0.319896 -0.088762 0.933497 
-1.037298 0.681818 1.874613 0.615837 -0.544820 0.495589 
1.440139 0.498834 2.167567 0.787745 0.344900 -0.476947 
-0.389041 -0.694251 0.107872 -0.003478 -0.204397 0.937856 
-0.761964 0.030891 0.459228 0.384699 -0.356518 0.750257 
-0.147603 1.101794 0.372606 -0.787857 0.263311 0.096131 
0.667160 -0.141458 0.371021 -0.315546 -0.308679 0.816850 
0.789368 0.294477 0.623349 -0.540183 -0.500486 0.641412 
0.552636 0.091684 0.170059 0.763870 0.090683 -0.613943 
-0.338751 -0.309327 0.237761 -0.497290 -0.270346 0.815922 
0.197043 1.152572 0.553861 -0.453898 0.021394 0.858341 
1.499030 0.395515 2.216019 -0.724866 -0.277279 0.613679 
-1.015722 -0.076185 0.695528 0.627438 -0.373178 0.611002 
0.382173 1.162237 1.315303 -0.862790 -0.169910 -0.218416 
-1.413623 0.469870 2.155597 -0.649637 0.751317 -0.107290 
-0.352351 -0.378930 0.200026 -0.415518 -0.263635 0.835651 
0.733111 0.786669 1.293655 0.832056 0.498612 -0.203755 
0.458376 -0.101123 0.102500 0.776553 0.019150 -0.610477 
0.640561 0.660517 0.810469 0.350167 0.787863 -0.478304 
1.259842 0.117827 1.247549 -0.703241 -0.589259 0.103050 
-0.727348 -0.326218 0.394595 0.397805 -0.284953 0.776502 
-0.979634 -0.614376 0.582009 -0.554245 0.276968 -0.704708 
0.661233 0.558235 0.492578 0.760754 0.580848 -0.280111 
0.558271 0.946425 1.340609 -0.462795 -0.702982 0.507993 
-1.315174 -0.295203 0.945007 -0.700851 0.306744 -0.589984 
0.345573 0.779264 0.164578 0.924802 0.336795 -0.099708 
-0.812528 0.245634 0.541339 0.477206 -0.439573 0.694528 
-1.066715 1.019235 2.659592 0.795891 -0.459806 0.389504 
0.235241 -0.633972 -0.029452 -0.131163 -0.208352 -0.959646 
0.766919 0.765947 1.452389 -0.592126 -0.627326 0.445105 
1.094983 0.051255 0.849719 -0.655752 -0.477410 0.544489 
-0.499724 1.242026 1.234866 -0.043825 0.615547 -0.689765 
-0.521364 -0.586479 0.189909 -0.591527 0.073456 -0.739948 
-0.796700 1.045012 1.939789 0.716303 -0.628559 0.217532 
1.011435 0.165830 0.793141 -0.640648 -0.467931 0.573434 
0.678089 0.659645 0.993481 -0.506679 -0.680504 0.517165 
-1.174514 -0.488086 0.762034 0.546157 -0.387330 0.667950 
-0.333084 0.323725 -0.064508 -0.464526 -0.054818 -0.883745 
-1.374860 1.035740 3.163924 0.726282 -0.500131 0.465975 
-0.299283 0.804791 0.342266 -0.783440 0.213549 0.502577 
1.175244 1.530849 2.754336 0.455475 0.852762 -0.246534 
-0.818460 1.040036 2.009093 0.705643 -0.664290 0.151996 
0.596402 -0.064806 0.316359 -0.298945 -0.321740 0.841410 
0.457559 0.948526 1.200279 -0.742932 -0.608854 0.273582 
-0.775155 -0.134569 0.450960 -0.728308 0.193447 -0.581526 
1.273872 -0.241767 0.894006 -0.528516 -0.556116 0.533279 
0.623381 0.652704 0.889537 -0.841172 -0.446251 0.239892 
-0.992671 0.401489 0.838426 0.627496 -0.549027 0.524451 
0.378020 -0.385561 0.064383 0.764876 -0.042024 -0.619243 
-1.282339 -0.181431 0.925866 0.664690 -0.372455 0.592747 
1.106038 -0.620757 0.590412 0.384777 0.629308 -0.615057 
-1.171814 0.210136 0.868276 0.734344 -0.437008 0.509249 
0.910923 1.020634 1.868703 0.665518 0.560587 -0.452448 
0.692543 0.376784 0.426485 0.766967 0.305826 -0.489390 
-0.390778 -1.044700 0.052612 0.058707 -0.094970 0.900018 
-0.845331 0.612423 0.927311 0.610233 -0.584965 0.514340 
0.903914 0.407132 0.826843 0.778020 0.511328 -0.344714 
-1.239919 0.011324 0.908388 0.701811 -0.405073 0.549585 
-0.481664 1.368166 1.555431 0.569484 -0.573258 0.569654 
0.477831 1.425504 1.774850 0.726461 0.570160 -0.359695 
-0.935928 1.162961 2.489285 -0.842211 0.429908 -0.320634 
1.321874 -0.085157 1.480876 -0.847133 -0.440042 -0.177879 
-0.538917 1.069564 1.173874 0.768603 -0.528917 0.312536 
0.872488 -0.723266 0.430422 -0.338373 -0.443166 0.738569 
-0.205050 0.933873 0.024936 -0.647885 0.439398 -0.610923 
-0.327729 -0.054565 0.320886 -0.431072 -0.247791 0.860568 
0.297399 0.215387 -0.081165 0.491314 -0.067920 -0.866237 
1.093664 1.457802 2.565328 -0.623109 -0.618258 0.470806 
-1.531656 0.354440 2.149171 0.615089 -0.741499 0.209150 
-0.081239 -0.554089 -0.064820 -0.005836 -0.298178 -0.945965 
1.233279 1.326383 2.594641 -0.652315 -0.583928 0.477980 
-0.302040 -0.464303 -0.029891 -0.631944 -0.107745 -0.742422 
-1.581853 0.248894 2.008832 -0.641259 0.716620 -0.239144 
1.542998 1.038694 2.715465 -0.679266 -0.498528 0.524401 
-0.089107 -0.484101 0.256019 -0.097803 -0.285079 0.947416 
-0.657574 0.415168 0.495330 0.384349 -0.545424 0.728060 
-1.373052 0.974126 3.103127 -0.750109 0.459251 -0.472197 
-0.822965 1.270234 2.307506 -0.867835 0.413103 -0.254968 
0.763660 1.320644 2.052615 -0.517300 -0.532226 0.641765 
-0.856874 1.100083 2.189132 -0.864214 0.436980 -0.227448 
-1.483694 0.013624 1.416670 0.742412 -0.552906 -0.240335 
0.668082 0.971464 1.538566 0.850684 0.420324 -0.274407 
0.174107 -0.514471 0.233493 0.206984 -0.319765 0.919701 
0.595014 0.418157 0.565496 -0.548819 -0.518919 0.616524 
-0.826498 1.382130 2.508015 -0.762159 0.599970 -0.234007 
-0.977282 0.688205 1.663829 -0.725628 0.487587 -0.460963 
0.782989 0.794547 1.553489 -0.606381 -0.615556 0.433088 
1.347900 0.740212 2.189775 0.723893 0.388086 -0.558075 
-0.068615 -0.950083 0.005881 -0.096766 -0.427848 0.857599 
-1.356824 0.047228 1.018323 0.738213 -0.419909 0.520104 
0.113757 1.238003 0.355008 0.257806 0.825679 0.421248 
0.345295 0.142746 -0.050746 0.539687 -0.068274 -0.826344 
0.036903 0.209710 -0.227403 0.468101 0.032926 -0.879797 
1.153396 -0.487108 0.726870 -0.430008 -0.518387 0.612906 
-1.477336 0.143885 1.621188 0.687455 -0.641418 0.011084 
0.754793 0.594820 0.805144 0.739734 0.593485 -0.290030 
0.362310 -0.280414 0.225713 0.386212 -0.248616 0.852354 
0.676887 0.069143 0.335782 0.762314 0.165048 -0.582112 
0.947698 1.057630 1.952014 0.645009 0.520940 -0.540606 
1.303870 0.565294 1.985666 0.817101 0.414086 -0.360021 
0.782432 -0.668858 0.414083 -0.369141 -0.329175 0.776297 
0.364992 -0.738729 0.115333 0.061526 -0.215870 0.923866 
-0.996138 1.304157 2.837228 -0.772331 0.502371 -0.369714 
0.191481 0.957164 0.028281 0.627780 0.434525 -0.632586 
0.738109 0.421918 0.713054 -0.526869 -0.639090 0.534298 
-0.708320 -0.409039 0.374653 -0.609066 0.177553 -0.691872 
0.454864 1.220164 1.625596 -0.377640 -0.506471 0.756345 
-1.178668 0.139109 0.843125 -0.759577 0.382181 -0.498443 
0.393837 1.096222 1.212413 -0.820347 -0.294053 -0.071329 
0.180876 0.802872 0.441272 0.390330 -0.060559 0.888952 
-0.790864 0.484771 0.709642 0.459222 -0.640798 0.601241 
-0.889950 1.365535 2.678649 0.868551 -0.193294 0.433688 
0.731543 1.140500 1.809855 -0.462476 -0.630232 0.576962 
0.802805 0.357241 0.582642 0.766854 0.378303 -0.453538 
-0.055630 -1.100713 -0.103959 -0.267960 0.196607 -0.942490 
-0.549999 -0.045505 0.191473 -0.767994 0.079328 -0.602050 
0.206652 -1.012602 0.006219 -0.345053 -0.305980 0.880442 
0.555405 1.019281 1.341749 0.864918 0.451564 -0.181552 
1.054978 0.357497 1.219022 -0.721263 -0.517655 0.444269 
-0.324379 0.661192 -0.087072 -0.609832 0.257904 -0.739322 
0.721315 0.377305 0.630962 -0.510206 -0.575756 0.600965 
0.656052 -0.653654 0.330829 0.507129 0.177688 -0.759435 
0.013523 0.523779 -0.193283 0.372344 0.115888 -0.919750 
-1.511959 -0.076306 1.145565 0.744653 -0.407984 0.525787 
-0.431335 -0.615452 0.092613 0.093356 -0.187588 0.963355 
-1.229137 0.840368 2.728907 -0.766892 0.522459 -0.346468 
1.441497 -0.087792 1.859249 -0.860023 -0.295102 0.289495 
-0.346125 -0.875243 0.090117 0.044483 -0.194733 0.937250 
0.036226 1.014881 -0.004788 0.346353 0.482626 -0.787816 
0.481869 1.422744 1.853138 -0.620950 -0.493616 0.606220 
0.673580 1.214528 1.799728 0.774958 0.363960 -0.457112 
-1.272357 0.588490 2.120505 -0.667725 0.731610 -0.126384 
-0.010996 1.201609 0.077331 -0.456205 0.334261 -0.800828 
1.569496 0.873003 2.566558 -0.671449 -0.424893 0.597369 
0.875190 1.507850 2.320229 0.591884 0.649684 -0.474191 
0.013309 -0.386664 -0.178590 0.258663 -0.314583 -0.912260 
-1.419826 0.972823 3.168002 -0.740941 0.467280 -0.479835 
-0.854036 0.845013 1.575126 -0.804884 0.442722 -0.291546 
0.297869 0.617869 -0.101533 0.548231 0.181093 -0.802931 
-0.719006 0.787077 1.036516 0.583786 -0.638184 0.486707 
-1.173418 0.616004 2.007131 0.598057 -0.618130 0.391146 
0.631274 0.928380 1.477872 -0.512604 -0.670205 0.478377 
0.347852 0.075245 0.346776 0.406337 -0.226165 0.882500 
-0.612767 0.131618 0.338920 0.296854 -0.395636 0.821352 
-0.015606 -0.229157 0.339477 -0.005194 -0.302105 0.950071 
1.302234 0.063256 1.205309 0.712837 0.578934 -0.024485 
1.529933 0.184797 2.156918 0.797068 0.280297 -0.530114 
1.153090 1.307700 2.453494 0.669926 0.546889 -0.501627 
-0.745641 0.515235 0.538039 -0.710745 0.456115 -0.479623 
1.464340 0.916804 2.456552 0.669360 0.615824 -0.392615 
0.394300 0.578151 0.415050 -0.845494 -0.206037 0.464042 
1.354898 1.132749 2.548474 -0.667362 -0.487255 0.549079 
0.170598 0.357950 -0.141117 0.451647 0.013447 -0.886888 
0.736162 0.759996 1.365066 -0.569772 -0.643030 0.459869 
1.178763 0.200399 1.198011 -0.715689 -0.546193 0.275101 
0.102015 0.438645 -0.161986 0.413505 0.060067 -0.902650 
-1.182863 0.846812 2.657875 -0.772243 0.532296 -0.318501 
-0.995375 1.128456 2.619764 -0.816020 0.456236 -0.351855 
0.020435 0.853875 0.483047 0.141314 -0.199183 0.959866 
0.775700 0.458502 0.810204 -0.549817 -0.687649 0.473343 
-0.354551 -1.097717 0.020181 -0.419651 -0.002493 -0.895182 
-0.854580 0.289004 0.587168 0.520055 -0.456318 0.665368 
0.807543 1.529215 2.283284 0.454528 0.775178 -0.402220 
0.898626 0.909106 1.785654 -0.539471 -0.448572 0.688498 
-1.510964 0.076627 1.558102 -0.701996 0.583762 -0.026934 
0.031465 -0.624627 0.224640 0.317963 -0.360731 0.864683 
1.106380 0.846113 1.912197 0.724054 0.569519 -0.341937 
-1.318448 0.146496 1.138514 0.762992 -0.546670 0.151132 
-1.424957 0.647415 2.842437 0.738394 -0.505280 0.420358 
0.338896 -0.194966 0.272994 0.479022 -0.256294 0.834617 
-0.774670 1.280525 2.228292 0.747408 -0.498608 0.418197 
-0.201463 1.147860 0.183994 -0.825580 0.496220 -0.246033 
-0.301198 1.754458 1.546559 0.850184 -0.230215 0.379976 
-0.051268 -0.369777 0.288724 -0.018576 -0.233561 0.965863 
-1.194971 0.267710 1.096110 0.749742 -0.524136 0.308261 
1.197283 1.299074 2.520494 -0.653287 -0.557594 0.507559 
-0.154273 -1.142022 -0.086085 -0.441003 0.100679 -0.880479 
-0.929271 0.677515 1.426062 -0.802877 0.542651 -0.164504 
-0.659556 0.556366 0.661106 0.818741 -0.353234 0.422377 
0.989564 0.274636 0.780043 0.758041 0.440957 -0.453478 
0.865567 0.231419 0.532989 0.749183 0.292128 -0.559626 
1.290139 0.050354 0.972728 0.684796 0.530144 -0.459744 
-1.284598 0.854900 2.839727 -0.762682 0.498364 -0.396389 
0.201012 0.495832 0.460308 0.283264 0.015283 0.954636 
1.424548 0.828860 2.355350 0.675349 0.231463 -0.692632 
-1.217522 0.656725 2.480031 -0.776605 0.532179 -0.310805 
-0.920075 0.700978 1.620474 0.736281 -0.641669 -0.027060 
1.564748 0.509957 2.359283 0.742400 0.300776 -0.595212 
-0.392678 0.478829 -0.016767 -0.591836 0.155937 -0.712680 
0.487879 -0.799422 0.170318 0.473997 0.085382 -0.833100 
-0.979672 0.972514 2.374169 -0.828042 0.480534 -0.276011 
-0.819092 1.169354 2.165146 -0.872416 0.420020 -0.216692 
-0.346590 -0.152273 -0.043355 -0.609168 -0.070491 -0.767094 
0.484750 -1.010914 0.070896 0.349824 0.207875 -0.862049 
0.193107 -1.129144 -0.030467 -0.521685 -0.280638 0.730729 
-0.045914 0.015426 0.435544 -0.125459 -0.284002 0.948471 
0.660182 0.000562 0.396498 -0.362205 -0.354007 0.794778 
-0.011773 0.965237 0.509892 -0.158778 -0.028995 0.982192 
0.705107 0.501254 0.543484 0.757381 0.500458 -0.347922 
-1.321400 0.357988 1.720035 -0.630321 0.571983 -0.446639 
-0.989839 0.213740 0.644554 -0.775745 0.319070 -0.510125 
0.576242 -0.269062 0.248882 -0.213006 -0.251408 0.889595 
0.656505 -0.380379 0.363198 0.637823 0.163720 -0.669308 
0.606721 -0.187601 0.314700 0.773397 0.104973 -0.568956 
-0.367458 0.450987 0.348546 -0.169667 -0.006350 0.897215 
0.258246 0.283780 -0.104123 0.483279 -0.038400 -0.872587 
-1.491742 0.553139 2.847486 0.726905 -0.561456 0.367608 
-1.111426 -0.175425 0.771515 0.625778 -0.361568 0.620536 
0.321085 0.564883 0.385378 0.513009 0.009675 0.795966 
0.479351 -0.675097 0.165710 0.548850 0.065888 -0.774972 
1.043823 1.451529 2.493097 -0.628593 -0.592012 0.499222 
0.349067 0.700280 0.279431 0.900123 0.197318 0.296044 
-0.050015 0.386038 0.513936 -0.145335 -0.032166 0.979030 
0.773989 0.548237 0.966880 -0.550161 -0.639117 0.516011 
-0.889856 0.660634 1.167498 -0.822514 0.514881 -0.179748 
-1.464866 0.978042 3.236297 -0.731955 0.474550 -0.487855 
0.896946 -0.527144 0.538183 -0.423707 -0.382424 0.712402 
-0.969415 0.448082 0.786070 -0.751266 0.495719 -0.429126 
0.646560 -0.468447 0.330993 -0.349031 -0.270856 0.825230 
0.956725 0.413783 1.103128 -0.656815 -0.556762 0.479873 
-1.510616 0.442559 2.754083 0.723020 -0.596972 0.318025 
0.503566 0.858175 1.003675 -0.841196 -0.488333 0.078107 
0.696720 -0.849791 0.264506 -0.291908 -0.366446 0.820048 
1.020874 0.316018 1.027601 -0.677787 -0.527435 0.493425 
0.567736 -1.013649 0.114341 -0.088835 -0.333063 0.820677 
0.366408 0.520580 0.322531 0.193824 0.169615 0.812296 
0.296978 0.637364 0.406367 0.614184 0.198957 0.735181 
-0.988622 -0.201289 0.657324 0.590437 -0.348173 0.648401 
0.404916 0.120041 -0.011277 0.635817 -0.020265 -0.747177 
0.077070 0.617422 0.481673 0.061898 0.273190 0.949279 
-0.861577 0.999674 2.063498 -0.852767 0.417762 -0.265053 
0.832998 1.310382 2.067242 0.686955 0.572657 -0.428720 
-1.173131 -0.542037 0.711412 0.508578 -0.482616 0.650892 
-0.284919 0.963196 0.210267 -0.910576 0.368053 -0.102470 
1.620719 0.681696 2.477231 -0.695016 -0.467289 0.524329 
0.473253 0.603257 0.160915 0.733624 0.517681 -0.341702 
-0.551688 0.203637 0.122160 -0.738116 0.122408 -0.646880 
0.978217 -0.121799 0.698366 0.656892 0.361753 -0.582415 
-0.178991 -0.056237 -0.143793 -0.497389 -0.077538 -0.855960 
0.424660 1.111959 1.274290 -0.057104 0.645923 -0.675394 
0.091759 -0.709691 -0.043750 0.039071 -0.086356 -0.975904 
0.472347 0.659018 0.553611 0.461304 0.827026 -0.221971 
-0.410666 0.628965 0.467933 0.848214 -0.316994 0.417884 
-0.647866 0.248776 0.224540 -0.741203 0.172869 -0.624677 
0.487686 0.522087 0.139855 0.740612 0.402727 -0.413912 
-1.263243 1.013347 2.989029 0.732243 -0.528276 0.424102 
-0.291973 0.152272 0.398603 -0.356100 -0.210816 0.904903 
-0.662404 1.151857 1.695155 0.625635 -0.639288 0.395058 
1.277346 1.088534 2.386139 0.662186 0.631550 -0.393676 
-0.676766 0.315462 0.428239 0.391770 -0.466721 0.761995 
0.047349 -0.114422 -0.196390 0.395100 -0.131470 -0.886873 
0.471058 1.041490 1.336598 -0.410719 -0.731861 0.530967 
-0.874643 -0.221981 0.551528 0.557029 -0.336044 0.674111 
0.737435 1.191335 1.871900 -0.442438 -0.672277 0.546699 
1.492533 1.083099 2.688846 0.685504 0.573669 -0.441259 
-1.167720 -0.154428 0.816159 -0.704993 0.315998 -0.574216 
-0.591469 0.904241 1.021642 0.765100 -0.542522 0.311602 
-0.937791 0.802414 1.845242 -0.744575 0.655320 -0.008986 
-0.232512 1.089035 0.535158 -0.283031 -0.698020 0.647860 
-0.468665 0.158519 0.034442 -0.728323 0.075695 -0.671080 
-0.054444 1.300198 0.297276 -0.369905 0.739411 0.524007 
0.209127 0.607393 -0.123613 0.456291 0.149518 -0.855736 
0.112665 1.024081 0.023691 0.496826 0.443753 -0.723728 
-0.410809 -0.254936 0.084569 -0.780894 -0.018184 -0.607945 
-0.310149 -0.651232 -0.029938 -0.537031 -0.081681 -0.819498 
0.394001 0.652751 0.388263 0.445421 0.883810 -0.075059 
0.463562 1.187168 1.481657 0.889671 0.398573 -0.203369 
-0.680073 -0.349199 0.344520 0.342272 -0.268970 0.810143 
0.719121 -0.664509 0.369519 -0.373132 -0.300456 0.797378 
0.581904 -0.134395 0.270269 0.775601 0.092300 -0.577402 
-0.150796 -0.525442 -0.068970 -0.123607 -0.342199 -0.919426 
-0.263046 -0.184838 -0.094814 -0.514050 -0.135960 -0.843031 
0.440426 0.067478 0.030796 0.742823 0.015393 -0.656400 
-0.134755 -0.428954 -0.117053 -0.316017 -0.304059 -0.879229 
-0.550690 1.098443 1.094557 -0.208918 0.630422 -0.668692 
1.489461 0.956318 2.538741 0.674241 0.614123 -0.393479 
0.890125 -0.200673 0.627461 -0.557007 -0.382194 0.659128 
0.047523 1.368016 0.165880 0.587033 0.674111 -0.392140 
-1.352317 -0.178610 0.986166 -0.727264 0.337862 -0.555469 
1.163012 -0.156623 0.838517 -0.567528 -0.506501 0.556839 
-1.281365 -0.434977 0.844951 0.573454 -0.452533 0.621410 
0.487488 0.330490 0.036041 0.718581 0.065610 -0.682115 
-1.476258 0.684747 2.970072 -0.734201 0.525977 -0.414344 
0.071394 1.204305 0.101116 0.492640 0.329310 -0.790590 
-0.740971 1.086296 1.822037 0.711449 -0.596685 0.311846 
-1.466448 0.637387 2.899574 -0.734155 0.549937 -0.376136 
1.547318 1.384796 3.147954 -0.708889 -0.481618 0.485607 
1.123235 -0.569345 0.642380 0.428780 0.571852 -0.601714 
-0.522327 1.431835 1.733053 0.672188 -0.513837 0.525235 
0.213586 -0.548992 -0.042603 -0.110584 -0.278261 -0.938947 
1.373307 -0.034638 1.014765 0.647523 0.571293 -0.445640 
0.480014 0.410429 0.063171 0.720203 0.179441 -0.597692 
-1.087421 0.300851 0.755785 -0.774357 0.389297 -0.484408 
0.337001 0.747938 0.070351 0.810388 0.445976 -0.281877 
0.210602 -0.016210 -0.126647 0.498659 -0.081959 -0.856451 
0.434627 1.129448 1.439920 -0.393842 -0.737179 0.532422 
-0.277713 -0.443018 0.225622 -0.416093 -0.280800 0.855469 
0.323655 1.267227 1.526891 -0.631550 -0.636660 0.365936 
-1.555739 0.303947 2.083586 0.615016 -0.728435 0.244015 
-1.209868 -0.421715 0.833970 0.588800 -0.322995 0.668087 
-0.932038 1.347938 2.749872 -0.668614 0.697097 -0.222948 
0.087908 1.152357 0.455830 -0.263655 0.474482 0.811167 
-0.320388 -0.746107 0.124166 -0.142669 -0.225481 0.915093 
0.185480 0.801426 -0.063189 0.533279 0.445238 -0.692409 
0.735346 0.315555 0.577503 -0.512726 -0.502803 0.662168 
0.410601 -0.535417 0.109851 -0.000354 -0.205508 0.950643 
0.124543 -0.115268 -0.168845 0.475418 -0.090256 -0.861292 
-0.036975 0.930411 -0.064473 -0.410325 0.506372 -0.742970 
-0.665702 -0.440788 0.326930 0.361169 -0.260762 0.814083 
-0.128020 0.019965 0.427600 -0.213517 -0.272209 0.935920 
0.806790 0.600700 1.176598 -0.593409 -0.622722 0.473280 
1.439273 -0.006547 1.144012 0.661013 0.621378 -0.260280 
0.228210 0.169267 -0.119376 0.488077 -0.050387 -0.867060 
-0.711173 1.074606 1.528374 -0.874001 0.354912 -0.162547 
0.053013 -0.781536 -0.046544 0.181945 -0.000952 -0.956987 
0.425854 -0.268573 0.168734 0.072112 -0.203011 0.942846 
-1.115178 0.855360 2.558024 0.788640 -0.392008 0.462490 
-0.957844 0.603653 1.438357 0.703643 -0.648049 0.263063 
-0.338581 0.778086 0.273546 -0.933825 0.224061 0.229345 
1.205518 0.097211 1.545072 0.883496 0.366146 -0.046094 
-0.518181 0.248062 0.069269 -0.729791 0.115048 -0.665568 
-0.683224 0.955882 1.131605 -0.890411 0.425516 -0.077382 
0.482938 -0.332092 0.178268 0.747026 0.029647 -0.613796 
1.221285 0.864988 2.069940 0.721135 0.469597 -0.503870 
-0.264239 0.213777 -0.100951 -0.473050 -0.052358 -0.876332 
-1.129310 0.589401 1.795152 -0.699524 0.710740 -0.044338 
0.418112 0.226245 0.357735 0.140627 -0.264385 0.871638 
-0.770034 0.989867 1.596910 -0.831606 0.374055 -0.292149 
-1.342756 -0.380104 0.915250 0.606162 -0.446032 0.602748 
0.876053 -0.416998 0.551732 0.566174 0.299757 -0.656536 
1.104605 -0.023436 0.834966 -0.624567 -0.481131 0.554037 
0.522650 -0.128923 0.226324 -0.229916 -0.288185 0.893244 
-0.821587 -0.196214 0.496772 0.472900 -0.320147 0.715697 
1.374664 -0.105916 1.724542 0.895999 0.289103 -0.115351 
0.853454 0.363122 0.674510 0.769391 0.429636 -0.418862 
-0.305088 0.543967 0.397114 -0.449640 0.027694 0.837252 
-0.018809 0.099577 0.464941 -0.108336 -0.262567 0.954994 
-0.051801 1.128130 0.472223 0.128660 0.369799 0.893030 
0.372982 0.598348 0.284496 0.420418 0.410655 0.728404 
0.192119 0.232763 -0.140545 0.480641 -0.023083 -0.872942 
-0.369452 0.151878 -0.040299 -0.554316 -0.032531 -0.812173 
0.705458 1.084626 1.658965 0.778423 0.573603 -0.189577 
1.140817 1.477449 2.630200 0.683563 0.533294 -0.496149 
-0.812336 0.353761 0.588390 0.492130 -0.502836 0.666094 
-1.223219 0.786451 2.661947 0.771588 -0.398509 0.486312 
1.138422 0.291729 1.537961 0.835591 0.445698 -0.182506 
-1.284552 0.906175 2.898737 -0.766956 0.471596 -0.430926 
-1.008320 0.506613 1.302298 0.713061 -0.604930 0.312350 
-0.512929 0.596436 0.244406 -0.671079 0.660008 -0.283714 
-0.734612 0.579380 0.571940 -0.693283 0.584280 -0.387108 
1.141362 0.339316 1.601187 -0.828248 -0.467456 0.186855 
-0.951082 0.859309 2.044961 0.756593 -0.608262 0.201126 
-1.194065 0.510744 1.808720 0.476774 -0.481495 0.711997 
1.007952 1.022872 1.984625 0.633408 0.537054 -0.550571 
-0.757798 0.367020 0.544032 0.452610 -0.510602 0.693291 
-0.913674 0.880920 1.984753 0.783826 -0.556255 0.253239 
-0.040637 -0.051089 -0.204546 -0.406577 -0.099557 -0.886734 
1.300035 0.117695 1.724812 0.832911 0.265750 -0.275993 
1.330052 1.425572 2.858471 -0.627762 -0.658855 0.408651 
0.145312 1.241587 0.284836 0.647110 0.714909 0.063714 
-0.886323 0.970215 2.139117 0.827154 -0.507970 0.227718 
-0.961318 0.632492 1.572913 0.735989 -0.641162 0.061175 
1.055755 0.006875 0.786984 0.693165 0.406072 -0.539715 
-0.617823 -0.465740 0.276168 0.305636 -0.244508 0.848029 
-0.501118 1.103562 1.033486 -0.398000 0.608522 -0.568056 
0.520769 0.832480 0.926101 0.418961 0.728046 -0.522251 
1.408883 -0.102922 1.789496 0.882883 0.284680 -0.197494 
-0.693812 -0.869483 0.256475 0.323782 -0.351123 0.830083 
-1.244772 -0.363832 0.875713 -0.678299 0.281280 -0.616839 
0.046852 0.057148 0.450107 0.137247 -0.281191 0.946652 
0.312583 0.815479 0.105245 0.826836 0.400457 -0.288656 
0.838145 0.674587 1.326551 0.816774 0.511136 -0.234622 
1.253384 1.452469 2.756285 0.704631 0.511727 -0.491349 
0.152321 -0.879053 -0.035854 0.092048 0.006928 -0.978073 
-0.491878 -0.540320 0.142389 0.163338 -0.201399 0.936660 
1.475930 0.212547 2.082676 0.812084 0.308007 -0.476044 
-0.614935 -0.116009 0.299783 0.236080 -0.299806 0.851608 
-1.513461 -0.036593 1.273666 -0.780727 0.536574 -0.029068 
0.481373 -0.547046 0.171131 0.622514 0.052865 -0.714931 
-0.839499 0.907690 1.752844 -0.792974 0.557361 -0.001440 
1.117671 0.313105 1.224512 0.764491 0.486732 -0.374055 
0.611203 -0.543302 0.310473 0.564056 0.148633 -0.737644 
-0.510636 1.040383 0.953909 0.791670 -0.418278 0.286073 
-0.292828 0.682176 0.402313 -0.629711 0.185142 0.744035 
0.649221 1.249705 1.861950 -0.564661 -0.501385 0.646809 
1.457949 0.167094 2.030580 0.824085 0.313450 -0.450540 
0.481824 -0.219597 0.163816 -0.171883 -0.251537 0.931990 
1.382839 1.410763 2.909537 0.704102 0.526407 -0.475164 
1.112327 0.764207 1.858963 0.759426 0.560515 -0.282149 
1.160441 -0.006739 0.880238 -0.629528 -0.506637 0.531908 
0.888187 0.644971 1.482364 -0.665669 -0.585602 0.411267 
1.478067 -0.043923 1.090959 0.633972 0.625925 -0.413978 
-0.693021 -0.264014 0.360443 0.324119 -0.276470 0.806791 
0.669397 -0.987561 0.150607 -0.150010 -0.476737 0.789086 
-1.422088 0.398395 2.023200 0.568486 -0.651669 0.384533 
0.671286 0.331833 0.513013 -0.479453 -0.494343 0.697096 
-1.394290 -0.011575 1.045897 0.732683 -0.411679 0.529059 
-0.081173 0.095794 -0.200832 -0.477756 -0.009049 -0.871204 
1.623723 0.823990 2.589159 -0.673137 -0.431238 0.592225 
1.229866 0.128849 1.615032 -0.893006 -0.392634 -0.012771 
0.445317 -0.602028 0.086436 -0.146771 -0.181221 0.968821 
-0.336232 -0.057039 -0.055417 -0.561372 -0.077584 -0.806006 
-0.420667 1.505635 1.571230 0.712363 -0.484347 0.472870 
-0.020261 -0.620806 -0.026787 -0.309866 -0.148853 -0.918224 
1.224463 0.327217 1.731562 -0.874807 -0.450518 0.049135 
-0.235197 -0.654245 -0.028860 0.087389 -0.193929 -0.966413 
1.152172 1.033344 2.165356 0.665052 0.386743 -0.628251 
-0.919642 0.258864 0.641921 0.561836 -0.444594 0.632613 
-0.329178 0.721792 0.341107 -0.819459 0.209920 0.479295 
-0.758058 0.994658 1.520720 -0.857814 0.391681 -0.169198 
-1.336007 0.676895 2.723054 -0.747145 0.571714 -0.308839 
0.771512 1.224314 1.949102 -0.537046 -0.468267 0.685565 
-0.057567 0.852104 0.478421 -0.189741 -0.186652 0.953934 
0.068127 0.929198 -0.048597 0.456987 0.484616 -0.723256 
-0.247244 0.679918 -0.110265 -0.528251 0.251746 -0.792636 
0.519313 -0.071609 0.172535 0.773567 0.058543 -0.600203 
-0.532162 0.554960 0.547432 0.789421 -0.371896 0.452339 
-1.087852 0.513815 1.607130 0.708050 -0.684636 0.100348 
0.413950 -1.003289 0.059897 -0.186358 -0.143520 0.936469 
-0.078255 0.933719 0.492258 -0.206344 -0.113907 0.963858 
1.173775 0.382070 1.662482 0.781422 0.332281 -0.395144 
0.525169 0.354021 0.365377 -0.452704 -0.424858 0.769689 
-0.862693 -0.716384 0.451862 0.415260 -0.329360 0.779458 
-0.216204 0.364351 -0.117833 -0.440858 -0.000676 -0.893226 
-0.724526 1.321108 2.082278 -0.889798 0.389587 -0.179246 
0.129690 1.215872 0.142096 0.660487 0.527171 -0.485573 
-1.202720 0.418141 1.628349 -0.657250 0.545393 -0.357175 
-0.310172 0.223070 0.405846 -0.377618 -0.148510 0.907469 
-0.616427 0.381891 0.212780 -0.723904 0.221591 -0.623105 
-0.090791 0.626558 -0.153172 -0.344096 0.151000 -0.913214 
-1.198836 -0.277417 0.838009 -0.687274 0.293525 -0.601154 
-0.627439 0.375481 0.412385 0.361349 -0.504251 0.772253 
0.502437 1.073010 1.481071 -0.436097 -0.712281 0.511609 
0.855929 0.472211 0.853083 0.786878 0.518122 -0.304748 
0.206718 -0.031692 0.386529 0.335758 -0.265199 0.894184 
-0.647464 0.607354 0.582595 -0.283501 0.828515 -0.407271 
1.015905 1.154130 2.113710 0.657025 0.534465 -0.524331 
0.832682 0.507204 1.012218 -0.583183 -0.607524 0.511338 
-0.321938 -1.420437 -0.025415 0.125366 -0.021234 -0.984802 
0.145271 -0.956600 -0.051130 0.163602 0.082353 -0.966484 
-0.198835 -0.358270 -0.119317 -0.486417 -0.186417 -0.843746 
0.116357 0.316044 -0.178039 0.459474 0.024865 -0.884523 
-0.982721 -0.522165 0.623345 -0.611893 0.207862 -0.692216 
0.141547 -1.054208 -0.070741 0.296186 0.130365 -0.929323 
-0.793177 0.987168 1.753372 -0.821288 0.487901 -0.054276 
-0.494560 1.449804 1.500977 -0.931208 0.307331 0.129087 
-0.445926 0.389115 0.352837 0.001738 -0.197546 0.913111 
-0.540402 0.481607 0.185976 -0.694938 0.408526 -0.479790 
-0.734785 1.256980 2.032681 -0.887184 0.402988 -0.165021 
-0.034466 -0.106578 0.389870 -0.075511 -0.292401 0.950929 
-0.642591 0.314878 0.199289 -0.732769 0.181753 -0.638381 
0.825730 -0.757535 0.385722 -0.325700 -0.423610 0.760162 
-0.582500 1.195461 1.289549 -0.934145 0.318824 -0.034099 
-0.597145 1.476015 1.997757 0.866670 -0.044362 0.393292 
-1.548752 0.381926 2.648603 -0.701575 0.665495 -0.237919 
-0.580694 1.371178 1.733762 -0.912465 0.381978 -0.055970 
-0.611581 1.330313 1.844682 0.710228 -0.480395 0.494922 
0.753719 0.207232 0.396133 0.753021 0.221982 -0.582429 
0.969960 0.995755 1.911497 0.631747 0.589333 -0.489526 
0.622301 0.811441 1.201690 -0.494442 -0.690894 0.502127 
0.836557 -0.648272 0.459248 -0.375768 -0.353939 0.754088 
-0.891555 0.740935 1.743720 0.733738 -0.606226 0.219189 
1.315672 0.656433 2.073795 0.772415 0.413186 -0.449575 
0.841582 1.467303 2.240375 0.666714 0.575229 -0.461453 
1.006473 0.771627 1.704277 0.592309 0.326953 -0.713503 
-0.044325 -0.622035 0.221463 -0.289756 -0.359715 0.874021 
-0.895998 0.881821 1.908865 -0.782118 0.586761 -0.155925 
0.947266 0.481892 1.247310 -0.672294 -0.564425 0.445494 
-0.157308 -0.636044 -0.033018 -0.057654 -0.155227 -0.984863 
-1.444550 0.040541 1.256687 -0.784885 0.578968 0.090832 
1.483675 0.468974 2.229535 -0.701124 -0.269329 0.642188 
-0.504453 0.615139 0.320712 -0.523899 0.766413 -0.264438 
-0.309549 -0.496708 0.187659 -0.432624 -0.270436 0.850625 
-0.615906 0.210242 0.354863 0.319056 -0.426059 0.809593 
1.282721 1.492727 2.871356 -0.753125 -0.245025 0.583991 
0.111228 0.845228 0.470734 0.258606 -0.175277 0.944547 
1.086623 0.447384 1.578675 -0.789699 -0.507380 0.305219 
-0.219172 0.252051 0.458252 -0.336011 -0.120435 0.926175 
0.396303 1.083022 1.338289 -0.752436 -0.596440 0.275407 
0.610260 0.371419 0.490860 -0.455023 -0.514919 0.702322 
0.982589 -0.008630 0.722374 0.702118 0.363160 -0.555377 
-0.987254 0.732275 1.885797 0.665438 -0.561694 0.429323 
0.011091 -0.702504 -0.039231 0.491557 -0.041510 -0.825990 
1.278518 -0.027088 0.945622 0.659493 0.521836 -0.474409 
1.109334 0.897287 1.963468 0.698994 0.550374 -0.422146 
-0.153001 -0.129990 -0.157001 -0.503927 -0.083407 -0.850465 
0.325348 0.468426 -0.094091 0.531482 -0.002118 -0.846095 
-1.492761 0.420814 2.679126 0.698406 -0.670539 0.217804 
1.102114 -0.432445 0.714232 -0.455710 -0.476440 0.625346 
1.385873 -0.000845 1.810012 0.850231 0.272729 -0.295941 
0.602155 0.483959 0.330753 0.758228 0.417662 -0.401305 
0.553803 0.167495 0.150550 0.759689 0.096857 -0.623645 
0.883279 -0.052791 0.618001 -0.499486 -0.382196 0.676443 
1.310391 0.026519 1.464496 -0.782483 -0.529410 -0.114015 
-1.222523 -0.186039 0.871116 0.649430 -0.367405 0.604229 
0.995616 0.162678 0.718956 0.750029 0.366712 -0.520370 
1.053348 0.102531 0.801089 0.733836 0.402980 -0.516266 
-0.501506 -0.958091 0.110937 -0.414052 0.151183 -0.853580 
1.627475 1.353029 3.227386 0.694348 0.573038 -0.432252 
-0.346395 0.235966 -0.055222 -0.500042 -0.051810 -0.855397 
-1.216562 0.607878 2.077734 0.623274 -0.664137 0.297845 
-1.439488 -0.063434 1.081240 0.730679 -0.405275 0.534868 
1.324215 1.111695 2.480708 -0.663470 -0.455865 0.578869 
-0.874111 0.198062 0.510300 -0.767374 0.264915 -0.543877 
-0.683439 1.172313 1.791342 0.657532 -0.654482 0.297374 
-0.852195 1.154324 2.240010 -0.867640 0.420683 -0.244989 
0.621655 0.901316 1.395715 -0.503066 -0.678640 0.487248 
-0.595719 1.300574 1.781388 0.739390 -0.511144 0.402427 
0.323449 0.760500 0.336301 0.818636 0.233921 0.473285 
-1.065461 0.772873 2.300684 -0.788416 0.503159 -0.339614 
-1.442964 0.005108 1.340604 -0.765528 0.525015 0.332851 
1.394897 0.541481 2.121973 0.789258 0.368990 -0.453403 
-1.134514 1.270756 3.032371 -0.692662 0.608121 -0.348335 
0.952049 0.218253 0.746598 -0.621822 -0.477117 0.593995 
-1.094637 0.158352 0.792204 0.699836 -0.421244 0.537877 
-0.233675 -0.926660 0.056416 0.248971 -0.289914 0.886882 
-0.176035 -0.270711 -0.135644 -0.487574 -0.149677 -0.848149 
0.640823 1.057961 1.638431 -0.514015 -0.725772 0.380078 
1.579764 1.326162 3.117407 0.701869 0.549866 -0.451491 
1.551036 1.309725 3.050581 0.702009 0.544349 -0.457806 
0.639048 0.714096 1.021812 -0.489470 -0.690843 0.523192 
1.481868 1.149972 2.751735 -0.676848 -0.559660 0.476428 
-1.375410 0.123961 1.434942 0.743489 -0.576196 -0.280808 
0.540272 0.494026 0.215524 0.759695 0.404678 -0.404595 
0.389526 0.509470 0.394356 -0.700989 -0.230770 0.557795 
0.816504 0.210365 0.604300 -0.535063 -0.449335 0.671450 
-0.431946 -0.503273 0.109723 -0.673111 0.006690 -0.688749 
-0.508545 0.330330 0.351371 0.106259 -0.357447 0.851514 
-1.348934 0.515128 2.117832 -0.658657 0.742495 -0.109995 
0.034149 -0.010715 0.427777 0.106486 -0.287058 0.951171 
1.501388 -0.053732 1.240336 -0.627938 -0.682534 0.138136 
-0.760024 1.111546 1.910445 -0.880572 0.342882 -0.222483 
0.601163 0.371198 0.261413 0.759192 0.220254 -0.549917 
-1.138638 0.376717 1.276409 -0.769735 0.557455 -0.229769 
0.535388 -0.334189 0.234469 0.721306 0.068746 -0.624675 
0.174674 1.155870 0.149002 0.706341 0.497978 -0.415545 
-0.984683 0.816174 1.987329 -0.734012 0.652151 -0.139271 
-1.009865 0.302614 0.651194 -0.767003 0.348137 -0.515462 
0.398063 -0.334806 0.174132 0.204455 -0.227319 0.898584 
0.279561 -0.772083 0.108334 0.081112 -0.248449 0.900797 
0.601635 0.226272 0.195657 0.755394 0.130343 -0.620265 
-0.274024 -0.298521 0.271672 -0.440962 -0.280863 0.837126 
1.128663 1.001497 2.099031 0.676190 0.452192 -0.575446 
0.002443 1.141401 0.040666 0.320288 0.382591 -0.865067 
1.812190 0.680952 2.698716 -0.680764 -0.464604 0.562055 
-0.570260 0.066641 0.289086 0.248215 -0.370530 0.853514 
1.763864 0.745273 2.702015 -0.680590 -0.467500 0.557348 
-0.265770 0.004416 0.368517 -0.366534 -0.253027 0.886526 
-0.690310 0.461054 0.408758 -0.719315 0.357632 -0.537892 
-1.076332 1.104782 2.779123 0.768942 -0.510016 0.379863 
0.747188 0.332982 0.457636 0.760968 0.300321 -0.513430 
0.690592 0.202573 0.316400 0.754694 0.183040 -0.596481 
-0.278215 -0.800046 0.098181 -0.023126 -0.251465 0.899483 
-0.413990 -1.136693 0.052260 -0.387964 0.079224 -0.871889 
0.685673 -0.795196 0.310336 0.446407 0.211936 -0.770436 
0.672278 0.834455 1.372624 -0.532114 -0.663510 0.475884 
-0.760322 1.356560 2.250065 -0.867928 0.425518 -0.215867 
1.388269 1.353183 2.857655 -0.637414 -0.642392 0.417610 
0.479506 -0.900334 0.140063 0.440355 0.078103 -0.850078 
0.792081 0.500581 0.910608 -0.556922 -0.650374 0.499520 
-0.681331 1.109438 1.464998 -0.900607 0.353815 -0.067530 
0.936183 0.569661 1.351519 0.802532 0.511409 -0.280037 
0.586298 -0.003787 0.239719 0.768345 0.104394 -0.593563 
0.588307 0.333802 0.195568 0.756367 0.162690 -0.598593 
-0.330817 0.625546 0.376297 -0.722605 0.099726 0.656077 
-1.556495 -0.094891 1.237813 0.758241 -0.467626 0.322022 
-1.123631 1.124936 2.877103 -0.794373 0.417845 -0.436056 
-1.061113 0.229125 0.766923 0.661711 -0.432954 0.556840 
-1.005002 0.504031 1.017280 -0.808878 0.466605 -0.299988 
0.536904 0.600611 0.532431 0.383297 0.864500 -0.225960 
-0.723440 0.477413 0.477970 -0.722133 0.394725 -0.512112 
-1.234091 0.566592 2.019392 0.579899 -0.620764 0.403106 
-0.290408 0.425114 -0.094902 -0.483651 0.001261 -0.871158 
