1.360302 1.996239 0.549147 0.788748 -0.368059 0.432767 
-0.265516 0.302740 0.003498 -0.559864 -0.010715 -0.827982 
-1.080642 0.914222 -0.567657 -0.831206 -0.327307 0.403878 
-0.383327 -0.300104 0.162258 -0.813761 -0.194551 0.536837 
0.694790 1.573468 0.832118 -0.519292 0.586868 -0.586217 
0.057697 -0.231212 0.423352 0.058738 -0.288077 0.951942 
-0.594430 0.412909 0.126838 -0.868175 -0.314167 0.371092 
-0.182161 1.063250 0.427686 -0.423894 0.665461 0.433321 
1.472987 2.010581 0.224057 -0.676600 0.681105 -0.224060 
-0.657380 3.011919 0.156828 0.868537 -0.353340 -0.316593 
-0.610013 0.884874 0.253366 0.983338 0.113322 0.018349 
0.203359 -0.169813 0.424310 0.368865 -0.273823 0.850234 
-0.892945 0.153580 -0.413439 -0.689384 -0.149877 0.608702 
-0.185165 3.519673 0.400141 0.703011 -0.514800 -0.480034 
1.496419 1.372896 -0.471272 0.692148 -0.119437 0.710928 
-0.027093 0.109400 0.547630 -0.120383 -0.256150 0.953199 
-1.017093 1.560892 0.122257 -0.913848 -0.048079 0.386832 
1.661585 2.865647 1.111314 -0.779464 0.459030 -0.413178 
-0.010253 -1.024859 -0.001272 -0.506516 0.008213 -0.841650 
-0.072650 0.675792 -0.064390 -0.382595 0.184989 -0.880833 
-0.147305 0.613703 -0.043691 -0.485279 0.122239 -0.831521 
-1.146769 1.763417 0.041525 -0.920805 0.000533 0.368848 
-1.253787 1.315224 -0.730259 0.842441 0.402811 -0.357006 
0.451012 0.221379 0.370928 0.697768 -0.282842 0.646260 
0.775704 0.752742 0.208456 0.832451 -0.300809 0.460608 
-0.095413 -0.670944 0.040589 0.002460 -0.092410 -0.988966 
0.370191 0.689431 0.402806 0.874849 0.318872 0.278819 
1.435205 1.236449 -0.447348 0.685686 -0.117449 0.717316 
0.973558 2.079453 1.255739 0.747796 -0.473623 0.458342 
1.572591 2.938246 1.374409 -0.739792 0.461036 -0.477483 
-0.988508 2.178377 0.046069 -0.657122 0.696214 0.238262 
-0.226278 0.775012 0.510329 -0.435081 0.163250 0.861712 
-0.301429 -0.842906 0.105253 -0.403357 -0.276320 0.824044 
-0.652492 0.974095 0.362418 -0.912831 -0.185254 0.320425 
-0.108988 1.034641 0.581360 -0.067815 -0.057052 0.953463 
0.301694 0.534007 -0.000395 0.654413 0.079978 -0.743033 
-0.305718 0.500247 0.503440 -0.400968 -0.108708 0.888732 
0.686926 0.629426 0.309220 0.729044 -0.327922 0.533050 
-0.224898 -0.337995 -0.016859 -0.573761 -0.087205 -0.813024 
-1.047988 2.122199 -0.237168 -0.956669 0.151763 0.154640 
1.115309 1.749077 0.656952 0.657248 -0.596881 0.361672 
0.368121 0.154224 0.429704 0.613203 -0.238395 0.736606 
-1.029799 0.735089 -0.541591 0.732744 0.315166 -0.498940 
-0.653908 1.348514 0.595652 -0.950082 -0.063513 0.300220 
-0.019402 1.120802 0.128172 -0.330055 0.401351 -0.848458 
-0.300652 -0.045173 0.040783 -0.318961 0.035273 -0.904441 
-0.606751 1.083830 0.503789 -0.881624 -0.213619 0.374116 
0.155600 1.113467 0.501824 0.890428 0.155779 -0.146753 
-0.712802 0.282066 -0.188536 0.677142 0.209857 -0.642533 
-1.235537 1.526205 -0.356169 0.894693 0.226894 -0.361315 
1.554665 2.305640 0.679906 0.775304 -0.566770 0.270355 
-0.391423 3.405940 0.195724 -0.762206 0.512382 0.394096 
-1.126890 0.895951 -0.621467 -0.794858 -0.305507 0.430166 
-0.194574 -0.178252 0.424708 -0.355667 -0.270397 0.854742 
-0.831665 0.722875 -0.223842 -0.847501 -0.246844 0.462557 
-0.466845 2.445513 0.831987 0.722775 -0.178631 -0.648404 
1.067220 0.927628 -0.094223 0.768716 -0.290768 0.563887 
0.323172 0.286250 0.030825 0.386579 0.034470 -0.903019 
0.055297 0.867808 0.573321 0.190550 -0.158230 0.958000 
-0.247724 -0.726336 0.188158 -0.379650 -0.343403 0.824102 
-0.243857 0.913814 0.147439 -0.721079 0.414775 -0.526069 
1.040460 0.664122 -0.202417 -0.626491 0.208480 -0.720296 
-0.398482 2.462168 0.901643 0.735770 -0.179839 -0.630636 
0.998776 0.929945 -0.047161 -0.695732 0.333546 -0.624448 
0.093881 0.166604 -0.106628 0.502672 0.018718 -0.860882 
1.282242 1.262777 -0.297235 -0.737763 0.235994 -0.622491 
0.682318 -0.617171 -0.142795 0.520347 -0.069522 0.845903 
0.383204 -0.260910 0.088707 0.200035 0.081677 -0.913966 
0.090584 0.092776 0.537159 0.198226 -0.264659 0.937982 
0.192788 1.057828 0.169653 0.642686 0.394003 -0.643621 
-0.461924 0.396525 0.003626 0.094193 0.177373 -0.881815 
-0.595476 2.651357 0.617421 -0.701624 0.376777 0.596539 
-0.971699 2.262515 -0.012523 -0.713668 0.616857 0.222300 
-0.982097 1.991845 0.214966 0.773864 -0.386801 -0.421018 
1.038445 1.515179 0.347457 0.764440 -0.472636 0.412877 
-0.766451 1.956171 0.559616 0.840029 0.071904 -0.479414 
-0.662694 0.098587 -0.136875 -0.798051 -0.179128 0.548531 
0.130523 0.102935 -0.083283 0.509937 -0.002594 -0.855921 
0.886632 1.363676 0.451191 0.807133 -0.358978 0.419369 
0.507554 -0.089627 0.100736 0.766333 -0.234353 0.592338 
-0.398750 -0.236571 0.049037 -0.002070 0.097414 -0.894802 
1.263200 2.457562 1.380071 -0.680148 0.512797 -0.513236 
0.390620 -0.413087 0.065760 0.072794 0.081293 -0.918876 
0.832590 0.712836 0.098852 0.789333 -0.318266 0.519998 
1.196491 0.981603 -0.249091 0.734513 -0.209122 0.635070 
-0.686538 0.789633 -0.030978 0.650329 0.328832 -0.574897 
-0.465294 -1.052144 -0.069779 0.586152 0.023434 -0.805413 
0.305848 0.888701 0.328614 0.914305 0.287217 0.055540 
-0.566283 2.722974 0.615167 -0.713591 0.391681 0.572627 
0.645387 0.720962 0.156569 -0.407348 0.506476 -0.644247 
-1.177143 1.587494 -0.171287 -0.910100 -0.136166 0.361770 
0.635955 0.870833 0.387433 -0.925144 0.184531 -0.262229 
0.678156 0.678094 0.101343 -0.366362 0.400761 -0.717861 
-1.115729 1.228791 -0.438145 0.854826 0.300582 -0.409418 
0.577741 0.436595 0.326504 0.687725 -0.397326 0.569921 
-0.831169 0.899299 -0.127129 -0.880348 -0.233936 0.400977 
1.181270 0.734110 -0.323998 0.675881 -0.132039 0.719201 
1.185410 2.222491 1.216412 -0.640723 0.609109 -0.457658 
1.235436 2.288333 1.226432 -0.665726 0.579228 -0.459432 
1.522430 2.068505 0.250759 0.800373 -0.415178 0.372220 
1.779122 2.764030 0.675132 -0.829036 0.441268 -0.340927 
0.244620 -0.453251 0.326920 0.405326 -0.299560 0.842339 
0.685858 0.337187 -0.017824 -0.212691 0.186183 -0.794025 
-0.654489 2.203237 0.708582 -0.888390 0.169384 0.390606 
0.249142 -0.432771 -0.005037 0.475893 -0.106702 -0.831551 
-0.328784 0.572635 0.101683 -0.593209 0.257857 -0.706134 
-0.530196 -0.583157 -0.117654 0.482013 0.113592 -0.819855 
0.579405 1.053931 0.682823 0.475089 -0.555986 0.577951 
1.337565 2.035001 0.685925 0.744807 -0.509563 0.381650 
-0.931666 2.331165 0.027063 0.959437 -0.123591 -0.221103 
1.720998 3.094259 1.267624 -0.780849 0.469975 -0.406935 
0.923254 1.549697 0.485154 -0.642974 0.564843 -0.484566 
0.538120 1.037744 0.611996 -0.891391 0.054692 -0.375865 
-0.418887 0.090811 0.038442 -0.003080 0.134144 -0.895880 
0.685883 0.434603 -0.021938 -0.221614 0.199757 -0.805212 
-0.620582 3.038440 0.216873 0.856026 -0.361629 -0.335155 
0.394699 0.375209 0.114819 0.207913 0.265393 -0.887817 
0.624421 0.484920 0.257220 0.780542 -0.372988 0.499422 
-0.008432 -0.651055 0.307257 -0.452917 -0.336188 0.817553 
0.619272 1.775941 1.337651 0.564186 -0.569759 0.578098 
-0.880431 1.831357 0.487674 -0.926147 -0.076964 0.354252 
-0.442053 -0.877674 -0.045098 0.429031 0.057277 -0.890517 
-0.386609 -1.072515 -0.011231 0.012019 0.170430 -0.846086 
0.936248 0.777884 -0.107721 -0.568765 0.268102 -0.692568 
0.376662 1.557683 1.197737 -0.477637 0.752392 -0.450313 
-0.273552 -0.516931 -0.006528 -0.361983 -0.064442 -0.832404 
1.285897 1.989693 0.669576 -0.657973 0.692455 -0.264797 
0.447452 1.137245 0.857790 -0.860999 -0.043589 -0.252852 
1.314360 1.650351 -0.074160 -0.795055 0.463125 -0.386319 
0.493221 0.988332 0.700164 0.536885 -0.517669 0.584508 
-0.406830 -0.805479 -0.005348 0.354230 0.069278 -0.898283 
0.194038 1.166215 0.353464 0.821727 0.537661 -0.063657 
-0.011156 0.928111 0.592016 -0.148196 -0.081908 0.975678 
1.279224 2.580675 1.504247 0.502730 -0.328449 0.794668 
-0.095891 -0.675272 0.265106 -0.215545 -0.412242 0.880722 
-0.382581 -1.328632 -0.022573 0.101850 -0.503729 0.616334 
0.448689 1.541420 1.226574 0.719925 -0.504794 0.468270 
-0.612422 0.582016 0.237431 -0.886813 -0.277392 0.317433 
-1.236514 1.465809 -0.417391 0.889461 0.258559 -0.360100 
0.636486 1.502775 0.875841 0.853227 -0.381057 0.328824 
-0.433281 -0.139022 0.132975 -0.856081 -0.204349 0.459899 
-0.920685 2.296559 0.111680 0.954431 -0.117153 -0.246229 
0.241073 -0.380669 0.339504 0.429678 -0.281626 0.797671 
0.569473 1.535906 0.939358 -0.458020 0.620507 -0.609061 
-0.192487 -0.651987 0.043000 0.016557 -0.057431 -0.987439 
0.156253 1.054457 0.436585 0.544507 0.683693 0.307822 
-0.113318 1.191572 0.531277 0.276842 0.715792 0.597995 
-1.090804 2.092294 -0.454027 0.895981 -0.384722 -0.182445 
-0.331864 0.096467 0.073705 -0.178073 0.106535 -0.959569 
-0.942579 1.205389 -0.115676 0.841431 0.191034 -0.480752 
0.374720 0.385217 0.474240 0.447647 -0.153805 0.871368 
-0.536996 3.219541 0.155698 -0.742099 0.523301 0.406415 
1.632598 2.175753 0.176406 -0.759053 0.575397 -0.292032 
0.959639 1.761961 0.831009 -0.468078 0.805626 -0.265004 
-0.415322 0.493734 0.156196 -0.006439 0.352435 -0.786898 
-1.184038 1.299698 -0.524242 0.859353 0.323996 -0.382393 
0.423158 -0.113930 0.076019 0.159862 0.101803 -0.901763 
-0.752474 1.051954 0.156440 -0.910171 -0.160791 0.359409 
-0.550007 1.303876 0.638485 0.635402 0.442065 -0.612459 
0.188297 -0.629579 0.268900 0.310940 -0.404945 0.858130 
0.334841 -0.544449 0.181468 0.679823 -0.263576 0.679366 
0.474775 1.043559 0.760608 0.445363 -0.543847 0.576900 
1.387884 1.905446 0.226413 -0.774021 0.472028 -0.404606 
-0.240239 1.074924 0.384445 -0.899406 0.410094 0.071636 
0.730902 -0.394747 -0.157513 0.575747 -0.092015 0.805746 
1.200957 2.128748 1.104444 0.605372 -0.510904 0.606052 
-0.268617 -0.446172 0.017574 -0.406447 -0.051081 -0.850983 
-1.052171 0.990154 -0.498976 -0.844658 -0.320326 0.402233 
1.444498 2.269905 0.855505 -0.729448 0.355132 -0.555980 
0.646822 0.786250 0.321412 -0.882183 0.327604 -0.223864 
-0.841020 0.987917 -0.142226 0.796391 0.295039 -0.511052 
0.892652 1.291805 0.342143 -0.653879 0.522913 -0.524871 
1.312525 1.890480 0.392047 -0.594634 0.780920 -0.162995 
0.940824 0.819586 0.010284 0.790295 -0.291621 0.534953 
0.737904 1.411354 0.680807 0.836718 -0.353270 0.374655 
-0.635899 1.693470 0.792742 0.656052 0.204928 -0.662328 
-0.833212 1.985510 0.567164 -0.821725 0.256029 0.477437 
0.005947 -0.205900 -0.113409 0.344645 -0.191783 -0.900293 
-0.074974 0.254395 0.579167 -0.179940 -0.149961 0.962270 
1.200744 0.635995 -0.355027 0.624815 -0.097421 0.764877 
0.006707 0.564811 -0.101630 0.386013 0.153466 -0.906372 
-1.003131 1.711991 0.278887 -0.927854 -0.004770 0.368766 
-0.008210 0.400309 -0.133763 -0.472643 0.100261 -0.873445 
-1.274983 1.542713 -0.414901 0.899151 0.246731 -0.344673 
1.628464 2.071063 -0.084773 -0.754891 0.592246 -0.274386 
-1.086878 2.124660 -0.517690 -0.933135 0.308601 0.137272 
-0.683237 1.206353 0.438468 -0.948322 -0.080119 0.302151 
0.440426 -0.215731 0.124625 0.759508 -0.215627 0.609407 
-1.011534 2.329306 -0.500819 -0.927046 0.345243 0.133708 
0.038799 -0.794650 0.037310 0.234535 -0.058248 -0.960472 
-1.178871 1.362349 -0.409547 0.875976 0.270246 -0.383371 
-0.299692 3.168529 0.634769 -0.776627 0.461768 0.427162 
-0.787344 0.711678 -0.138975 -0.858604 -0.273092 0.427930 
-0.650093 0.650510 0.144928 -0.903093 -0.269972 0.317497 
0.574785 0.471556 0.393896 0.557588 -0.415866 0.674915 
-1.108358 1.958161 -0.164043 0.839135 -0.453373 -0.250921 
0.838287 0.782221 0.127976 0.808965 -0.307060 0.497683 
0.273664 -0.093767 0.007009 0.498035 -0.055457 -0.851444 
-0.210283 0.300672 0.553041 -0.381051 -0.119876 0.890153 
0.806226 0.856405 0.131203 -0.607340 0.505126 -0.604616 
-0.601629 0.560314 0.368922 -0.691611 -0.370503 0.551644 
-1.181513 1.901952 -0.450605 0.912126 -0.344288 -0.193738 
1.050921 1.674951 0.577165 0.525871 -0.783957 0.169681 
1.343356 2.205089 0.953541 -0.692215 0.400070 -0.573515 
1.746623 2.810805 0.842954 0.818067 -0.442587 0.362206 
0.867615 1.491383 0.559940 0.803349 -0.423646 0.381985 
1.515191 1.895394 -0.123104 0.757784 -0.573637 0.260821 
0.483290 0.195915 0.045829 0.055731 0.149899 -0.900857 
-0.640367 0.427835 -0.113553 0.396659 0.200451 -0.698382 
-0.835013 1.378990 0.305794 -0.934348 -0.060898 0.338451 
-0.352057 2.615658 0.922826 0.870426 -0.225307 -0.412694 
-0.320585 3.498403 0.201963 0.751334 -0.517744 -0.407510 
-1.151517 1.958167 -0.417295 -0.942170 0.256556 0.160373 
0.651021 -0.396854 -0.108618 -0.402232 0.091422 -0.890324 
0.951399 0.121053 -0.248626 0.612709 -0.100625 0.776618 
0.480716 0.417637 0.391896 0.567787 -0.255747 0.736946 
-0.389034 0.580810 0.473978 -0.550225 0.004292 0.824948 
0.770297 1.594635 0.764725 -0.556393 0.567433 -0.571224 
0.861021 1.768976 1.007760 0.699878 -0.578983 0.356573 
0.385707 -0.918906 0.006109 -0.273191 0.071513 -0.945058 
-0.643391 2.532702 0.624566 0.790590 -0.219355 -0.570159 
-0.091025 0.519737 -0.072815 -0.498950 0.094584 -0.846661 
0.584713 1.120778 0.713562 0.796816 -0.246603 0.511141 
0.164734 0.970724 0.112789 0.589444 0.436664 -0.661485 
1.185712 1.218789 -0.153063 0.785695 -0.285356 0.537903 
-0.512948 0.332570 -0.028277 0.174731 0.174763 -0.821986 
1.551772 2.406171 0.777767 -0.760682 0.351017 -0.517271 
-0.676348 0.974795 0.152438 0.730567 0.421352 -0.523923 
-0.470194 0.199726 0.002554 0.092036 0.153400 -0.853251 
-0.666032 1.482172 0.597252 0.688486 0.317461 -0.592618 
0.568546 0.649574 0.173927 -0.177792 0.499221 -0.667051 
0.233627 1.043926 0.438933 0.838045 0.472918 0.247368 
-0.960131 1.603107 0.269400 -0.930631 -0.020002 0.358905 
0.572428 0.135091 0.136159 0.767470 -0.284505 0.564949 
-0.673200 0.462631 -0.032971 -0.860993 -0.264391 0.423391 
-0.838472 1.652400 0.460609 0.771712 0.172534 -0.538391 
-1.131003 1.645190 -0.023116 -0.911827 -0.073356 0.380750 
0.925309 1.571455 0.552988 0.757464 -0.506768 0.348096 
-0.566837 1.067734 0.412748 0.702643 0.465933 -0.511690 
-0.582761 0.585452 -0.064148 0.331236 0.224020 -0.760429 
1.557388 1.930790 -0.171511 0.779580 -0.552209 0.277581 
-0.876122 2.567793 -0.055979 0.942047 -0.239658 -0.214395 
-0.598861 0.307173 -0.083804 0.317054 0.180762 -0.729575 
0.154049 1.200793 0.260681 0.736873 0.544188 -0.335400 
1.509751 2.685512 1.207127 -0.744672 0.465497 -0.463924 
1.267125 0.916820 -0.366445 -0.604964 0.130824 -0.766034 
-1.070073 1.233184 -0.329760 0.856333 0.258409 -0.428167 
-0.958455 2.072915 0.262614 -0.896728 0.080671 0.292393 
0.569472 1.676015 1.162879 -0.471399 0.696339 -0.511805 
0.543372 1.471776 0.905649 -0.453310 0.631110 -0.604145 
-1.134801 1.822922 0.004847 -0.932499 0.066044 0.317275 
1.226738 1.991744 0.799263 -0.657205 0.676916 -0.300537 
0.162966 0.710475 -0.030643 0.479077 0.251028 -0.796645 
-0.834936 1.502317 0.346828 0.776704 0.237795 -0.501231 
-1.066424 1.165908 -0.400297 0.847127 0.294978 -0.429378 
1.647063 2.331344 0.499253 0.789916 -0.529339 0.305704 
-0.602798 1.748536 0.920289 -0.814724 0.193542 0.458246 
1.394410 2.194954 0.825864 -0.720392 0.457384 -0.469961 
-0.743381 1.313548 0.417637 -0.944466 -0.064439 0.314944 
0.175685 -0.436241 -0.008122 0.382424 -0.239786 -0.864725 
-0.347820 -0.438153 0.168816 -0.773074 -0.226314 0.578198 
0.316132 0.238001 0.480446 0.521127 -0.176790 0.801952 
1.454333 1.968177 0.169256 -0.666497 0.696706 -0.212461 
0.505243 1.701960 1.325075 -0.720844 0.653974 0.118848 
0.368134 -0.780626 0.086768 0.594533 -0.208414 0.765976 
-0.505519 2.396362 0.796409 -0.730815 0.422456 0.530403 
-0.497647 1.110433 0.664406 -0.620796 -0.424274 0.571999 
-0.024418 -0.705846 0.263163 -0.374674 -0.358419 0.852542 
0.653879 0.250903 0.089071 0.767923 -0.279783 0.568356 
-1.179788 1.815362 -0.204747 -0.940344 0.159911 0.239865 
1.306041 1.406054 -0.296819 -0.781418 0.254682 -0.565955 
-0.158832 -0.804483 0.174474 -0.157169 -0.373070 0.909959 
-0.756270 0.319269 -0.242412 0.678041 0.222830 -0.626744 
-0.202809 0.057171 0.491489 -0.394369 -0.257091 0.855267 
-0.198978 0.893362 0.086875 -0.621389 0.435283 -0.638212 
-0.101743 -0.461315 -0.021232 -0.239002 -0.333295 -0.907338 
0.881713 2.046400 1.333936 -0.542402 0.683123 -0.461366 
0.226338 0.981550 0.173543 0.702341 0.391898 -0.545823 
0.326410 0.783192 0.215469 0.872821 0.338034 -0.285726 
0.244191 0.834661 0.071213 0.611669 0.483486 -0.619518 
-0.284112 2.948108 0.824549 0.867440 -0.320658 -0.365681 
0.223943 -0.519302 0.035854 -0.066243 -0.197573 -0.925317 
-0.230388 -0.113914 0.432520 -0.486364 -0.267742 0.790977 
-0.263895 3.544533 0.240538 0.743296 -0.519761 -0.418849 
-0.992265 1.824776 0.292166 0.823456 -0.076445 -0.486943 
0.944154 2.157748 1.414116 -0.637447 0.646544 -0.410982 
1.080426 2.206935 1.326821 -0.601606 0.622514 -0.498914 
0.886263 0.675327 0.006478 0.769766 -0.304567 0.556716 
-0.189463 -0.255378 0.399993 -0.312331 -0.273184 0.868609 
-0.097917 -0.987559 0.069308 -0.084685 -0.305433 0.940257 
-0.579736 1.337588 0.713044 -0.954762 -0.067723 0.287129 
-0.476509 2.883322 0.641678 0.737704 -0.389518 -0.544381 
0.331301 0.725676 0.174618 0.836943 0.370806 -0.324049 
-0.357183 2.950867 0.745409 -0.786014 0.383719 0.473670 
-0.669838 3.174260 -0.146196 -0.845672 0.443605 0.281094 
0.417591 -0.774943 0.032834 0.623629 -0.161114 0.758230 
-0.735112 2.477901 0.497961 0.795860 -0.273499 -0.516156 
-0.757334 0.991804 0.008957 0.753656 0.364900 -0.526222 
-0.507670 0.606324 0.096694 0.372328 0.314168 -0.698837 
-0.870862 1.365484 0.162068 0.799992 0.237343 -0.485362 
0.015536 0.493391 -0.110017 0.424491 0.128073 -0.894751 
1.630194 2.866912 1.177133 0.799352 -0.483430 0.353708 
1.009549 1.947634 1.109025 0.654583 -0.628213 0.410274 
0.891068 1.164741 0.254291 -0.654173 0.475960 -0.561259 
-0.549045 0.124723 0.034784 -0.860554 -0.224321 0.445431 
-0.061578 -0.753108 0.225292 -0.252137 -0.366599 0.882366 
0.433096 1.301467 0.992530 -0.039657 -0.738846 0.556322 
1.450053 1.421486 -0.422542 0.733006 -0.155711 0.651439 
-0.650705 -0.552952 -0.202109 0.521683 0.023299 -0.818497 
0.689739 1.769650 1.211791 0.738930 -0.434632 0.502819 
-0.503059 0.259212 0.241097 -0.858490 -0.315114 0.380260 
-0.535503 1.572975 0.875376 0.615451 0.333826 -0.691014 
0.570144 0.242024 0.198133 0.768102 -0.329477 0.539816 
1.204879 1.715466 0.304620 -0.760870 0.469442 -0.442138 
-0.265739 -0.650649 0.036196 0.265063 -0.136217 -0.945670 
0.671302 0.915580 0.465818 0.555604 -0.430851 0.680856 
-1.280774 1.402978 -0.640223 0.866849 0.354388 -0.344012 
0.415881 0.472903 0.178043 0.237026 0.417688 -0.764583 
0.325765 0.640375 0.511373 0.549868 0.339196 0.745940 
-0.155256 -0.132647 -0.063033 -0.552428 -0.037491 -0.827941 
-0.957134 0.996249 -0.299336 -0.864025 -0.264944 0.424442 
0.663965 -0.019594 -0.039361 -0.359552 0.166435 -0.808588 
-0.723088 -0.192799 -0.277841 0.567538 0.139962 -0.725823 
0.732807 0.713589 0.071508 -0.425679 0.393877 -0.700410 
-0.907284 1.595001 0.352797 -0.933965 -0.023041 0.349571 
0.805507 0.606307 0.078379 0.769585 -0.327890 0.542930 
-1.109818 1.724413 0.095718 -0.915925 -0.018447 0.391159 
-0.294883 -0.286627 0.351043 -0.645675 -0.275149 0.684050 
1.365424 1.019073 -0.423182 0.651485 -0.103444 0.743791 
0.362594 -0.843011 0.014450 -0.151742 0.052808 -0.936010 
0.599436 0.611697 0.120421 -0.264289 0.386100 -0.751884 
-0.583440 2.385087 0.729695 0.769026 -0.155945 -0.600485 
-0.412071 0.637448 0.372765 -0.225515 -0.320677 -0.113808 
0.259294 0.723767 0.009973 0.618990 0.375141 -0.646914 
1.392022 2.261037 0.951434 -0.710632 0.330437 -0.609415 
-0.656745 -0.695813 -0.197267 -0.549386 0.077154 0.821987 
0.962709 0.446738 -0.185359 -0.579400 0.182887 -0.756448 
1.095669 1.159994 -0.036724 -0.727038 0.355799 -0.567837 
-0.148843 -0.728463 0.223133 -0.181326 -0.400362 0.896086 
0.916929 2.030321 1.271346 -0.534506 0.679103 -0.478514 
0.919789 1.813465 1.000798 0.682834 -0.602470 0.359142 
-0.322987 -0.364197 0.314965 -0.715663 -0.278554 0.637014 
-0.666761 0.717075 0.178204 -0.932146 -0.209557 0.275086 
-0.545160 -0.342217 -0.077427 -0.762015 -0.131035 0.610643 
-0.941023 0.879173 -0.383305 0.790308 0.301639 -0.496732 
0.664509 1.287168 0.624710 -0.544995 0.588837 -0.575656 
-1.156044 1.793059 -0.084795 0.906714 -0.147937 -0.330361 
0.466577 1.342507 1.043985 0.656113 -0.436632 0.610248 
0.066560 0.603320 0.576723 0.033243 0.304209 0.943513 
-1.037149 1.805435 0.234828 0.857903 -0.036238 -0.460085 
-0.446732 3.325531 0.203296 -0.766049 0.502391 0.397817 
0.806594 0.323725 -0.077184 -0.487266 0.213144 -0.744345 
0.496893 1.152563 0.712176 -0.841220 0.153843 -0.425855 
0.684855 0.333985 0.092654 0.768324 -0.293874 0.560781 
-0.598050 1.803500 0.825312 0.744954 0.291130 -0.552249 
-0.012495 0.732283 -0.062653 -0.269203 0.279035 -0.914832 
0.851965 0.608226 0.016214 0.769468 -0.299095 0.559447 
-1.035165 2.005716 0.089219 0.811455 -0.397932 -0.328973 
0.715507 -0.140155 -0.079912 0.670480 -0.175697 0.704448 
1.153946 1.705998 0.427414 0.595203 -0.726752 0.203163 
-0.834173 1.179546 0.117800 -0.907264 -0.137354 0.373055 
0.052520 -0.303122 0.394041 0.026453 -0.290785 0.951678 
-0.616623 0.373114 0.043643 -0.863714 -0.275572 0.407484 
0.373674 -0.575917 0.123347 0.676346 -0.223058 0.692467 
0.275254 0.607420 -0.013151 0.636389 0.133844 -0.740286 
-0.435617 2.511628 0.846972 0.729540 -0.203492 -0.636869 
-0.503442 -0.486008 -0.054309 -0.752390 -0.115878 0.628228 
0.622509 0.199601 0.006020 -0.120223 0.161823 -0.816694 
0.276116 0.969740 0.265846 0.879801 0.381071 -0.220398 
1.374841 1.917169 0.324997 0.820143 -0.266212 0.462732 
-0.843608 1.868802 0.536407 -0.924045 -0.112398 0.350627 
0.246366 0.905633 0.481395 0.750095 0.034185 0.619384 
0.385621 -0.455841 0.125145 0.714007 -0.223394 0.656051 
-0.532923 1.401680 0.863648 -0.560033 -0.461566 0.579693 
1.248582 1.925933 0.677790 0.746395 -0.451721 0.435258 
1.021140 1.078091 0.029470 -0.702995 0.377968 -0.581271 
0.022318 0.314249 0.599321 0.102523 -0.111727 0.984722 
-0.548077 0.732772 0.315271 0.810469 0.325220 -0.066943 
0.155352 -0.616323 0.042119 0.054614 -0.091747 -0.989469 
1.247778 2.102037 0.966164 -0.657626 0.536809 -0.500571 
0.381609 0.497382 0.234880 0.406104 0.522949 -0.690330 
-0.625158 0.243331 -0.069572 -0.856811 -0.208449 0.467562 
0.946428 0.725845 -0.047585 0.769895 -0.286824 0.567193 
0.864672 0.002338 -0.208643 0.634735 -0.113174 0.761970 
-0.617005 1.936247 0.804580 0.660330 0.010919 -0.685187 
1.430046 2.321179 0.950651 -0.755793 0.577864 -0.270005 
1.175829 1.482583 0.037169 -0.749214 0.409539 -0.495008 
-0.939018 2.246693 0.167311 -0.719472 0.576391 0.277424 
0.773209 -0.108360 -0.151363 -0.454093 0.110411 -0.854583 
1.569037 2.374431 0.716491 0.782782 -0.553000 0.269902 
-0.386771 -0.631184 0.072026 -0.736075 -0.161272 0.640132 
-0.982448 2.320315 -0.238005 -0.823158 0.474872 0.179503 
-1.129844 1.286241 -0.391191 0.865551 0.274091 -0.403321 
0.200871 -0.367770 -0.025053 0.523883 -0.132146 -0.832457 
-1.002759 0.830299 -0.482125 0.764131 0.314070 -0.490232 
0.357630 -1.273730 0.008027 0.144209 -0.140365 0.870683 
-0.995401 0.915853 -0.427886 -0.842967 -0.299552 0.421833 
0.645888 -0.139913 -0.044044 -0.397845 0.159245 -0.820457 
1.485787 2.613743 1.181339 -0.750116 0.483829 -0.442567 
-1.051281 2.040678 0.002163 -0.974385 0.022377 0.184395 
-1.069059 1.313001 -0.249377 0.863268 0.216760 -0.429655 
0.808728 -0.282516 -0.193112 0.558458 -0.081832 0.817123 
0.378871 -0.378225 0.171286 0.729660 -0.237772 0.637445 
0.723296 1.006218 0.432039 0.859897 -0.157936 0.475314 
0.113523 0.652956 0.558319 0.080991 0.207400 0.962377 
1.100103 1.361237 0.147929 0.756407 -0.434430 0.465521 
0.744606 -0.496808 -0.169782 0.519777 -0.067155 0.845536 
0.448009 -0.297432 0.076313 0.758884 -0.194244 0.619408 
0.572877 1.362687 0.869281 0.875866 -0.292316 0.351488 
-0.589493 0.849323 0.350127 -0.728343 -0.249090 0.601316 
0.451768 -0.219591 0.055258 0.050886 0.102085 -0.889086 
0.526491 -0.516321 -0.018215 0.662437 -0.152475 0.721215 
0.683023 0.450155 0.159099 0.769009 -0.342318 0.533715 
0.060336 0.953599 0.589607 0.189180 -0.081856 0.970957 
0.736152 -0.202225 -0.128902 0.643799 -0.137605 0.744070 
-0.731417 2.035515 0.658168 -0.818411 0.301554 0.451930 
-0.318083 0.684035 0.015963 -0.711964 0.227663 -0.639272 
1.713884 2.471525 0.489771 -0.800803 0.492116 -0.332502 
1.415284 1.904605 0.152697 -0.775032 0.484130 -0.387198 
-0.209796 1.099325 0.642940 -0.229494 -0.509320 0.785410 
-0.930654 0.932861 -0.317119 -0.853892 -0.278950 0.433873 
0.538856 0.680901 0.365675 -0.566840 0.528273 -0.253053 
-0.096955 1.286641 0.388288 -0.440853 0.756817 0.452347 
0.051135 -0.867032 0.025447 0.198127 -0.041148 -0.963818 
-0.410806 -0.981050 -0.024654 -0.679000 -0.022970 0.709549 
0.749552 0.291578 -0.049082 -0.361603 0.196203 -0.764936 
-0.485599 1.482974 0.865192 0.674287 0.385487 -0.595897 
1.094198 1.071377 -0.101544 -0.726710 0.321198 -0.594906 
1.132091 1.654610 0.371347 0.666834 -0.633039 0.298330 
-0.452474 3.271410 0.262373 -0.762959 0.491269 0.414749 
0.674066 0.923219 0.327811 -0.566224 0.580486 -0.584269 
0.913317 1.593784 0.622099 0.697407 -0.576733 0.284250 
-0.324987 -0.555477 0.179248 -0.724198 -0.246157 0.633769 
-0.271411 -0.221509 0.381256 -0.587141 -0.272279 0.723396 
0.911810 1.219399 0.319069 0.804615 -0.316017 0.460502 
-1.082913 2.154305 -0.588397 -0.927095 0.347416 0.129935 
1.623296 2.710899 1.018101 -0.783836 0.504646 -0.342375 
0.130196 0.939650 0.573520 0.220003 -0.188905 0.954143 
0.584143 0.039603 0.067650 0.766878 -0.238187 0.590923 
-0.011248 -1.242166 0.032992 -0.227198 -0.162880 -0.954361 
0.681453 1.150146 0.585626 0.865328 -0.200905 0.430412 
0.841908 1.861098 1.166648 0.685652 -0.459938 0.548033 
0.303369 0.164135 0.467781 0.510910 -0.224867 0.797573 
0.930916 0.476449 -0.112434 0.729657 -0.231630 0.629229 
-1.022727 1.102103 -0.383523 0.837247 0.297808 -0.447381 
1.377349 2.625669 1.391017 -0.695105 0.447004 -0.556114 
1.174161 1.610358 0.179975 0.752687 -0.526903 0.373539 
0.016578 -0.577428 0.318401 0.245008 -0.312111 0.895374 
-0.372199 2.339245 0.961600 0.816560 -0.200425 -0.533104 
1.451929 2.052543 0.396954 -0.667008 0.686093 -0.225178 
-0.479690 0.646890 0.194465 0.163838 0.474493 -0.626691 
1.235013 1.012561 -0.303749 -0.662838 0.194390 -0.707381 
0.909630 1.649873 0.671029 -0.622838 0.522379 -0.557116 
-0.316632 0.382837 0.505133 -0.437093 -0.157567 0.869531 
1.573482 2.500111 0.845515 0.786775 -0.370369 0.476182 
0.932547 0.227166 -0.208826 0.662296 -0.140981 0.726812 
-1.213442 1.829602 -0.423893 -0.942093 0.263418 0.173078 
1.434002 1.876534 0.067134 0.673644 -0.673125 0.186923 
-1.116492 1.817484 0.106528 -0.926947 0.022382 0.360342 
-0.020716 1.312445 0.378281 -0.332899 0.717702 0.558764 
1.365787 1.709231 -0.071679 0.732750 -0.577527 0.252935 
-0.261219 -0.793846 0.149156 -0.330839 -0.328720 0.850005 
-0.991681 2.379306 -0.454539 0.931282 -0.325146 -0.156128 
0.299059 -0.093504 0.400941 0.568008 -0.265923 0.747662 
0.281920 0.510568 0.518097 0.347089 -0.062370 0.923191 
0.982345 2.123207 1.328161 0.717637 -0.535826 0.428650 
0.943733 0.564824 -0.101775 0.746944 -0.245564 0.608231 
0.814337 1.140417 0.398836 0.832577 -0.244607 0.460445 
0.997257 1.130929 0.141359 0.783243 -0.326492 0.499496 
-0.871926 2.149397 0.439653 -0.786565 0.371453 0.479021 
-0.181372 0.709016 -0.026035 -0.504974 0.242713 -0.781021 
-0.967019 1.358660 -0.013874 0.849169 0.157274 -0.468059 
0.784266 1.614610 0.920981 0.719255 -0.486081 0.396440 
0.142485 1.237221 0.330970 0.706055 0.645736 -0.020213 
-0.147542 0.466332 0.590035 -0.264947 -0.025702 0.960881 
-0.874317 0.508862 -0.348777 -0.807964 -0.247697 0.488828 
-0.416056 0.143955 0.351022 -0.755049 -0.239662 0.594666 
1.324035 2.475496 1.322579 -0.705048 0.498851 -0.496740 
-0.255414 3.166784 0.719584 -0.653696 0.484643 0.568333 
-0.354387 -0.343851 0.232527 -0.769896 -0.235984 0.582483 
0.101848 -0.820496 0.172920 0.135434 -0.363580 0.911716 
-0.526290 1.692490 1.048134 -0.748428 0.400148 0.527025 
-0.205160 3.294128 0.618955 0.727143 -0.468587 -0.497366 
-0.707488 2.579532 0.520327 -0.744266 0.329680 0.557569 
-0.578693 2.469752 0.709716 0.763673 -0.191517 -0.603022 
1.156964 0.500977 -0.338359 -0.574006 0.095612 -0.800828 
-0.684631 0.721930 0.106837 -0.910063 -0.244891 0.318143 
0.478561 -0.569003 0.004731 0.671755 -0.151821 0.713353 
-0.327542 3.020122 0.736965 -0.783170 0.413333 0.456586 
1.174711 1.132880 -0.190736 0.786959 -0.261634 0.555527 
-0.405118 -0.661337 0.008134 0.265017 0.076497 -0.897139 
-0.496756 0.487055 -0.005504 0.179066 0.202590 -0.840098 
0.148554 1.082319 0.598153 -0.129861 -0.019947 0.917118 
-0.158858 0.751810 0.522873 -0.231372 0.069483 0.944710 
0.268641 -0.371597 0.042359 0.467787 -0.044179 -0.868274 
-0.741565 2.245416 0.580921 0.810766 -0.166037 -0.552761 
1.318598 1.545286 -0.223379 -0.789736 0.308434 -0.514625 
1.380719 1.759650 -0.014087 0.707987 -0.614777 0.226816 
0.615746 0.514933 0.001848 -0.147717 0.214389 -0.850487 
0.004891 0.246782 0.584164 0.083133 -0.160912 0.978815 
-0.071350 0.326851 0.597741 -0.170856 -0.101267 0.972784 
0.165985 0.431371 0.586821 0.276028 -0.043960 0.957560 
0.571908 0.790475 0.443426 -0.811792 0.323048 -0.463684 
1.200901 1.990589 0.880929 0.664977 -0.643346 0.369890 
1.196218 1.069889 -0.249501 -0.707811 0.243320 -0.656205 
0.274764 0.159907 0.003585 0.505550 -0.038285 -0.860075 
-0.572499 0.919763 0.364216 0.972116 0.068768 -0.106497 
-0.213770 1.215157 0.616141 0.530696 0.630009 0.482788 
-0.509669 -0.847064 -0.090703 0.462035 0.011097 -0.881540 
0.845010 2.039198 1.413870 0.517603 -0.549760 0.618212 
-0.298749 0.794366 0.437963 -0.706552 0.326353 0.543590 
0.799277 2.000349 1.357298 -0.584089 0.673176 -0.437636 
0.881716 2.104083 1.419517 -0.674501 0.658812 -0.280507 
-0.709433 2.619793 0.462353 0.747101 -0.376426 -0.530021 
-0.309221 -1.226374 -0.012142 0.623060 -0.511214 0.319636 
-0.118104 3.614747 0.396322 -0.675356 0.525253 0.488775 
1.569301 2.115828 0.225242 0.794022 -0.462745 0.343253 
-0.633495 0.174623 -0.125130 0.501054 0.182776 -0.704342 
0.232999 -0.042359 0.450601 0.445459 -0.267300 0.820264 
1.017614 1.764037 0.696641 -0.553046 0.778140 -0.276402 
1.109907 1.685877 0.478997 0.576337 -0.737480 0.203598 
-0.327176 -1.015127 0.032673 -0.296286 -0.235809 0.896680 
0.382952 0.307578 0.066552 0.178668 0.151549 -0.969372 
-0.535384 -0.926680 -0.116635 0.572471 -0.002340 -0.815591 
1.152349 1.933973 0.866974 0.646589 -0.636280 0.413492 
-0.715685 0.067430 -0.239713 0.618602 0.197926 -0.675476 
0.355932 0.607200 0.168342 0.613586 0.411077 -0.598419 
-0.161363 0.495386 -0.046281 -0.564147 0.054666 -0.807932 
1.401075 1.977582 0.400027 0.819950 -0.280931 0.456774 
0.445005 1.511188 1.069730 -0.395593 0.646766 -0.642302 
0.510589 0.065449 0.181973 0.767233 -0.295531 0.558207 
-0.569063 3.090260 0.266487 -0.713197 0.527306 0.450392 
-0.356775 3.286244 0.397784 -0.770147 0.488065 0.408196 
0.134797 -1.161991 0.026729 0.001680 -0.058845 -0.996010 
1.447075 2.618587 1.262877 0.771864 -0.507976 0.374656 
1.751293 3.169637 1.297929 -0.785418 0.473919 -0.397917 
-1.002136 2.271020 -0.327354 0.942142 -0.244009 -0.173681 
-0.767197 1.331724 0.312884 0.748238 0.327221 -0.506217 
-0.783311 2.490304 0.388133 0.843523 -0.287375 -0.413010 
0.838001 0.257943 -0.110040 -0.570503 0.205726 -0.751022 
1.390858 1.373430 -0.377637 -0.723307 0.196126 -0.649698 
0.337037 0.802150 0.357635 0.895242 0.336091 0.173177 
-0.040176 0.179128 0.563750 -0.135542 -0.205254 0.960283 
0.670746 1.727076 1.145861 -0.379243 0.665166 -0.598354 
-0.703290 1.549567 0.592077 0.705069 0.273138 -0.588895 
0.767567 0.689945 0.002189 -0.406526 0.316287 -0.731790 
0.542784 1.293311 0.864153 0.886770 -0.248666 0.363017 
-0.089817 -1.203966 0.032420 -0.066404 -0.109707 -0.984790 
0.511256 -0.631241 -0.031044 -0.382759 0.107909 -0.893284 
-0.698435 2.974258 0.107169 -0.739871 0.509296 0.400492 
-0.323468 0.715586 0.094046 -0.755006 0.359456 -0.476179 
0.547779 0.468353 0.465555 0.411563 -0.450622 0.791228 
-0.471503 2.625590 0.775101 0.724457 -0.253841 -0.639025 
-0.415029 -0.433957 0.051500 -0.821124 -0.137605 0.539853 
0.860018 0.408934 -0.096705 -0.565877 0.229922 -0.722387 
-1.049730 2.230605 -0.585586 -0.919257 0.365848 0.126053 
1.673533 2.516623 0.621446 -0.795595 0.417169 -0.407620 
-0.137044 -0.208919 -0.064043 -0.512931 -0.084375 -0.839639 
-0.806546 1.563442 0.499592 -0.940332 -0.030845 0.331422 
-1.119303 1.308462 -0.324015 -0.890240 -0.231121 0.374275 
-0.332166 3.192312 0.552059 -0.776529 0.469248 0.418689 
-0.337997 0.647322 0.081181 -0.708626 0.192955 -0.616439 
-0.629742 0.680162 -0.046364 0.479299 0.273571 -0.674057 
0.066992 1.325606 0.347822 0.585396 0.686500 0.415255 
0.360155 0.300289 0.466134 0.507368 -0.175146 0.821753 
-0.471734 -0.280120 0.013450 -0.823812 -0.151928 0.530605 
-0.719096 0.734829 0.035609 -0.894362 -0.259097 0.348162 
0.689119 0.858903 0.257814 -0.751378 0.416888 -0.398798 
-0.175817 1.214302 0.452345 -0.890205 -0.300208 0.235540 
1.322968 2.228333 1.019726 -0.703136 0.633702 -0.291480 
0.643417 0.089119 -0.014395 -0.228963 0.162322 -0.810169 
0.647819 0.566890 0.326287 0.693276 -0.355489 0.563158 
0.233399 1.028120 0.225966 0.776134 0.397426 -0.402729 
0.400591 0.092745 0.380751 0.676270 -0.237718 0.696013 
-0.651309 0.676150 0.246019 -0.862881 -0.245948 0.351069 
-0.777249 1.767908 0.590635 0.714125 0.046188 -0.595734 
-0.265486 3.386166 0.426741 0.692082 -0.505992 -0.498789 
-0.593300 0.205699 -0.017370 -0.858922 -0.220578 0.453463 
-0.667764 3.131721 -0.070219 0.854357 -0.415099 -0.291426 
-0.535504 3.177780 0.219124 0.810011 -0.428258 -0.371664 
0.068475 -1.219114 0.037015 0.386007 -0.526210 0.417248 
-1.160689 1.640226 -0.101858 0.899004 0.114736 -0.394813 
-0.759181 0.921388 0.047772 -0.910158 -0.194342 0.348904 
1.011202 2.181866 1.392223 0.689891 -0.593206 0.401872 
0.325352 -0.428632 0.281624 0.694973 -0.284749 0.659531 
-0.622043 -0.757983 -0.174207 -0.578234 0.090214 0.793152 
0.834039 0.533049 -0.000777 0.769077 -0.279912 0.569989 
-0.061944 0.027493 -0.116702 -0.499981 -0.017169 -0.852932 
1.338583 1.867311 0.284874 -0.777665 0.449430 -0.428080 
1.295863 1.159058 -0.325132 -0.689694 0.203901 -0.687646 
-1.230139 1.311219 -0.657797 0.848651 0.374875 -0.365564 
-0.599072 0.785412 0.306966 -0.606027 -0.288541 0.714824 
1.472299 1.780373 -0.229819 -0.794012 0.506773 -0.326730 
0.652038 0.698415 0.341511 0.336439 -0.410480 0.836018 
0.199508 0.363164 0.576285 0.308701 -0.087324 0.943770 
-0.815437 2.689273 0.093185 0.817333 -0.401077 -0.336978 
-0.128234 0.827530 0.555931 -0.275951 -0.191325 0.939647 
-0.999846 2.123224 0.002351 0.812942 -0.492504 -0.275223 
1.152567 1.873379 0.783199 0.690904 -0.560824 0.443619 
-0.168900 3.418576 0.544952 -0.568765 0.509547 0.596614 
-1.076360 1.623999 0.066128 -0.908260 -0.043223 0.400353 
-0.318838 0.341764 0.040544 -0.370515 0.061676 -0.880898 
0.090564 0.047722 -0.106704 0.515380 0.001114 -0.851734 
0.526154 1.081023 0.729259 0.300496 -0.666140 0.593225 
1.149217 2.148840 1.181872 -0.623058 0.642652 -0.440088 
-1.227060 1.638814 -0.232124 0.904128 0.158699 -0.364878 
0.274520 -1.145356 0.007718 -0.384731 0.005131 -0.891319 
0.236673 0.229046 0.521980 0.403030 -0.172104 0.869294 
0.148876 -0.301774 -0.050996 0.483317 -0.135652 -0.848965 
0.899344 0.063827 -0.223936 0.632025 -0.110814 0.763474 
-0.776605 1.891538 0.631163 -0.924485 -0.145278 0.341172 
0.025577 -0.781502 0.212229 0.369428 -0.333297 0.864088 
-0.428749 2.103293 0.971943 0.725036 -0.033258 -0.659043 
-0.133900 -0.929693 0.099430 -0.093898 -0.331009 0.933921 
0.407744 0.260661 0.429312 0.584232 -0.207952 0.771547 
-0.104897 0.440894 -0.066325 -0.484014 0.080642 -0.865295 
-1.268802 1.627117 -0.398822 0.911466 0.073860 -0.304200 
0.098347 -0.026273 -0.098196 0.511006 -0.024182 -0.850303 
-0.263115 3.036274 0.801729 -0.393444 0.448875 0.788716 
-0.217709 3.404531 0.483709 0.678590 -0.505901 -0.518826 
1.470635 2.384027 0.951795 -0.753069 0.619598 -0.201310 
0.109351 0.380570 0.596649 0.207848 -0.061072 0.968785 
0.273532 0.000361 0.005431 0.514274 -0.057542 -0.850420 
-0.863158 2.710567 -0.183451 -0.937151 0.298584 0.173057 
0.000049 1.237593 0.169700 0.620257 0.267262 -0.701584 
-0.155116 -0.575278 0.297209 -0.209473 -0.378964 0.890661 
-0.640388 1.153606 0.368038 0.689132 0.449001 -0.539051 
0.161448 -0.977601 0.067909 0.072952 -0.310807 0.944318 
1.716155 3.042387 1.215025 -0.783853 0.467762 -0.402737 
-0.833360 2.747580 -0.084911 -0.935389 0.287231 0.190761 
1.160357 1.235774 -0.082385 0.778237 -0.319137 0.522978 
-0.366943 -1.139860 0.008425 -0.467122 -0.047031 0.784638 
0.744589 0.835297 0.310941 0.640096 -0.332345 0.616346 
-0.893330 0.976289 -0.191288 -0.864701 -0.234109 0.434781 
1.148874 1.630641 0.283762 0.717495 -0.571563 0.347853 
0.531749 1.676086 1.226670 -0.404232 0.804295 -0.411237 
-0.310590 0.024959 0.045263 -0.279489 0.056290 -0.917430 
0.200895 1.493072 1.399295 -0.284328 0.886298 -0.095667 
0.223638 0.288908 -0.029644 0.491107 -0.002255 -0.870091 
-0.198431 -0.885044 0.025843 0.139407 -0.022801 -0.980167 
0.515398 1.109315 0.659718 -0.843554 0.138579 -0.420984 
-0.689825 0.358698 -0.125382 -0.845930 -0.214131 0.478429 
1.476252 1.955031 0.103570 0.658568 -0.702611 0.167287 
0.489833 0.927754 0.660613 0.667882 -0.450306 0.584909 
-0.333898 0.488942 0.152743 -0.487821 0.286762 -0.743926 
-0.731700 1.642362 0.621058 0.715822 0.221748 -0.596865 
0.787597 0.445832 0.014411 0.768695 -0.273984 0.572859 
-0.772381 3.013409 -0.230091 0.889029 -0.385469 -0.235438 
-0.950301 1.265812 -0.072172 0.843507 0.179330 -0.476099 
1.108251 1.870999 0.844472 0.648830 -0.606582 0.448424 
1.581121 2.033146 -0.041696 -0.730658 0.622044 -0.255977 
-0.616031 1.867881 0.849755 -0.867661 0.311302 0.336796 
-0.541343 0.818571 0.430390 -0.824273 -0.215191 0.496704 
0.891557 1.957851 1.210200 0.725039 -0.458995 0.500608 
0.882952 0.933596 0.100833 -0.652434 0.395139 -0.626729 
-0.823290 1.218099 0.175766 -0.915253 -0.119108 0.361496 
-0.627959 1.038449 0.432188 -0.922171 -0.157844 0.317239 
1.589754 1.991001 -0.143445 0.767964 -0.574889 0.262473 
-0.786631 2.737592 0.171392 0.761610 -0.465939 -0.396248 
0.187854 0.899967 0.086512 0.617802 0.424720 -0.645368 
-0.130859 0.573122 0.584427 -0.234268 0.025129 0.969672 
0.804117 -0.168787 -0.185072 0.611781 -0.105229 0.779110 
1.428809 2.708278 1.384282 -0.704806 0.445475 -0.542205 
0.715497 0.115634 -0.029524 0.738553 -0.214608 0.628590 
-0.493002 2.170365 0.885066 0.736596 -0.064092 -0.644623 
1.604467 2.932945 1.307843 0.790669 -0.491380 0.361362 
0.550101 0.830652 0.502143 -0.821064 0.282282 -0.486518 
-0.682411 1.154761 0.295059 0.710496 0.413651 -0.531268 
0.495584 1.457333 1.034223 0.886894 -0.326922 0.310057 
0.601365 0.919912 0.520518 0.485765 -0.559408 0.648900 
-1.152651 1.475724 -0.229809 -0.902091 -0.173218 0.367270 
0.390521 0.639936 0.314839 0.248960 -0.277289 -0.118722 
0.975954 0.193352 -0.257013 -0.507255 0.093549 -0.835496 
-0.644662 1.089379 0.299795 0.693281 0.450972 -0.541703 
-0.640403 0.500935 0.075430 -0.866657 -0.312063 0.377864 
0.164517 -0.087360 -0.059480 0.530748 -0.042930 -0.841213 
1.737968 2.696960 0.686606 0.824054 -0.417342 0.371213 
-0.942206 0.646605 -0.435989 0.727285 0.288229 -0.532872 
0.097051 -0.006441 0.503824 0.180957 -0.275639 0.939816 
-0.559664 0.891806 0.433858 -0.750305 -0.294655 0.550748 
-0.409062 2.926861 0.701820 -0.774850 0.384986 0.491928 
1.190058 0.808200 -0.306798 0.691362 -0.151870 0.697219 
1.587976 2.554075 0.889793 0.787247 -0.382566 0.465699 
0.678142 -0.286703 -0.104272 -0.432964 0.114066 -0.864100 
0.303232 0.411096 0.517933 0.372763 -0.113891 0.914102 
0.526640 1.407892 0.960500 0.883173 -0.306880 0.329675 
-1.103202 2.001471 -0.222798 -0.958321 0.146704 0.167826 
-0.917180 0.774493 -0.372233 0.767068 0.289558 -0.518587 
-1.080352 1.786974 0.179612 0.891002 0.002134 -0.434254 
0.606368 0.397310 0.002282 -0.117906 0.188044 -0.849236 
-1.118191 2.002364 -0.330727 -0.949266 0.207047 0.161149 
-0.417289 2.604840 0.840110 0.734281 -0.240689 -0.626919 
0.596679 0.876213 0.451516 -0.893462 0.182039 -0.352593 
-0.300151 0.907857 0.342017 -0.916535 0.295157 0.076934 
1.098611 1.919898 0.915047 -0.618607 0.673496 -0.397079 
-0.909548 1.518393 0.291033 -0.933870 -0.032510 0.348266 
1.120770 1.009840 -0.191104 -0.724467 0.274887 -0.628478 
-0.448802 0.067143 0.232500 -0.825643 -0.248310 0.477682 
-0.227278 3.520527 0.329606 0.720484 -0.516367 -0.453664 
0.195612 0.505603 0.563278 0.287713 -0.026130 0.950353 
-0.998993 2.071783 0.111635 0.774194 -0.511484 -0.323680 
0.790694 1.814760 1.125623 -0.481232 0.644399 -0.555765 
-0.495156 2.312770 0.838220 -0.733302 0.427690 0.523645 
-0.664133 -0.207602 -0.226449 0.555209 0.168937 -0.730353 
0.416059 -0.091866 0.239952 0.718964 -0.216425 0.656682 
-0.161269 -1.111919 0.021162 0.056994 -0.035641 -0.993466 
1.689479 2.388938 0.462007 -0.789098 0.518088 -0.325787 
1.333509 2.018312 0.615746 -0.664816 0.684358 -0.260155 
0.959970 1.741902 0.739024 -0.528367 0.792210 -0.274780 
0.945591 0.340423 -0.182052 0.686151 -0.171594 0.692915 
1.275019 1.392094 -0.231217 0.800717 -0.262291 0.530241 
1.491239 2.307033 0.812245 -0.739881 0.346833 -0.550791 
-0.615071 2.994882 0.297211 -0.691955 0.538198 0.470558 
0.192622 1.106827 0.397470 0.478218 0.261650 0.699669 
0.599389 0.376247 0.232225 0.768808 -0.365484 0.519989 
-0.089471 1.230228 0.466091 -0.085492 0.834380 0.532498 
1.400513 2.014453 0.485985 0.805724 -0.330354 0.440024 
-0.871843 1.291947 0.150921 -0.913254 -0.105942 0.369953 
-0.098204 0.061669 0.526969 -0.213891 -0.270751 0.932992 
0.099373 -0.684307 0.039066 -0.008402 -0.094213 -0.991039 
0.455768 1.516004 1.158506 0.866291 -0.345756 0.308212 
-0.539320 1.474603 0.909805 -0.822754 -0.247436 0.449831 
1.358945 2.291633 1.052696 0.712282 -0.408923 0.555733 
0.161283 0.577206 0.573168 0.255734 0.019229 0.963063 
-0.794517 2.057314 0.535544 0.850142 0.060413 -0.464571 
0.016534 -0.171240 0.444920 0.023895 -0.293583 0.952230 
0.280823 -0.516298 0.270686 0.570166 -0.296029 0.742453 
-0.184903 0.054567 -0.045751 -0.551998 -0.020562 -0.830134 
-0.474753 1.217748 0.769013 -0.499511 -0.460344 0.588674 
0.636359 0.575580 0.042070 -0.228248 0.286648 -0.800472 
-0.667746 1.012580 0.303092 -0.938328 -0.137395 0.305827 
-0.948940 1.669174 0.299685 0.829244 0.118902 -0.479560 
-0.072147 0.955464 0.059161 -0.454825 0.494141 -0.720633 
-0.042037 -0.505330 -0.002747 -0.086875 -0.449340 -0.879584 
1.362128 1.203536 -0.369580 0.712676 -0.161688 0.674706 
1.726059 2.720860 0.758833 0.818425 -0.422337 0.377528 
-1.144204 1.936232 -0.321149 0.878360 -0.395509 -0.219077 
0.321290 1.521910 1.248331 -0.742082 0.440422 -0.318240 
0.365662 -0.221054 0.299533 0.700002 -0.257567 0.663638 
0.791662 0.574348 -0.057958 -0.367802 0.227896 -0.757012 
-0.267415 0.630013 -0.014731 -0.641094 0.130138 -0.734240 
-0.743110 2.900573 0.109829 -0.755593 0.490915 0.393795 
-0.201592 0.968807 0.533220 -0.569675 -0.112553 0.761425 
-0.655131 1.409557 0.639740 -0.949967 -0.055852 0.301784 
-0.089562 -0.354257 0.376228 -0.053357 -0.282816 0.952659 
-0.342979 -0.680478 0.134146 -0.690112 -0.215042 0.682251 
0.167940 0.167850 -0.061569 0.503423 -0.003996 -0.860859 
1.581765 2.793649 1.186166 0.799677 -0.490898 0.342414 
-0.269603 0.829461 0.126186 -0.699844 0.435700 -0.508336 
-0.071807 1.207970 0.193346 -0.531424 0.362000 -0.755248 
0.181603 -0.705362 0.043325 -0.022610 -0.044938 -0.989986 
-0.923361 1.517883 0.213586 0.822046 0.180121 -0.467559 
-0.442581 2.173672 0.957014 -0.759613 0.403357 0.502339 
0.302163 1.469855 1.296785 0.350260 -0.849039 0.358660 
-0.306751 0.760002 0.149449 -0.763294 0.410102 -0.425990 
-0.097256 -0.032994 -0.097237 -0.523085 -0.021291 -0.842473 
-0.566718 0.639380 0.034707 0.417452 0.286809 -0.699666 
-0.672525 1.608800 0.687715 0.686127 0.260920 -0.621963 
-0.733305 0.436446 -0.160960 -0.837946 -0.219044 0.485497 
0.923702 1.857285 1.061997 0.708663 -0.608861 0.291230 
0.721532 -0.053757 -0.080306 -0.505770 0.172957 -0.799648 
0.203492 0.002495 -0.037225 0.521579 -0.040905 -0.848069 
-0.846041 1.139879 -0.007434 0.794281 0.277681 -0.501997 
0.207991 1.115430 0.245826 0.775796 0.452129 -0.362738 
-0.881095 2.626263 -0.140548 -0.925210 0.308094 0.179075 
1.529441 2.319897 0.750461 0.773024 -0.574379 0.258751 
0.444211 0.130452 0.327167 0.706730 -0.265490 0.644933 
0.299395 0.013315 0.429360 0.538717 -0.257820 0.770445 
0.429543 -0.017826 0.261620 0.718324 -0.234572 0.647701 
-0.840399 1.381626 0.231022 0.783983 0.261499 -0.490096 
-0.909872 0.569433 -0.389204 -0.810796 -0.261133 0.475130 
-0.375623 3.363199 0.273576 -0.764843 0.503344 0.399891 
-0.725095 1.798364 0.718832 -0.935216 -0.093540 0.326936 
-0.075901 0.201685 -0.116515 -0.524645 0.033076 -0.848060 
0.705184 1.912522 1.385740 0.333397 -0.462614 0.779228 
-0.218756 0.442160 -0.020294 -0.586559 0.022708 -0.798656 
0.079794 -0.497578 0.335048 0.076141 -0.293109 0.944863 
-0.268906 0.093023 0.007472 -0.567820 -0.040837 -0.821043 
-0.912233 0.843312 -0.313147 -0.845076 -0.270222 0.446866 
-0.136996 0.878575 0.043071 -0.545351 0.420973 -0.704861 
-0.735751 1.948712 0.633395 0.779822 0.119225 -0.528375 
0.605481 0.109345 0.077006 0.767227 -0.252985 0.582861 
-1.128813 1.862617 -0.083472 0.875929 -0.263881 -0.308624 
-0.378809 0.713282 0.357373 -0.907528 0.359022 0.113521 
0.073988 -0.729498 0.236921 0.232399 -0.380653 0.883492 
-0.430371 1.956235 1.068767 -0.740201 0.299466 0.589762 
0.216612 -0.170615 -0.026409 0.540298 -0.072091 -0.834718 
1.311483 0.987816 -0.388720 0.679872 -0.123165 0.719735 
-0.565745 2.154468 0.837857 -0.704606 0.391660 0.581230 
-0.388308 -0.032434 0.312455 -0.754156 -0.221670 0.610546 
-0.588887 -0.251980 -0.128796 0.559058 0.147660 -0.754551 
-0.196209 1.055160 0.174278 -0.653702 0.394169 -0.623765 
1.547814 2.807943 1.271264 0.794366 -0.498625 0.343037 
1.422301 1.816655 -0.030307 -0.787380 0.485410 -0.365373 
-0.173328 1.185744 0.275851 -0.790980 0.539772 -0.254755 
1.034765 1.654316 0.501280 -0.688144 0.507570 -0.506594 
1.291016 2.156008 0.988150 0.698465 -0.663268 0.256634 
-0.899262 2.230396 0.243524 0.943288 -0.072503 -0.291052 
0.700502 0.631437 0.022517 -0.315337 0.301054 -0.766944 
-0.905528 2.369250 0.128649 -0.801670 0.453360 0.267241 
-0.493532 -0.224951 -0.034100 0.290843 0.123651 -0.820559 
1.442281 2.557324 1.213744 0.753821 -0.502550 0.418078 
0.984156 1.911106 1.053022 -0.523063 0.627160 -0.536767 
-0.491165 2.742078 0.673933 -0.741715 0.429945 0.513717 
-0.331995 3.438721 0.254290 0.736447 -0.512938 -0.430979 
-0.418884 0.330847 0.427322 -0.594722 -0.220134 0.761931 
-0.694004 2.507475 0.564512 0.747647 -0.292828 -0.590477 
1.690246 2.947183 1.152246 -0.782828 0.463168 -0.406095 
-0.561909 0.987007 0.401078 0.975158 0.034750 -0.116301 
-0.277196 3.477755 0.299042 -0.749631 0.513003 0.415559 
-0.877638 0.797762 -0.269904 -0.844011 -0.257554 0.458838 
0.407671 1.568388 1.282081 0.344245 -0.462557 0.754848 
1.387325 2.059486 0.573184 -0.678505 0.667125 -0.263518 
0.239450 0.148318 0.498360 0.411110 -0.229684 0.853581 
-0.064271 -0.214448 -0.090555 -0.421601 -0.146475 -0.872004 
1.415926 2.488983 1.184877 -0.741169 0.514400 -0.419612 
0.552277 0.954190 0.563146 -0.909629 0.074325 -0.389250 
0.784611 1.247202 0.446457 -0.614135 0.560499 -0.541580 
1.262348 1.750626 0.278425 0.610054 -0.729505 0.162216 
-0.899441 1.262100 0.068507 -0.902290 -0.126085 0.387355 
1.277977 1.673443 0.073223 0.713107 -0.592111 0.270281 
