-0.572990 0.569039 0.674664 0.889120 -0.263644 0.322515 
-0.499122 0.586954 1.993769 0.847674 -0.423617 -0.260576 
-0.630220 0.570277 0.861446 0.967244 -0.201024 0.044908 
0.255909 -0.909648 0.057009 -0.232823 -0.249278 0.875860 
-0.123645 0.747842 -0.114089 -0.371904 0.345170 -0.820835 
-0.450374 0.791199 2.526246 -0.958508 0.265288 -0.037504 
-0.535119 0.507507 1.671269 0.876253 -0.440195 -0.163751 
0.615974 0.834866 1.849702 0.872259 0.279259 -0.339256 
-0.202506 -0.054242 -0.124425 -0.487876 -0.076829 -0.861428 
0.775677 0.115277 1.306476 0.934436 0.290823 -0.189637 
0.158071 0.832387 0.446147 0.363833 -0.145857 0.899832 
0.056092 1.286940 0.306165 0.288847 0.768288 0.554379 
0.151217 -0.367370 -0.141720 0.430435 -0.201930 -0.866677 
-0.158965 -0.148963 -0.149828 -0.504455 -0.078879 -0.850355 
-1.099799 -0.305623 1.198196 0.921864 -0.185365 0.328885 
0.958675 -0.462915 1.825948 -0.901943 -0.147834 0.154109 
0.909088 -0.296914 1.476118 -0.741654 -0.395284 -0.420913 
0.370063 -1.192649 0.058606 0.372536 -0.049247 0.701088 
0.719196 -0.410827 0.614733 -0.748551 -0.257159 0.486985 
1.044679 0.822664 2.643549 0.788758 0.354088 -0.500767 
-0.344140 -0.103796 0.294075 -0.517070 -0.235955 0.819615 
0.972765 0.051018 2.081086 -0.719935 -0.122181 0.661759 
0.825131 0.321175 1.863537 0.927575 0.320748 -0.144250 
-0.455905 -0.225566 0.142654 -0.828029 -0.015055 -0.532575 
-0.356223 -0.294790 0.023544 -0.811933 -0.061546 -0.575444 
-0.617801 0.284548 0.208314 -0.783806 0.143476 -0.573573 
1.031504 -0.577829 1.053210 -0.729654 -0.473900 0.318666 
-0.584798 0.732894 1.104604 0.818387 -0.523865 0.210878 
-0.508411 0.136311 0.099019 -0.778493 0.076520 -0.601942 
-0.999222 -0.548931 1.035723 -0.868700 0.075247 -0.413792 
0.940111 -0.542224 0.923393 -0.729396 -0.412781 0.371772 
-0.961513 -0.541540 0.964185 -0.854787 0.079324 -0.428226 
-1.108721 -0.203400 1.591795 0.403263 -0.499220 0.353526 
-0.530586 -0.089611 0.258013 0.317282 -0.305338 0.824499 
-0.920202 -0.355181 0.837867 0.828595 -0.188779 0.421359 
0.457147 -0.615873 0.151754 -0.337187 -0.184751 0.881928 
-0.225898 -0.961130 0.039066 0.373309 -0.292229 0.853200 
-0.642575 0.349564 0.623722 0.633831 -0.552716 0.502630 
0.028797 1.214333 0.087363 0.445904 0.291112 -0.832937 
-0.604941 0.128762 0.376448 0.462588 -0.386473 0.711609 
0.134279 0.918195 -0.026331 0.556340 0.436611 -0.679482 
-0.570362 0.694928 3.038460 0.904641 -0.125808 0.365190 
1.386603 0.665529 3.028429 0.767149 0.383260 -0.512299 
-0.090483 1.302055 0.179943 -0.683995 0.622273 -0.240375 
-0.372451 1.532274 1.503981 -0.863526 0.364063 -0.050484 
0.241704 1.073431 0.256199 0.890491 0.409878 -0.006296 
-0.445939 1.026994 1.521178 0.772990 -0.520340 -0.055606 
0.071263 0.167611 -0.191921 0.469110 0.020846 -0.877582 
-0.007335 1.258035 0.352853 -0.100185 0.757309 0.642678 
-0.624725 0.343977 0.541069 0.568898 -0.539346 0.578430 
0.111394 -0.071019 0.415171 0.197595 -0.305351 0.925444 
1.197873 0.568716 2.675651 0.778150 0.427577 -0.447448 
-0.640815 0.398986 0.677731 0.866503 -0.273444 0.289423 
-0.644285 0.509389 0.500934 -0.776497 0.564459 -0.186662 
-0.449546 0.922793 1.874381 -0.953572 0.152674 0.195591 
-0.401641 -1.047562 0.072132 0.281216 -0.144130 0.848543 
0.185295 0.414801 0.495965 0.363520 0.027311 0.927457 
1.159482 0.856203 2.837742 -0.754697 -0.458214 0.466609 
0.550261 1.124772 1.971479 -0.707329 -0.389549 0.577477 
0.594715 -0.631266 0.406234 -0.624780 -0.221784 0.640739 
-0.534445 -1.008109 0.177710 0.452004 -0.367291 0.755424 
-0.264873 0.565094 -0.102958 -0.483159 0.064572 -0.856815 
0.291930 -0.634090 -0.052110 0.555474 -0.096430 -0.815022 
0.587195 -0.077233 0.334567 0.854881 0.076236 -0.464501 
-0.521726 0.899855 1.333164 0.809108 -0.558210 0.131572 
-0.877417 0.156000 1.096099 -0.918295 0.314296 -0.079223 
0.508423 0.301882 0.335841 -0.518312 -0.406493 0.744168 
-0.190317 1.226887 0.449094 0.345939 0.855535 0.297554 
0.025686 -0.783593 0.115783 0.372322 -0.432157 0.818858 
0.278794 0.925177 0.138638 0.838244 0.364916 -0.303193 
-0.621123 0.285602 2.547654 0.911904 -0.302479 0.257969 
0.830930 -0.715314 0.743896 -0.635017 -0.377277 0.497785 
0.923076 -0.310244 0.924711 -0.827660 -0.362189 0.316279 
-0.130945 0.273204 -0.157120 -0.442346 0.015393 -0.893542 
-0.441471 0.918945 2.063147 0.922473 -0.336723 0.160217 
-1.067448 -0.161260 1.537956 -0.365584 0.422844 -0.578918 
-0.212109 0.885423 0.420141 -0.594333 -0.015713 0.779930 
-0.359389 -0.389575 0.183680 -0.340640 -0.259367 0.846422 
-0.400950 1.125953 1.666254 0.861508 -0.430692 -0.047568 
-0.078407 -0.249903 0.337678 -0.079197 -0.345168 0.930996 
-0.693647 0.335002 0.696137 0.669012 -0.567922 0.445972 
-0.448322 0.615547 0.526546 0.899522 -0.209206 0.364733 
0.663892 0.903707 2.033053 -0.757062 -0.277801 0.578171 
-0.347690 0.759494 0.231004 -0.938290 0.259459 0.117628 
-0.964383 -0.360086 0.919699 0.851248 -0.177399 0.400653 
0.424642 -0.818336 0.109547 -0.383183 -0.175442 0.885565 
-0.709778 0.279038 2.867098 -0.886177 0.391960 -0.225250 
0.371965 0.542745 -0.020718 0.601192 0.118181 -0.701797 
-0.802246 0.252935 1.218186 -0.905816 0.364219 0.020107 
1.401557 0.475585 2.906683 -0.756437 -0.408850 0.510426 
-0.073508 0.804381 -0.109665 -0.446995 0.329423 -0.812404 
0.890710 -0.145555 1.064194 -0.851862 -0.347580 0.082771 
0.719035 0.169930 0.812588 -0.823669 -0.496585 0.248965 
1.237308 0.856713 2.953753 -0.756800 -0.441391 0.478544 
0.837576 -0.439750 1.542225 0.902723 0.087324 0.303420 
0.872510 0.425066 2.025341 0.883599 0.310604 -0.320443 
0.675670 0.721342 1.873886 0.861118 0.368323 -0.301903 
0.680729 0.420121 1.614425 0.856685 0.229820 -0.352270 
-0.139932 -0.862582 -0.053728 -0.114246 0.048371 -0.963049 
1.184853 0.517384 2.618704 -0.736969 -0.322151 0.582814 
0.757537 -0.399650 0.672151 -0.760052 -0.278257 0.457128 
-0.766289 0.062108 2.681519 0.862552 -0.428968 0.174543 
0.604027 -0.546950 0.416038 -0.597055 -0.224522 0.646509 
0.087619 -0.570771 0.216479 0.144621 -0.332977 0.923254 
0.135644 -0.640681 -0.041143 0.019854 -0.152762 -0.986212 
-0.836110 0.138924 1.648981 -0.688765 0.488410 -0.373393 
0.931599 -0.691910 0.893980 -0.662621 -0.433706 0.421117 
0.048384 -0.152828 -0.190095 0.387005 -0.136187 -0.891013 
0.921100 -0.135113 0.903149 0.917103 0.274760 -0.262588 
-0.247425 -0.884982 0.060995 0.222478 -0.279752 0.861133 
-0.920433 0.010473 1.312150 -0.905053 0.350352 -0.099035 
-0.626362 0.351352 2.689074 0.907685 -0.343444 0.214992 
1.049679 -0.336585 1.212186 -0.801743 -0.462370 0.030848 
0.337543 1.308012 1.649154 0.635412 0.679020 -0.211553 
-0.995526 -0.069630 1.074192 0.910904 -0.280504 0.262140 
0.452435 -0.790083 0.189569 0.638069 0.048898 -0.704128 
0.590522 0.291568 0.674498 -0.719205 -0.526736 0.389609 
0.816883 0.066197 1.012731 0.932461 0.270092 -0.185940 
0.219432 -0.295338 -0.120222 0.519916 -0.129354 -0.839502 
-0.359592 1.464316 1.486324 0.515774 -0.063794 -0.767364 
-0.466154 0.703257 2.018486 0.966633 -0.206374 0.090315 
0.037795 -0.957653 -0.013520 0.286518 -0.487314 0.799639 
-0.075368 -0.270866 -0.174175 -0.381578 -0.186614 -0.887356 
-0.443305 1.179063 1.645343 -0.957940 0.186393 0.191612 
1.080981 0.995607 2.819296 0.792188 0.284200 -0.537463 
-0.777392 0.426948 1.000577 -0.939251 0.243361 0.054444 
0.822061 -0.862201 0.588405 -0.550190 -0.569461 0.502382 
0.716884 0.221711 1.458577 0.936380 0.306132 -0.142583 
0.758275 0.304339 1.704202 0.819965 0.185370 -0.481348 
-0.456845 -0.470893 0.133778 0.197565 -0.181873 0.931058 
1.274162 0.414094 2.661802 0.762387 0.426223 -0.464940 
-0.433146 0.976445 2.021800 0.915799 -0.353506 0.172401 
-0.519699 0.927909 1.575870 -0.880977 0.200641 0.316855 
-0.826589 0.124108 1.746616 0.758382 -0.615329 0.092728 
0.813392 -0.390551 1.481211 0.892999 0.117993 0.380930 
-0.078401 -0.965948 -0.089133 -0.255747 0.227571 -0.919854 
-0.592838 0.262100 0.373400 0.476647 -0.447154 0.710198 
0.522188 0.570864 0.840727 -0.947440 -0.250340 -0.045365 
1.044001 -0.003194 2.204492 0.831259 0.171227 -0.488802 
0.592410 0.782007 1.737321 0.905891 0.296186 -0.153252 
-0.897446 -0.143711 2.579654 -0.777738 0.608048 0.067625 
0.633909 -0.008452 0.492886 -0.596763 -0.317266 0.618137 
-1.220176 -0.287610 1.887272 0.735407 -0.667728 0.028859 
-0.223007 1.119561 0.560746 -0.235086 -0.561643 0.756979 
-0.646130 0.522387 1.446315 0.839810 -0.529660 -0.006198 
-0.279796 0.452567 0.401508 -0.278760 0.016980 0.956606 
-0.515340 -0.810284 0.226428 0.526187 -0.178114 0.769528 
0.453683 1.220441 1.869854 -0.703741 -0.398679 0.571960 
0.911142 0.678615 2.318610 -0.766338 -0.249798 0.584037 
-0.566757 0.684614 1.624128 -0.908459 0.286456 0.122145 
-0.839079 -0.258159 0.638495 -0.843502 0.156372 -0.400998 
-0.773315 0.301624 1.135775 0.868544 -0.428963 0.135423 
0.464976 0.615180 0.570490 0.733696 0.647860 -0.022541 
-0.745793 -0.183932 0.525770 -0.877628 0.101311 -0.393000 
0.668787 -0.312062 0.514780 -0.598568 -0.242612 0.595648 
-0.071117 0.566639 -0.157329 -0.354600 0.072527 -0.924791 
-0.448364 0.559605 0.119668 -0.671010 0.392871 -0.418367 
0.441841 -0.453842 0.109498 -0.216550 -0.181066 0.950265 
-0.844336 0.052192 2.312131 -0.725288 0.632923 0.176347 
-0.465845 0.710376 2.524082 0.937612 -0.328948 0.065958 
0.752384 1.011628 2.255003 0.850363 0.319653 -0.407563 
0.662010 -0.553589 0.507689 0.740439 0.158969 -0.523889 
-0.693388 0.269930 2.789667 0.891015 -0.367656 0.246365 
0.789254 1.121804 2.448110 -0.804957 -0.407440 0.430077 
-0.837025 0.179740 0.776270 0.791646 -0.430130 0.358600 
0.624358 0.152183 0.316918 0.832877 0.113784 -0.500793 
0.486975 0.599239 0.640600 0.776869 0.591368 -0.101193 
0.238603 1.243984 1.507950 -0.868257 -0.243342 0.263970 
-0.571884 0.247796 2.297933 0.787286 -0.520391 -0.168088 
0.966724 -0.008029 2.026806 0.890319 0.209966 -0.334118 
-0.190497 0.471209 -0.117323 -0.424819 0.013892 -0.899570 
0.289596 -1.274788 0.007561 0.741144 0.143917 0.596534 
-0.052471 1.149801 0.054799 -0.407620 0.396707 -0.810264 
0.009517 -0.094990 -0.207204 0.363858 -0.124074 -0.901459 
0.155815 -1.089512 -0.093642 0.429462 0.171469 -0.852591 
1.212415 0.827365 2.894357 -0.755761 -0.446998 0.475238 
-0.723306 0.272467 0.473061 -0.842834 0.227121 -0.416568 
0.429007 0.418613 0.446254 -0.799863 -0.253357 0.492059 
-0.708501 0.403025 0.820646 0.743561 -0.565430 0.349785 
-0.177083 0.239629 0.495477 -0.364330 -0.101381 0.912809 
-0.162010 -0.284102 0.315463 -0.196520 -0.330272 0.914807 
1.423089 0.758761 3.154950 -0.760573 -0.402001 0.508772 
-0.416002 0.169667 0.336280 -0.234591 -0.260295 0.826959 
1.032338 1.004635 2.754858 0.794851 0.283923 -0.534069 
-0.519961 -0.018601 0.166082 -0.809406 0.048317 -0.550937 
-0.463470 0.611384 0.164993 -0.702334 0.524195 -0.303761 
0.645548 0.348603 1.011928 -0.820397 -0.460889 0.301055 
-0.574991 0.755959 1.174075 0.817690 -0.531564 0.180846 
-0.723248 0.081155 2.555366 0.874596 -0.395447 0.175271 
-0.587952 0.699323 1.388566 0.825346 -0.542675 0.060752 
-0.037096 -0.959686 -0.015009 -0.293271 -0.487644 0.799135 
0.588272 0.460262 0.592491 0.633174 0.720199 -0.170799 
0.908079 -0.341432 1.761705 -0.908851 -0.168420 0.024279 
-0.382702 0.203721 -0.026307 -0.545132 -0.018808 -0.810839 
0.072077 1.332919 0.167678 0.652898 0.653084 -0.330223 
-0.635679 0.664775 1.319314 -0.912205 0.246210 0.202290 
-0.807158 0.065843 2.840258 -0.851148 0.470866 -0.159238 
-0.933004 0.018361 1.633059 -0.592504 0.479140 -0.426415 
-0.218365 -1.042294 -0.015067 0.461971 -0.306116 0.823841 
-0.415625 0.056694 -0.013424 -0.670413 0.011863 -0.716762 
-0.778368 -0.040913 2.547893 0.847525 -0.515761 0.019959 
0.786622 0.320628 1.779375 0.772676 0.126154 -0.618857 
-0.212907 0.959193 0.427278 -0.637879 -0.093921 0.726902 
-0.927316 -0.513323 0.891561 -0.844981 0.088314 -0.435171 
-0.188749 1.170285 0.212955 -0.829956 0.519215 -0.159458 
0.556294 -0.915434 0.318610 0.589269 0.178005 -0.672308 
0.905160 -0.196530 1.304109 -0.776887 -0.409953 -0.183617 
0.961141 0.134575 2.068762 0.876808 0.220721 -0.338916 
0.828516 -0.151594 1.646299 0.853092 0.094136 -0.073590 
0.589273 0.109181 0.438216 -0.571133 -0.351232 0.661759 
0.292784 0.001946 -0.072756 0.478820 -0.107440 -0.867642 
0.034632 0.444612 -0.180149 0.389481 0.062235 -0.916401 
-0.217792 -0.319776 -0.119682 -0.518149 -0.142307 -0.837383 
0.349747 0.510249 0.330867 0.246619 0.088790 0.903834 
0.071775 0.785736 -0.112139 0.435698 0.312338 -0.823494 
0.596383 0.318945 0.364272 0.851463 0.180858 -0.374034 
0.318300 0.453006 0.360240 0.219772 -0.037603 0.972085 
-0.901869 0.092882 0.694425 -0.903736 0.204955 -0.326078 
0.130058 -1.147985 -0.132343 0.552152 0.210062 -0.795625 
-0.993790 -0.011890 0.834581 -0.938319 0.205630 -0.262043 
-0.563217 -0.535611 0.285170 0.444238 -0.191396 0.764079 
-0.970605 -0.075574 0.812968 -0.919252 0.193411 -0.291131 
-0.677950 0.259372 2.712213 0.896040 -0.346198 0.257604 
-0.452718 0.879664 1.930034 -0.956562 0.164308 0.174179 
-0.843587 -0.066940 2.511381 0.739837 -0.630413 -0.141199 
0.340671 -0.593394 0.018313 0.734166 -0.053394 -0.643752 
0.564362 0.493307 0.935869 -0.771730 -0.560659 0.296270 
0.187987 0.942537 0.014724 0.623017 0.439460 -0.631116 
-0.802131 0.315477 0.956028 0.875494 -0.380805 0.250041 
-0.480573 -1.046345 0.102307 -0.507572 0.284954 -0.736263 
1.334998 0.719096 2.993783 -0.757702 -0.421346 0.495947 
0.669694 1.073755 2.163359 -0.740046 -0.388214 0.535511 
-0.295769 0.221325 0.418104 -0.462808 -0.108371 0.871333 
0.340846 -0.826359 0.108359 -0.071450 -0.211684 0.892842 
-0.078907 -0.171604 -0.177917 -0.413469 -0.130989 -0.880998 
-0.470496 -0.642088 0.158246 0.332689 -0.178272 0.872255 
0.338405 0.745224 0.309222 0.833250 0.274761 0.422677 
0.584637 0.035531 0.418414 -0.541505 -0.328363 0.680603 
0.493720 0.807699 1.607788 -0.782620 -0.535801 0.213122 
-0.580175 0.669830 0.771330 -0.722665 0.505283 -0.465440 
0.363590 -0.652273 0.053461 0.705998 -0.029841 -0.664618 
-0.311052 -1.134412 0.004197 -0.549861 0.058945 -0.791201 
-0.028874 -0.075356 0.420214 -0.078486 -0.327765 0.938830 
0.243821 -0.155346 0.343553 0.432795 -0.275142 0.849204 
0.363334 -0.368778 0.190217 0.326822 -0.248487 0.844162 
0.095273 0.958396 0.486695 0.199149 -0.136803 0.963708 
0.535331 -0.560325 0.315988 0.738192 0.072571 -0.577027 
0.811518 1.184584 2.518808 0.745133 0.562582 -0.346072 
0.240124 1.061334 0.165153 0.847858 0.426264 -0.265372 
-0.228872 0.716683 -0.097318 -0.490904 0.328428 -0.771104 
-0.033021 -0.350336 -0.185610 -0.314308 -0.250805 -0.907002 
-0.983192 -0.007651 1.031299 -0.930263 0.259831 -0.201428 
-0.294382 0.906042 0.290398 -0.904013 0.239609 0.260193 
-0.514548 0.293109 0.323830 0.268538 -0.431452 0.773478 
-0.698841 0.579830 0.846244 -0.664352 0.632063 -0.281254 
-0.205292 -0.593691 0.183215 -0.276459 -0.329217 0.900934 
-0.663879 -0.166952 0.419215 -0.876910 0.064250 -0.418887 
-0.005903 0.052460 0.481190 -0.097681 -0.312127 0.944877 
0.443068 0.299204 0.013283 0.669867 0.010572 -0.711184 
0.929351 0.276983 2.105088 -0.754609 -0.190306 0.595892 
-0.792972 -0.900186 0.527886 -0.594543 0.476097 -0.540881 
0.862053 -0.059166 1.786332 -0.926342 -0.254491 0.011514 
0.620569 0.325945 0.443681 0.869380 0.218232 -0.304653 
-0.688418 0.402153 1.390210 0.848166 -0.513383 -0.003697 
-1.014485 -0.113700 1.144790 0.907168 -0.279982 0.273212 
0.814794 0.830910 2.260789 -0.782754 -0.286201 0.542448 
-0.657038 0.485992 0.585946 -0.548385 0.763462 -0.286607 
-0.085296 -0.902900 0.024173 -0.002151 -0.479199 0.837950 
0.074861 0.909523 -0.063683 0.481940 0.427380 -0.739783 
0.808428 0.072677 1.099334 0.932952 0.275753 -0.191859 
-1.099189 -0.216976 1.464084 0.203503 -0.407246 0.592397 
-0.459229 1.028703 1.628379 -0.923296 0.010295 0.207214 
-0.530032 0.917597 1.075967 0.834850 0.028209 -0.310208 
-0.453164 1.224054 1.474277 -0.931093 -0.050792 0.321230 
0.430830 0.731637 1.072969 -0.883910 -0.432873 0.092638 
0.349819 -0.315915 0.015138 0.822580 -0.076541 -0.556801 
0.465420 0.169942 0.294256 -0.289530 -0.334319 0.800105 
-0.634410 0.714368 1.150200 -0.932742 0.217558 0.222283 
0.691901 -0.992467 0.312811 -0.460151 -0.609834 0.605880 
-0.547620 0.821840 1.532069 -0.928552 0.154296 0.124206 
0.106091 -0.226620 0.350156 0.127035 -0.335460 0.932864 
-0.669124 0.118823 2.427553 0.888759 -0.381059 0.143818 
0.511655 0.346277 0.518438 -0.708376 -0.400919 0.501174 
0.310565 -0.360046 -0.031701 0.707150 -0.114176 -0.664923 
0.165546 0.177095 -0.139384 0.463177 -0.019127 -0.880492 
-0.647393 0.382946 0.385456 -0.818933 0.266276 -0.415875 
0.763030 0.185697 0.990636 0.933714 0.275489 -0.111204 
-0.730144 0.133416 0.540984 0.626192 -0.364252 0.564055 
-0.196386 0.602782 0.460249 -0.460146 0.074780 0.859523 
0.158825 1.050937 0.342967 0.521011 0.743742 0.286743 
1.117930 -0.379244 1.225434 0.830632 0.469361 -0.118257 
0.141469 0.109378 0.482975 0.305753 -0.245027 0.915579 
-0.556949 0.731370 0.981298 0.942548 -0.318471 -0.024207 
0.259411 0.810570 -0.035705 0.584903 0.507751 -0.627607 
-0.906807 -0.759372 0.817966 0.707063 -0.285003 0.504628 
-0.314544 -1.430120 0.003077 0.058091 -0.715452 0.406596 
1.465568 0.777012 3.231997 -0.761946 -0.392679 0.514972 
-0.035374 0.585363 0.495305 -0.006246 0.382429 0.918006 
-0.606280 0.416074 1.821253 0.830561 -0.468481 0.100459 
-0.612180 0.538968 1.517743 0.803999 -0.489925 -0.181771 
0.786449 0.108402 1.664362 0.863592 0.180999 -0.284595 
0.880375 -0.342857 1.693669 -0.908200 -0.153052 -0.088482 
0.964274 0.178508 2.125138 -0.727899 -0.150874 0.646971 
0.766212 0.112678 0.989373 -0.872500 -0.371655 0.285271 
0.871721 -0.347053 0.824138 0.835149 0.275529 -0.341762 
-0.049657 1.252615 0.117349 -0.569845 0.324309 -0.749177 
-0.412338 1.256123 1.689240 -0.942388 0.072960 0.295147 
-1.012292 -0.096373 1.533155 -0.386849 0.415462 -0.590370 
-0.453672 0.758605 2.599450 0.929931 -0.348774 0.045738 
-0.870588 0.105908 1.148649 0.895173 -0.371457 0.113325 
-0.539271 0.212357 0.118041 -0.773740 0.102172 -0.604102 
0.186055 0.577414 -0.121646 0.406858 0.055646 -0.893803 
-0.087918 0.157364 -0.183108 -0.465010 0.011295 -0.879238 
-0.773024 -0.636104 0.653966 -0.768061 0.067351 -0.537944 
0.938910 -0.784309 0.781033 -0.606297 -0.608815 0.403121 
0.870107 -0.164058 0.863688 -0.882285 -0.304925 0.310626 
-0.486072 0.659849 2.465959 0.931806 -0.334148 0.131539 
0.991015 0.905931 2.631090 -0.779216 -0.402466 0.476788 
0.204652 1.051267 0.498394 0.293631 -0.536678 0.724044 
-0.775286 0.272354 1.289866 -0.897279 0.396976 0.055571 
0.394779 0.808875 1.136302 -0.906289 -0.404994 0.057265 
0.574209 0.278080 0.498521 -0.622928 -0.448776 0.570596 
0.731079 0.378039 1.687360 0.805751 0.192946 -0.499164 
-0.534521 -0.434976 0.241757 0.324862 -0.191290 0.828208 
0.048703 0.587564 0.494796 0.018188 0.378869 0.919202 
-0.352811 -0.024352 0.313219 -0.515165 -0.218104 0.826497 
-1.109319 -0.181930 1.706929 0.586038 -0.583173 0.127357 
0.996457 0.092212 2.132799 0.855403 0.200484 -0.404403 
-0.694670 0.287551 0.589992 0.629071 -0.497521 0.521388 
0.394877 1.060684 1.293755 0.758624 0.548527 -0.206382 
-0.123191 0.586771 0.496542 -0.319906 0.108150 0.935030 
-0.689780 0.404352 1.317303 0.846872 -0.507918 0.033473 
-0.923051 0.145714 0.829215 -0.930490 0.265876 -0.224839 
-0.559352 -0.840178 0.337192 -0.657090 0.029946 -0.689993 
1.006455 -0.293144 1.169927 -0.807654 -0.431832 0.016745 
0.453590 0.853536 1.437122 0.971947 0.174111 0.004616 
-0.458178 0.789682 2.684916 -0.951136 0.245169 -0.133911 
1.219741 0.738028 2.837318 -0.756029 -0.442184 0.479539 
-0.567856 0.539385 0.523557 -0.545014 0.786798 -0.179883 
0.724831 0.257392 0.789538 0.942377 0.317962 -0.097473 
0.450041 1.132296 1.787743 -0.687457 -0.364553 0.617500 
-0.147000 -0.413231 -0.128724 -0.366025 -0.258586 -0.873726 
0.707312 -0.001325 0.512202 0.872676 0.149829 -0.410081 
-0.289317 -0.360398 -0.062451 -0.624126 -0.131069 -0.747969 
-0.726668 0.505851 1.058441 -0.934401 0.263993 0.121613 
-0.143476 -0.018773 -0.156145 -0.487864 -0.045435 -0.862698 
-0.559392 0.087949 0.312829 0.394332 -0.377442 0.769874 
-0.805052 0.183945 2.030596 -0.705705 0.650578 0.271708 
0.875861 -0.843553 0.652920 0.586501 0.606793 -0.444574 
0.364297 1.072383 1.392767 0.983650 0.128687 0.063447 
-0.605800 0.610702 1.478718 0.820620 -0.523917 -0.055484 
-0.635795 0.174239 2.350492 -0.873634 0.481142 0.006096 
-0.728245 0.370994 0.590802 -0.865088 0.322914 -0.303227 
0.214200 1.129883 0.176020 0.842228 0.474297 -0.244731 
-0.075214 0.319726 0.533266 -0.221011 -0.028606 0.960968 
-0.606417 0.582192 0.741556 0.884197 -0.288399 0.284281 
0.990880 1.109292 2.785265 -0.779581 -0.095179 0.598382 
0.520936 0.701190 1.252836 0.954070 0.243350 0.060455 
-0.699144 0.356132 0.514886 -0.847429 0.287599 -0.364560 
0.461537 0.740293 1.322778 -0.755931 -0.540392 0.323011 
-0.692760 0.427307 1.220073 0.846635 -0.492655 0.093265 
-0.234557 0.215081 0.454501 -0.408141 -0.122022 0.891885 
-0.062298 -0.640847 0.202537 -0.281445 -0.383098 0.871576 
0.590329 0.193661 0.453865 -0.599146 -0.377254 0.646181 
-0.292415 0.090254 -0.072095 -0.456128 -0.086843 -0.880832 
0.611206 1.188914 2.109496 0.873162 0.323232 -0.324143 
0.109066 0.229704 -0.169531 0.459396 0.015478 -0.883952 
-0.335334 -1.029754 0.053243 0.295435 -0.139507 0.915648 
-0.475695 0.357747 0.331374 0.168934 -0.325321 0.825223 
-0.717399 0.442568 0.610194 -0.862081 0.433024 -0.196662 
0.610151 1.239801 2.170349 0.691376 0.610769 -0.300630 
0.906600 1.140285 2.661580 -0.797671 -0.094213 0.571364 
0.513200 0.728680 1.102855 0.949010 0.262892 0.132808 
0.992250 -0.224825 1.046322 0.874306 0.352177 -0.160141 
-0.699405 0.497722 3.119741 -0.886155 0.338935 -0.298511 
0.328342 -0.672677 0.131972 0.113763 -0.236423 0.898377 
0.551367 0.274692 0.412684 -0.573465 -0.408391 0.673049 
-0.966340 -0.292051 0.883145 -0.889287 0.140411 -0.354840 
0.015827 0.822609 0.470554 0.126877 -0.247595 0.955357 
-0.051418 1.046145 0.490201 0.022415 0.098325 0.955158 
0.937577 1.073587 2.645107 0.807095 0.299118 -0.504155 
0.320457 0.862349 0.196630 0.912827 0.352054 -0.058188 
0.468844 0.033593 0.094098 0.812552 0.017046 -0.566009 
-0.073772 0.684460 -0.148538 -0.322230 0.169086 -0.915448 
-0.714269 0.207412 2.748527 -0.871604 0.434733 -0.146702 
0.344424 1.223297 1.653071 -0.658876 -0.390175 0.638896 
1.285980 0.142118 2.482694 0.707263 0.229375 -0.658047 
-0.694514 -0.478969 0.454224 -0.757795 0.110475 -0.527423 
0.197293 0.700624 -0.116568 0.436620 0.231941 -0.850129 
-0.543733 0.513167 2.677129 -0.927714 0.331879 -0.154453 
0.271068 0.562924 -0.101546 0.486683 0.059368 -0.854883 
-0.054891 1.011615 -0.007657 -0.387246 0.475331 -0.768981 
1.153453 1.018412 2.951174 -0.769056 -0.118010 0.591644 
0.622237 0.251519 0.619191 -0.697598 -0.479575 0.440400 
-0.861884 0.104026 1.309844 -0.898290 0.383663 -0.041542 
0.209345 -1.079117 -0.031311 0.147941 0.054565 -0.930126 
-0.752844 0.477437 0.809893 -0.913554 0.347944 -0.077852 
-0.266388 0.022188 0.383091 -0.425303 -0.240430 0.863543 
0.019331 1.401257 0.144310 0.498563 0.647726 -0.491783 
0.075200 1.238366 0.363874 0.105597 0.828730 0.544549 
-0.381843 1.207170 2.014896 -0.731248 0.593157 0.237916 
-0.930269 0.023542 2.178103 0.650427 -0.684063 -0.115101 
0.374073 0.615251 -0.010698 0.629396 0.235079 -0.650996 
-0.185553 0.048287 0.443026 -0.343514 -0.264547 0.895998 
-1.076455 -0.155765 1.645785 0.499905 -0.542804 0.203426 
0.523497 0.606626 0.251909 0.848940 0.499191 -0.152240 
0.404796 0.860255 1.230001 -0.714471 -0.593043 0.358536 
0.527102 0.745628 1.622551 -0.802198 -0.517855 0.188967 
0.726445 0.261932 1.645565 -0.920293 -0.360045 0.123139 
-0.834232 0.165767 1.175841 0.885727 -0.398408 0.098226 
0.585267 0.405508 0.357319 0.859516 0.283701 -0.287031 
1.059450 -0.185086 2.170081 0.842113 0.153402 -0.499713 
0.576376 -0.719503 0.376222 0.671967 0.125466 -0.616386 
0.709983 0.325966 0.774442 0.939211 0.334588 -0.057192 
-0.171651 0.546458 -0.127839 -0.410551 0.040579 -0.899546 
0.329805 -0.084976 -0.055604 0.569052 -0.094962 -0.796638 
-0.480862 0.690407 2.784832 0.901256 -0.409614 0.128681 
0.152746 1.232443 0.273894 0.659186 0.708294 0.015936 
0.502103 0.661669 1.507234 -0.795494 -0.481818 0.288247 
-0.384093 -0.317223 0.183362 -0.219673 -0.222744 0.887180 
-0.583097 0.332896 2.492622 0.921317 -0.289339 0.239476 
-0.003505 -0.528051 -0.085286 -0.552000 -0.324301 -0.711940 
-0.809693 0.336271 1.037202 -0.931643 0.269345 0.011246 
-0.582806 0.520033 0.591413 -0.496802 0.820151 -0.185643 
-1.017141 -0.147404 1.327505 -0.915491 0.297565 -0.192338 
-1.044859 -0.101554 2.138380 -0.681169 0.692706 0.169864 
1.178503 0.413126 2.516645 0.769249 0.449375 -0.422466 
-0.529516 0.420815 2.294961 -0.918739 0.369297 0.051383 
-0.231131 0.486971 0.437437 -0.308619 0.042567 0.946142 
-0.071865 0.751735 0.441807 -0.092362 -0.028309 0.982239 
0.789667 0.046330 1.395875 -0.878064 -0.354997 0.087907 
-0.510621 0.708248 1.772156 -0.901196 0.269969 0.222740 
0.675556 1.009974 2.102974 0.867467 0.327464 -0.344201 
-0.770881 -0.432058 0.586921 0.735141 -0.205959 0.520402 
-0.156672 0.855892 -0.061684 -0.524728 0.437669 -0.716897 
-0.727353 0.348687 1.343228 -0.892982 0.414374 0.118659 
0.243987 -0.682144 0.136942 0.163011 -0.297482 0.884674 
-1.095904 -0.453708 1.178019 -0.919289 0.092881 -0.344169 
0.727760 0.863310 2.112421 0.852402 0.376964 -0.344256 
0.401758 -0.300394 0.097696 0.841566 -0.044985 -0.521176 
-0.663330 -0.422225 0.422264 0.565688 -0.205521 0.646914 
0.721260 -0.910043 0.449381 -0.514041 -0.498053 0.591154 
0.439261 0.228572 0.009406 0.688033 0.004351 -0.697624 
-0.865621 0.039805 0.638488 -0.897602 0.172083 -0.350961 
0.273466 0.334913 -0.072078 0.430979 -0.041785 -0.899148 
1.155405 -0.596578 1.198819 0.754015 0.582104 -0.211780 
0.671718 0.389671 0.635268 0.918922 0.374977 -0.085594 
-0.937010 0.023229 1.177469 -0.915547 0.314738 -0.134785 
0.047951 -0.802837 -0.059800 0.201527 0.067304 -0.942251 
0.892104 -0.716103 0.833399 -0.645242 -0.414179 0.455551 
-0.884070 0.072218 1.209893 0.891691 -0.372877 0.119648 
0.712287 0.272347 1.160132 0.935516 0.290744 -0.078084 
0.592017 0.586354 0.920075 0.863018 0.434424 -0.120178 
-0.236363 0.691792 0.424521 -0.459538 0.237797 0.819346 
0.589745 0.441090 0.665692 0.584788 0.774144 -0.151863 
0.476310 0.814866 1.156937 0.956855 0.232494 0.123789 
-0.512678 0.668134 2.867986 0.885086 -0.437021 0.150892 
0.505265 0.797990 1.065401 0.808781 0.529109 -0.221854 
-0.436950 -0.139757 0.087652 -0.807324 -0.003492 -0.568692 
-0.420340 0.557925 0.461911 0.858838 -0.242890 0.408695 
0.523244 0.725538 1.532413 0.933236 0.181778 -0.133860 
-0.555978 0.777618 1.464691 0.816048 -0.550476 0.021250 
1.388250 0.038032 2.540596 -0.706541 -0.298509 0.637551 
0.368188 -0.908018 0.092115 -0.236343 -0.192046 0.888951 
-0.515852 0.493440 2.475282 -0.927749 0.347703 -0.048451 
0.643953 -0.634989 0.479157 -0.637754 -0.250934 0.604261 
0.411051 0.832080 0.971871 -0.880245 -0.292910 -0.058244 
0.360085 -0.007046 -0.037858 0.605258 -0.067896 -0.766738 
0.179972 -0.666620 0.162639 0.166795 -0.353247 0.893864 
-0.540364 0.572313 0.413447 -0.621203 0.734990 -0.166191 
-0.505324 0.491452 2.186179 0.970628 -0.184697 0.108657 
0.427671 0.907095 1.562492 -0.745555 -0.561874 0.275374 
-1.171532 -0.526679 1.342756 0.931499 -0.091343 0.348215 
0.483327 -0.671461 0.204762 -0.421032 -0.191656 0.822397 
-0.860997 0.122187 1.951451 -0.702292 0.654780 0.268070 
0.591733 0.537634 1.126975 0.938374 0.303697 0.086022 
0.646032 0.423530 0.578343 0.874081 0.433503 -0.114796 
0.145779 0.334229 -0.140239 0.432580 0.011894 -0.897861 
-0.672134 -0.353427 0.432499 0.539000 -0.208505 0.650109 
-0.455703 0.871327 1.810061 0.813419 -0.510486 -0.142431 
0.096137 0.536840 0.504284 0.259193 0.103826 0.944179 
-0.418108 0.044026 0.286683 -0.168665 -0.240680 0.859336 
0.429848 0.236595 0.339856 -0.029288 -0.299360 0.790283 
-0.661378 0.343274 1.857268 0.775943 -0.507755 0.146888 
0.676320 0.618063 1.749934 0.897454 0.419151 -0.061959 
0.300360 0.893620 0.265217 0.906842 0.252909 0.181619 
-0.611166 0.649846 1.164241 0.825678 -0.520292 0.163078 
-0.571085 0.269481 0.144605 -0.772632 0.124232 -0.600318 
0.736181 0.170858 1.608787 -0.925408 -0.324561 0.116692 
0.154576 -0.277843 0.321329 0.179340 -0.330933 0.921407 
-0.830458 0.123152 1.499915 0.640791 -0.497164 0.053699 
0.631667 0.271629 0.782417 -0.769670 -0.571153 0.284149 
-0.141749 1.119475 0.367091 -0.871774 0.088865 0.079351 
-0.334283 -0.545080 0.010008 -0.732360 -0.065087 -0.652710 
0.907982 0.807243 2.414568 -0.792985 -0.308134 0.518470 
0.634242 0.472311 1.619020 -0.870318 -0.430404 0.157197 
-0.880140 0.108894 0.778407 0.823249 -0.356028 0.355333 
-0.235176 -1.118662 0.007316 0.632106 -0.310834 0.588003 
0.745057 -0.053840 0.669738 -0.738323 -0.308781 0.468252 
-0.815184 -0.485336 0.676672 -0.804394 0.101916 -0.476377 
-0.375808 0.567975 0.307616 -0.167621 0.250538 0.720542 
-0.397873 0.985603 2.507882 -0.894256 0.426870 0.108473 
0.951993 0.604203 2.329606 -0.741645 -0.240487 0.620902 
0.443353 0.774565 0.938232 0.684456 0.587387 -0.346758 
0.513116 0.557321 0.195201 0.828306 0.396824 -0.267213 
-0.472991 0.450118 0.483066 0.803213 -0.317715 0.430941 
-0.451734 0.808677 2.237624 -0.977108 0.176903 0.056179 
-0.569642 0.440863 2.060792 0.779664 -0.555692 -0.274547 
0.553960 -0.632749 0.331369 -0.542920 -0.210796 0.710628 
0.067130 0.294599 -0.189083 0.449285 0.043681 -0.890122 
-0.292657 0.309916 -0.067514 -0.420956 -0.045116 -0.904454 
1.316147 0.845518 3.062331 -0.758782 -0.424440 0.490840 
-0.850496 -0.049899 2.791947 0.832675 -0.515423 0.108629 
1.157912 0.742716 2.752491 -0.767789 -0.411557 0.488040 
-0.148772 1.112959 0.505148 0.291702 0.087015 0.885196 
-0.529193 0.424647 2.382633 0.941869 -0.256052 0.184072 
-0.721854 0.071850 2.422185 -0.840895 0.523726 0.028352 
-0.080955 -0.397603 -0.158151 -0.319709 -0.271609 -0.895199 
0.809065 0.638338 2.103028 -0.833978 -0.383679 0.384868 
0.723469 -0.328967 0.616870 -0.718846 -0.257302 0.496986 
0.022007 0.272780 0.530259 0.127047 -0.087330 0.978217 
0.388850 -0.117568 0.239444 0.201684 -0.177190 0.891606 
0.669104 0.650796 1.841426 -0.784154 -0.305373 0.518287 
-1.015399 -0.236090 0.952597 -0.915956 0.151239 -0.317329 
0.218494 0.109353 -0.111540 0.469039 -0.054936 -0.875603 
-0.337611 0.018553 -0.052254 -0.530293 -0.070683 -0.825257 
-0.480962 -0.715367 0.175210 0.399459 -0.177228 0.840474 
-0.398247 -0.869189 0.083532 0.315035 -0.171609 0.904255 
0.307698 -1.175255 0.015322 0.527214 -0.066357 -0.832853 
0.268852 0.417981 0.415896 0.277866 -0.018542 0.954215 
0.645267 0.337977 1.380389 -0.869344 -0.412523 0.228285 
-0.735361 0.502087 0.873670 -0.925445 0.294421 -0.018812 
-0.861849 -0.194045 0.667599 -0.868558 0.160864 -0.369208 
-0.255652 0.935554 0.376376 -0.798474 0.026489 0.557883 
0.794769 0.608830 2.013103 0.850999 0.356641 -0.377064 
0.524462 0.779700 1.688109 -0.738166 -0.313096 0.564575 
0.296804 -0.763150 -0.034817 0.450803 -0.082770 -0.851163 
-0.487760 0.789822 1.631895 0.867373 -0.445489 0.166261 
0.684958 0.160644 0.479088 0.864310 0.174595 -0.397870 
1.293052 0.498694 2.762930 0.770328 0.429198 -0.461289 
-0.496508 1.122902 1.364120 -0.931645 0.003567 0.320199 
0.682976 1.205898 2.270873 0.804323 0.452160 -0.381494 
-0.535733 0.087471 0.153834 -0.794995 0.075282 -0.571031 
-0.461230 1.083655 1.568110 -0.896744 -0.002809 0.280646 
0.061928 -0.232874 -0.181106 0.377732 -0.173211 -0.890588 
0.860682 -0.155624 1.722572 0.853819 0.106760 -0.198278 
0.818974 -0.489114 0.751998 -0.731637 -0.330742 0.440444 
0.988714 -0.558115 0.992775 -0.730861 -0.444756 0.342647 
-0.294660 0.816038 0.337827 -0.790650 0.203534 0.504318 
0.868326 -0.267974 0.821285 0.863723 0.259402 -0.326395 
-0.290310 -0.374230 0.235708 -0.462569 -0.304448 0.816630 
-0.385122 1.102326 2.261937 -0.815316 0.510512 0.179055 
0.262395 -0.746720 0.106421 0.047367 -0.274459 0.874138 
-0.647334 0.017511 0.335391 -0.839304 0.096931 -0.481370 
-0.756526 0.246345 0.678950 0.702319 -0.476167 0.443854 
0.187580 0.277008 0.495867 0.400130 -0.058566 0.904118 
0.290294 0.162707 0.400892 0.473610 -0.165734 0.856513 
-0.068793 0.000475 0.450873 -0.162530 -0.305328 0.933371 
0.690921 -0.108310 0.522032 0.883155 0.132852 -0.392578 
0.447775 -0.489799 0.181960 0.775348 0.004047 -0.567963 
-0.269981 0.540484 0.405814 -0.397158 0.034772 0.886054 
0.661131 -0.780084 0.500147 0.657625 0.197462 -0.574791 
1.027351 -0.379021 2.023704 -0.877004 -0.172036 0.434264 
0.410407 -0.962493 0.123588 0.567960 0.046959 -0.778198 
0.496816 0.666232 1.389180 -0.782441 -0.506111 0.300231 
-1.109458 -0.506293 1.224083 0.902112 -0.110405 0.373111 
-0.613813 0.534457 0.440525 -0.786949 0.567220 -0.171746 
-1.032588 -0.086151 2.071664 0.681072 -0.676984 -0.059711 
0.639581 0.444391 1.051758 0.936951 0.293833 0.038209 
1.073992 -0.323987 1.124510 0.862158 0.418386 -0.205238 
-0.611253 0.401382 1.912986 0.803415 -0.519982 -0.022483 
0.239925 -1.339474 -0.011954 -0.315634 -0.061089 -0.942956 
-0.929005 0.025413 0.791228 0.860279 -0.278473 0.343212 
-1.238863 -0.317134 1.781333 0.660766 -0.620696 0.155975 
0.852184 0.978560 2.424584 0.822649 0.341965 -0.452398 
0.353524 -0.287580 0.224065 0.409217 -0.244304 0.830048 
0.425652 0.830367 1.499083 -0.749448 -0.532051 0.326849 
0.219858 0.210509 -0.108483 0.456242 -0.037042 -0.884662 
-1.091872 -0.149784 2.012334 0.698425 -0.673693 -0.030445 
0.577661 0.444793 0.740920 -0.956145 -0.191192 0.081051 
-0.346202 -1.196315 0.036471 -0.534587 -0.012582 -0.804116 
0.162448 0.776643 -0.086100 0.504566 0.403566 -0.728369 
-0.826201 0.445572 3.365054 -0.854112 0.385931 -0.344999 
-0.661007 0.404578 2.917280 -0.897805 0.344218 -0.255450 
0.644001 0.286608 0.527422 0.886455 0.228602 -0.276552 
0.691541 0.923655 2.095328 -0.752960 -0.305522 0.568628 
-0.673043 0.335048 2.834074 0.894172 -0.382430 0.212017 
-0.141403 0.904673 0.467895 -0.253411 -0.195532 0.942165 
-0.209116 -1.194586 -0.041525 -0.017824 0.030553 -0.901102 
0.470854 0.531679 0.527072 -0.940854 -0.024180 0.285897 
0.690892 0.296528 1.322192 0.936573 0.302018 -0.081874 
0.564619 0.203357 0.197218 0.812148 0.083565 -0.550801 
-0.979809 -0.037113 1.151407 -0.922249 0.285019 -0.180805 
-0.377591 1.206411 1.615765 0.941820 -0.295839 0.014968 
-0.248549 -0.300801 0.280410 -0.391671 -0.305233 0.847458 
-0.748315 0.271603 0.538666 -0.857316 0.249005 -0.377150 
0.296264 0.517803 0.380292 0.333683 -0.014958 0.914162 
-0.095391 0.903964 -0.057969 -0.513149 0.414210 -0.725747 
0.796949 0.391705 1.851663 0.914909 0.355256 -0.131128 
0.633386 0.550103 1.612216 0.853232 0.196396 -0.352119 
-0.663923 -1.022495 0.253352 -0.480394 0.606509 -0.611937 
0.451184 0.087037 0.273483 -0.202837 -0.298685 0.825453 
-0.883985 -0.642934 0.859098 -0.810950 0.059024 -0.491208 
0.619690 0.396680 1.098599 -0.820131 -0.469222 0.288264 
0.339591 0.194643 -0.042984 0.485735 -0.074428 -0.859412 
0.993028 0.579703 2.380714 -0.728246 -0.253817 0.631122 
0.093930 -0.155435 0.381821 0.138479 -0.325765 0.932847 
0.817485 0.888925 2.300282 0.832899 0.359001 -0.417269 
0.551815 0.170774 0.386232 -0.537967 -0.368324 0.704554 
0.393226 0.897330 1.419682 -0.723538 -0.566815 0.349243 
0.422026 0.530898 0.454636 -0.904925 -0.063009 0.381300 
0.862402 -0.107283 0.813473 0.922898 0.230212 -0.287193 
1.307594 0.426513 2.723062 0.761606 0.420515 -0.476441 
1.396299 0.597433 2.991274 0.764494 0.391433 -0.510815 
-0.808996 0.155491 1.585082 0.672326 -0.551020 -0.103277 
-0.028299 0.621266 -0.165010 -0.294957 0.101158 -0.945385 
0.400918 0.594872 0.420972 -0.883082 -0.023249 0.404514 
-0.464825 0.747100 2.076354 -0.965573 0.196160 0.109595 
-0.584031 -0.061556 0.330753 0.392940 -0.307258 0.758459 
-0.388224 0.368479 -0.027535 -0.528209 -0.000235 -0.826749 
0.123302 -0.928826 -0.073977 0.203203 0.148946 -0.938490 
-0.103619 0.503829 -0.148822 -0.396107 0.044861 -0.912471 
0.061238 -0.309911 -0.177463 0.354722 -0.215753 -0.894965 
0.624134 -0.163769 0.451127 -0.534281 -0.269040 0.657874 
-0.709069 0.074544 0.507705 0.585682 -0.342578 0.595698 
0.608020 0.026121 0.333564 0.845918 0.095468 -0.478335 
-0.852684 0.194421 0.707632 -0.899721 0.264635 -0.293665 
-0.481810 0.476393 0.093502 -0.707266 0.296580 -0.502025 
0.189925 -0.886633 -0.016392 0.063649 -0.015760 -0.989470 
-0.110062 1.173406 0.087218 -0.527174 0.408292 -0.738002 
-0.538895 0.843469 1.598708 -0.881204 0.251574 0.303065 
1.435805 0.637682 3.081317 0.763935 0.397000 -0.508549 
0.842837 0.760784 2.266536 -0.798035 -0.246293 0.544941 
0.413852 0.500720 0.030198 0.657167 0.132530 -0.614890 
0.890255 -0.133370 1.245777 0.824100 0.352036 0.079227 
0.685115 0.221490 0.579305 0.892364 0.229590 -0.280840 
0.680950 0.267842 1.385789 -0.886360 -0.384544 0.221232 
0.228146 -0.610127 0.169510 0.294043 -0.319103 0.895850 
-0.917151 -0.050950 0.768354 0.827836 -0.247360 0.366077 
-0.935249 0.035792 1.733158 -0.755412 0.548931 -0.257190 
-0.793703 0.313591 0.719780 -0.894272 0.333536 -0.257649 
-0.731380 0.106269 2.627445 -0.856817 0.485245 -0.047083 
0.621525 -0.941232 0.331132 0.551347 0.353414 -0.633205 
-0.371510 0.705037 0.046261 -0.645681 0.594700 -0.335294 
0.801265 0.027796 0.700631 0.902193 0.221382 -0.317301 
0.081623 -0.404137 -0.154382 0.303982 -0.284862 -0.896846 
-0.687130 0.458935 1.438892 -0.888667 0.357146 0.143506 
-0.768794 -0.712618 0.673799 -0.756395 0.048781 -0.561656 
0.142505 1.116437 0.306778 0.760273 -0.033575 0.598694 
0.548306 0.835470 1.652085 0.921175 0.344737 0.008123 
1.033221 -0.222880 2.095946 0.866639 0.164557 -0.443255 
-0.910758 -0.109409 2.506088 0.733046 -0.647097 -0.122087 
-0.461975 1.068568 1.426168 0.797603 -0.582162 0.120877 
0.434535 -1.165227 0.093196 0.493716 0.187690 -0.752487 
-0.493098 0.062080 0.101511 -0.787359 0.056267 -0.590557 
0.725878 0.554124 1.746147 0.894269 0.358929 -0.256235 
-0.608537 0.318387 0.428403 0.514822 -0.489944 0.661340 
-0.438378 1.017007 1.833591 -0.951008 0.130235 0.221023 
0.221582 0.612756 0.444459 0.506093 0.043811 0.835285 
0.000147 0.136512 -0.222328 0.421261 -0.001993 -0.892297 
0.282372 -0.257629 0.287536 0.479913 -0.279553 0.823933 
-0.654377 0.341644 2.009473 0.755983 -0.580816 -0.103211 
1.035185 0.640165 2.493389 -0.745251 -0.302824 0.582939 
0.225525 0.293125 -0.103460 0.445561 -0.024442 -0.892160 
0.976550 -0.088948 2.032550 -0.765628 -0.134450 0.592246 
0.888009 -0.133927 0.993719 -0.872230 -0.330263 0.156260 
-0.390858 0.447496 -0.044841 -0.589878 0.026497 -0.791532 
-0.494020 0.556181 2.262652 -0.954991 0.274461 0.026759 
0.868583 0.680992 2.247240 -0.775005 -0.225576 0.585726 
0.630320 0.428955 1.378190 0.942686 0.287586 -0.044296 
0.272379 -0.421118 -0.080353 0.573432 -0.147027 -0.791661 
0.267240 1.323310 1.558234 -0.786105 0.204097 0.533190 
0.529755 1.152397 1.907565 0.902877 0.290239 -0.265635 
-1.171302 -0.229198 1.855464 -0.750110 0.646658 0.008622 
-0.139242 -0.015815 0.434682 -0.250420 -0.290442 0.919229 
-0.414940 1.008045 1.766256 0.925919 -0.328096 -0.003053 
0.520930 0.531284 0.592135 0.639511 0.735582 -0.058490 
-0.325460 0.697927 -0.053311 -0.599307 0.389950 -0.636950 
-0.740972 -0.783402 0.648475 -0.736170 0.033034 -0.594084 
0.587603 1.066552 1.995728 -0.710715 -0.372697 0.584879 
0.608353 0.596899 1.660097 -0.849681 -0.475123 0.128723 
-0.383921 1.167341 2.104446 -0.764106 0.558734 0.214131 
-0.402394 1.245535 1.532335 0.776227 -0.619876 0.061864 
0.574320 0.583906 1.592640 -0.835163 -0.462688 0.200449 
0.464303 0.025130 0.243373 -0.304761 -0.304206 0.839047 
-0.284550 -0.496713 0.194642 -0.404197 -0.283706 0.862294 
-0.222695 -0.824961 0.090785 0.117220 -0.304380 0.871604 
-0.613484 0.742361 1.309577 -0.917333 0.204879 0.222978 
0.752597 0.527642 1.848789 0.887778 0.414872 -0.127712 
-0.739450 0.199473 0.571610 0.655200 -0.400178 0.535467 
-0.726292 -0.822060 0.591909 0.632827 -0.163601 0.654522 
-0.154843 -0.092583 0.399186 -0.248049 -0.299486 0.915524 
-0.547443 0.367164 2.422362 0.930550 -0.271560 0.228485 
-0.008464 0.723217 0.436542 -0.032397 0.046176 0.994003 
0.305575 0.791781 0.043617 0.711637 0.488711 -0.415007 
0.639928 0.491150 0.852896 0.871512 0.431495 -0.159081 
0.916819 0.532887 2.186994 0.790683 0.230034 -0.527531 
-0.615820 -0.943382 0.332732 0.516593 -0.320422 0.705686 
0.680370 0.281744 0.965017 -0.830052 -0.440464 0.304484 
-0.587775 0.633102 3.002088 -0.912879 0.284991 -0.275282 
-0.627693 0.482705 1.687625 -0.865867 0.439502 0.201353 
-0.898410 -0.308231 0.785293 0.825472 -0.204533 0.417727 
1.368693 0.301884 2.706599 0.740455 0.381016 -0.538231 
0.124573 1.081844 0.051884 0.482936 0.441725 -0.737097 
0.293238 -0.554283 -0.050270 0.593107 -0.106516 -0.777049 
-0.363895 1.315008 1.681811 0.957635 -0.029338 0.083723 
0.227628 0.368945 0.463741 0.350094 -0.010593 0.928717 
0.702732 0.231719 0.662556 0.912030 0.263997 -0.210485 
-0.079749 -0.327949 0.299822 -0.048573 -0.357456 0.926857 
-0.404322 1.413954 1.509671 -0.844978 0.393237 -0.204052 
-0.527961 0.579360 1.741677 0.910424 -0.378691 0.086826 
0.484470 0.845408 1.538495 0.921104 0.147731 -0.156765 
-0.116441 0.055417 0.467865 -0.245948 -0.283826 0.921835 
-0.671938 0.261773 2.173614 0.708494 -0.636500 -0.284309 
0.228344 0.991678 0.417856 0.745351 -0.111474 0.645766 
-0.705087 0.329373 1.773569 -0.756220 0.564127 0.314988 
-0.707271 -0.409123 0.483570 0.642281 -0.210634 0.587077 
0.941085 -0.623869 0.919301 0.740407 0.373710 -0.358215 
-1.177500 -0.242935 1.785405 -0.713101 0.603030 -0.154254 
0.760189 0.109400 1.406083 -0.907164 -0.338053 0.169429 
0.988719 0.195185 2.190605 -0.763765 -0.181812 0.598232 
1.059707 -0.518519 1.101230 -0.760402 -0.480532 0.281879 
0.257044 0.799639 0.385017 0.632172 0.166703 0.718522 
0.214083 -0.791281 -0.028366 0.066971 -0.103549 -0.989640 
0.145453 1.095915 0.500825 -0.184402 0.027473 0.910818 
0.603340 0.628766 1.736360 -0.841514 -0.384720 0.328924 
-0.465234 -0.309384 0.151243 0.183354 -0.221846 0.926981 
-1.090697 -0.610568 1.171908 -0.866469 0.152479 -0.378124 
-0.537790 0.861557 1.225449 0.810383 -0.546022 0.177593 
-0.306484 0.770334 0.020435 -0.717171 0.477329 -0.425725 
0.387908 0.586342 0.335577 -0.382539 0.238541 0.577650 
0.522076 0.426625 0.157696 0.817973 0.230392 -0.421235 
-0.773926 0.279455 0.618296 -0.874287 0.280405 -0.327163 
-0.474313 1.260072 1.409437 -0.830033 0.445753 -0.101716 
-0.445541 0.869500 2.190073 -0.974316 0.161907 0.078685 
-0.784214 0.343623 3.154076 0.858340 -0.411749 0.297757 
0.337296 0.943108 1.251607 -0.924948 -0.376577 0.034437 
0.405078 0.989555 1.232842 0.442111 0.586482 -0.471549 
1.385997 0.352749 2.777453 -0.736749 -0.371564 0.557773 
-0.452287 0.823110 2.038685 0.942537 -0.277248 0.128599 
-0.560700 0.384004 0.568613 0.685918 -0.515046 0.491759 
-0.767173 0.500666 3.290145 0.857975 -0.388412 0.324045 
0.789403 0.966860 2.300822 -0.749406 -0.378627 0.533875 
-0.492693 0.717111 1.618363 0.854680 -0.437685 -0.069275 
0.590315 0.475700 0.522560 0.681945 0.664628 -0.196601 
-0.342268 -0.814865 0.012887 -0.633746 -0.026854 -0.751299 
-0.812291 -0.403861 0.654630 0.762302 -0.202761 0.490796 
0.409029 0.711424 0.109119 0.625304 0.735242 -0.155696 
0.598258 0.444667 0.414508 0.876623 0.355801 -0.200004 
-0.968319 -0.012230 2.120460 -0.677812 0.687418 0.224386 
0.456003 0.767852 1.515546 -0.768347 -0.511767 0.308326 
-0.781047 0.392161 0.728473 -0.896802 0.383327 -0.197615 
-0.651248 0.220798 2.540996 0.903849 -0.309274 0.269484 
-0.613898 0.507893 0.655302 -0.499872 0.794144 -0.248812 
-0.194349 0.624871 -0.122345 -0.435817 0.124673 -0.869249 
-0.627758 0.192251 0.412453 0.506390 -0.409830 0.677380 
-0.537940 0.516826 2.022134 -0.876517 0.416530 0.175983 
0.833970 -0.227888 1.636463 -0.914768 -0.173324 -0.205383 
-0.771785 0.145532 2.854285 0.868269 -0.409272 0.248529 
0.516997 -1.024296 0.143385 -0.429831 -0.386848 0.768231 
-0.061277 -1.047902 -0.078797 -0.129511 -0.506778 0.797804 
-0.289930 -0.168046 0.308848 -0.472834 -0.267301 0.831079 
0.006761 1.321761 0.110094 0.435333 0.050171 -0.857643 
-0.662188 0.011154 0.440173 0.510657 -0.323927 0.658170 
0.386748 0.905275 1.313979 -0.710816 -0.589680 0.360839 
1.154994 -0.439909 1.241351 0.827257 0.497219 -0.178377 
-0.390748 1.114968 2.045909 0.922038 -0.350229 0.072068 
-0.324238 -0.532557 0.147953 -0.251599 -0.245813 0.908140 
0.183480 1.439506 1.461087 0.027287 0.107743 -0.948766 
0.734849 0.095224 1.540761 0.929431 0.268351 -0.065938 
0.234920 -1.139579 -0.008305 -0.063090 0.029100 -0.978629 
-1.015073 -0.123757 1.257272 -0.919699 0.285169 -0.200401 
-0.777385 0.398254 0.798437 -0.909631 0.350793 -0.155339 
0.424206 0.642937 0.077597 0.710259 0.387789 -0.449074 
0.023354 -0.628175 0.216771 0.330244 -0.367315 0.857201 
0.667425 -0.706757 0.505406 -0.610499 -0.277525 0.608795 
-0.624704 0.845262 1.037264 -0.875177 0.445456 -0.170073 
0.700323 0.820030 2.024656 0.849830 0.211906 -0.443084 
0.132503 -0.410695 0.272625 0.090353 -0.325842 0.940168 
-0.191975 0.274128 -0.123565 -0.436343 -0.009905 -0.896270 
0.500771 0.738259 1.454434 0.965509 0.199096 -0.023650 
1.302401 0.577987 2.839254 -0.761525 -0.408202 0.502166 
0.243003 0.944980 0.077491 0.735292 0.397418 -0.490762 
0.484982 0.607329 0.396689 0.737983 0.637019 -0.032645 
-0.139490 -1.052047 -0.067237 0.285462 -0.453584 0.827823 
0.447371 -0.124571 0.113322 0.828687 -0.006488 -0.538434 
-0.724901 -0.271803 0.497579 -0.842175 0.101215 -0.434390 
-0.698797 -0.761171 0.563435 -0.722433 0.041030 -0.606239 
0.373025 1.126168 1.513749 0.928571 0.204061 0.023804 
-0.699322 0.263087 0.395602 -0.826444 0.195630 -0.465612 
0.301644 -0.526136 0.176655 0.416572 -0.275887 0.859671 
-0.826959 0.097577 2.261611 -0.716988 0.638454 0.201183 
0.013141 1.418014 0.213996 0.226260 0.848512 0.365106 
-0.350611 0.237863 0.363242 -0.423841 -0.123251 0.883143 
0.871030 -0.239039 1.711186 0.868194 0.107854 -0.120477 
0.709297 -0.741487 0.572587 0.676149 0.225761 -0.534924 
0.315064 0.395361 -0.065946 0.466177 -0.046912 -0.880616 
1.289478 0.807554 2.990182 0.776306 0.348539 -0.520738 
-0.299532 0.152886 0.400475 -0.449156 -0.183252 0.866386 
1.197725 0.239249 2.436497 -0.761529 -0.350205 0.516129 
-0.227874 0.848873 -0.029423 -0.577999 0.476415 -0.659360 
-0.537389 0.650728 1.722885 -0.852198 0.325756 0.312487 
-0.332104 -0.896229 -0.004899 -0.565162 -0.028355 -0.816988 
-0.744731 0.248350 1.671510 0.728438 -0.579196 -0.329593 
0.749659 0.724470 2.059264 -0.824549 -0.422052 0.364740 
1.074800 0.669772 2.571028 0.787993 0.419929 -0.436124 
0.823915 0.958451 2.362499 -0.761521 -0.379178 0.517156 
-0.479782 1.026962 1.296870 0.798798 -0.567965 0.177054 
0.357305 0.993887 1.164913 -0.806375 -0.051263 -0.302829 
0.733336 0.219806 1.211547 0.935167 0.290921 -0.115679 
-0.428963 0.891761 2.339812 0.933184 -0.335047 0.049320 
-0.337372 0.735723 0.306029 -0.861664 0.228553 0.389606 
-0.489201 0.600807 2.342973 0.954502 -0.261096 0.098987 
-0.036460 0.876782 -0.109360 -0.447387 0.366363 -0.805895 
0.686698 -0.646149 0.541724 0.708898 0.192883 -0.528419 
-0.231441 -1.281092 -0.007255 0.678112 -0.465941 -0.249319 
-0.735062 0.266037 2.940967 0.873588 -0.412513 0.248480 
0.280593 0.470164 -0.094226 0.488289 -0.020990 -0.867950 
0.329046 0.737534 0.004708 0.699017 0.526307 -0.423994 
-1.022265 -0.039330 0.899721 -0.943770 0.202734 -0.257919 
0.272427 -1.401299 -0.027011 -0.193391 -0.030627 -0.977270 
