-0.919090 -0.582056 0.387549 -0.328960 0.351167 -0.824520 
-0.360950 -0.339380 0.241611 -0.428140 -0.298897 0.825725 
1.886701 1.318491 2.413429 0.236974 0.561255 -0.787944 
-0.720066 1.036476 1.572076 -0.589462 0.684871 -0.330042 
-0.308258 -0.522646 0.002060 -0.590156 -0.027949 -0.774686 
-1.018867 0.738188 1.144754 -0.523606 0.740823 -0.346779 
0.205484 1.215376 1.535547 -0.092256 -0.791927 0.593560 
0.355288 0.950559 1.067458 -0.607443 -0.697912 0.133555 
0.179336 -1.079818 -0.076244 0.256638 0.150661 -0.929068 
-0.898272 -0.288985 0.480531 -0.466400 0.289322 -0.783896 
1.349590 1.097576 2.095870 -0.371589 -0.570137 0.718069 
-0.452927 1.126343 1.247390 0.283119 -0.817896 0.489777 
-1.772748 0.776828 1.761627 -0.114700 0.948758 -0.246442 
0.927120 -0.183013 0.545374 0.424549 0.422911 -0.704676 
1.232752 0.381615 0.909506 -0.463796 -0.645585 0.588047 
0.867774 -0.640969 0.314850 0.213416 0.470692 -0.766814 
-1.105766 1.272042 2.737617 0.369742 -0.745397 0.546767 
-0.633282 1.103886 1.722302 0.435193 -0.792516 0.388112 
-1.475303 1.262506 2.880860 0.286971 -0.709125 0.639952 
1.418533 0.301437 1.453466 -0.704633 -0.652938 -0.047642 
-0.813212 0.409081 0.540801 0.288841 -0.524660 0.765480 
-0.639018 -0.193160 0.313910 -0.611902 0.212579 -0.680761 
0.138809 0.719815 -0.083969 0.395725 0.265473 -0.851565 
-1.415797 1.378010 2.965648 0.289394 -0.699649 0.645772 
-0.882056 -0.357715 0.453672 0.317400 -0.356030 0.829233 
-1.050562 0.457499 0.728520 0.424118 -0.556082 0.672172 
-1.757219 0.713494 1.554756 -0.076346 0.828654 -0.444143 
0.729405 0.343551 0.513081 -0.317095 -0.511294 0.777414 
-0.093232 -0.659094 0.219921 -0.224535 -0.446284 0.862932 
-1.328033 0.886774 2.229368 -0.270829 0.902651 -0.250771 
0.985650 0.377609 0.723947 -0.404877 -0.577374 0.679123 
-0.537741 0.580938 0.587860 0.589094 -0.622695 0.477993 
-0.670914 0.291527 0.412337 0.188830 -0.478800 0.828555 
0.269512 0.317071 -0.046050 0.447072 -0.039410 -0.891897 
0.632662 -0.704597 0.223450 0.340627 0.239625 -0.836024 
-0.072589 -0.990868 -0.039143 -0.090156 -0.482737 0.835262 
-1.314071 0.889971 1.926733 -0.184657 0.979030 -0.027555 
-0.655059 1.051689 1.600109 0.423860 -0.845665 -0.035314 
-1.055169 0.838091 1.582048 -0.318679 0.788607 -0.481904 
-0.700927 0.560352 0.633754 0.216248 -0.641927 0.722037 
0.839345 0.381156 0.459090 0.634357 0.348590 -0.635523 
-0.196060 0.717569 0.472251 -0.339130 0.206305 0.884495 
1.478822 0.140693 0.948340 -0.280778 -0.720453 0.538503 
-0.364422 -0.126582 0.329333 -0.488859 -0.272144 0.823228 
1.675416 0.743347 2.044288 -0.422705 -0.459901 0.769181 
0.938044 0.484260 0.683258 0.588901 0.549173 -0.525500 
0.744502 0.727192 1.060244 -0.299486 -0.758843 0.556765 
-0.164506 1.558028 1.562425 -0.499333 0.751600 -0.271109 
0.727653 -0.401399 0.369068 0.417371 0.313730 -0.781375 
-0.980974 0.510169 0.701035 0.387977 -0.578752 0.685072 
1.465429 0.278390 0.981566 0.396817 0.703359 -0.509327 
-0.049416 -0.778667 0.139448 -0.227116 -0.453241 0.832242 
0.322125 -0.871117 -0.013227 0.145203 0.006127 -0.949225 
-0.083333 1.193501 0.459431 0.169463 0.698813 0.669176 
-0.320446 -1.374650 -0.055777 0.601904 -0.698641 0.231535 
-0.846018 0.406551 0.450948 -0.637382 0.358419 -0.639151 
-1.789502 0.757293 1.694871 -0.122352 0.941039 -0.280967 
-1.062416 0.702652 1.212473 0.423694 -0.778925 0.408261 
-0.445844 1.011396 0.972401 0.700873 -0.636539 0.227685 
-0.501802 1.440917 2.135672 -0.696130 0.651344 -0.233457 
-0.554886 0.443214 0.459428 0.276393 -0.637962 0.690395 
-0.404852 0.107884 0.017812 -0.592346 0.044111 -0.782114 
0.158424 0.711107 0.478362 0.215789 0.156479 0.935347 
-0.772113 0.937807 1.689988 0.461392 -0.825327 0.272114 
-0.277002 -0.897420 -0.025503 0.016208 0.025598 -0.997032 
0.451658 -1.081089 0.024270 0.354110 -0.112379 0.760211 
-0.245358 -0.544766 0.228212 -0.332432 -0.333329 0.878826 
0.151171 -0.513802 0.266581 0.140451 -0.363571 0.914550 
-0.875655 0.877808 1.584972 0.453919 -0.853145 -0.081218 
-1.127832 1.380662 2.859061 -0.425218 0.620422 -0.648843 
1.169649 0.551962 1.167717 0.533693 0.668625 -0.482249 
1.734694 1.788787 2.782619 -0.254928 -0.634077 0.729821 
1.009510 1.629297 2.367100 0.326898 0.631220 -0.702151 
0.686478 0.644452 0.872973 -0.378442 -0.763599 0.484177 
-0.319493 0.037207 0.409164 -0.409860 -0.256899 0.866896 
1.611318 0.585035 1.870706 -0.433300 -0.448450 0.751064 
0.536980 -0.958616 0.049075 0.231174 0.280495 -0.886182 
-1.452944 0.312479 0.983158 -0.577354 0.425050 -0.671650 
-0.549275 0.118988 0.300743 0.065027 -0.407994 0.884624 
1.561346 0.127807 0.985733 -0.249043 -0.750923 0.514788 
1.475885 0.844839 1.962410 0.482861 0.558204 -0.626794 
-0.899727 -0.040199 0.519593 -0.493575 0.393734 -0.708244 
-0.124189 -0.444346 -0.075743 -0.257708 -0.302936 -0.901332 
0.156616 -0.135836 0.415735 0.205813 -0.306341 0.924658 
1.396657 0.832509 1.902971 -0.318087 -0.317887 0.878759 
-0.176506 -1.008327 -0.032998 0.193091 -0.441083 0.869232 
-0.106698 0.555960 0.539779 -0.231567 0.101144 0.959674 
0.360774 0.560180 0.357441 0.536245 0.231563 0.705472 
-1.722418 0.247182 1.166016 0.555837 -0.371826 0.734548 
0.769232 -0.165890 0.431026 -0.224958 -0.413576 0.810895 
-0.706915 0.323592 0.311743 -0.658461 0.275528 -0.661154 
-0.831983 0.845350 1.088248 -0.592767 0.728665 -0.258507 
1.220186 1.271740 2.154466 -0.318919 -0.672418 0.660911 
0.957352 -0.116836 0.582333 0.437813 0.443131 -0.690042 
-1.359508 1.191384 2.761935 0.327428 -0.725131 0.597954 
0.186688 1.165754 1.452762 -0.536434 -0.769398 0.304303 
1.610723 1.609892 2.584754 -0.243192 -0.655587 0.713468 
1.232518 0.974254 1.905673 -0.324379 -0.402203 0.826283 
0.550647 0.921097 1.299411 -0.235306 -0.786576 0.546249 
0.131506 0.864487 -0.024626 0.516789 0.420253 -0.728860 
-0.900598 1.172136 2.406792 0.511509 -0.699148 0.489455 
1.237337 0.807264 1.742925 0.429300 0.402733 -0.806273 
-0.567807 -0.053957 0.272441 0.060769 -0.366113 0.895237 
-1.653169 0.563874 1.214855 -0.317131 -0.300031 0.820707 
0.850696 1.584940 2.240655 0.372554 0.632628 -0.678554 
-0.625796 1.457102 2.492959 -0.470582 0.843267 -0.248272 
1.121450 1.106146 1.949143 -0.369084 -0.553385 0.728588 
-0.102982 0.165257 0.530501 -0.201091 -0.204530 0.948059 
0.592169 -0.102192 0.293832 -0.119202 -0.360137 0.885345 
1.493168 1.015538 2.130622 -0.374215 -0.499670 0.768769 
0.240332 1.409568 1.710013 0.550005 0.689257 -0.453173 
-1.050957 1.242540 2.674172 0.409604 -0.737296 0.529761 
-0.314187 1.455359 1.790141 0.449280 -0.721634 0.521014 
1.326955 1.663885 2.527997 0.308204 0.594849 -0.739457 
1.062449 1.482355 2.264823 0.326110 0.657592 -0.675906 
0.103795 0.965071 0.529153 0.197110 -0.153271 0.962535 
0.001956 -0.597701 -0.026543 0.670162 -0.112568 -0.708824 
0.810526 0.511901 0.729835 -0.315832 -0.699650 0.610939 
-0.786850 0.750430 0.755832 -0.466107 0.756729 -0.448661 
0.662618 0.324757 0.263343 0.675320 0.223809 -0.664772 
-1.325294 1.301279 2.859824 -0.359297 0.658895 -0.649745 
0.145884 1.323029 1.542727 0.709981 0.671816 -0.194944 
-1.127617 -0.259300 0.654917 -0.488460 0.253258 -0.804245 
0.439700 0.711742 0.649180 0.268319 0.869277 -0.356189 
-0.661787 0.697002 0.589130 -0.229954 0.803895 -0.440497 
0.594038 1.670553 2.193737 0.142134 0.816377 -0.527513 
0.237998 -0.497862 -0.026415 0.044569 -0.181814 -0.915033 
1.083548 0.741462 1.586429 -0.507378 -0.744155 0.428570 
0.518387 1.616608 2.102742 -0.519542 -0.368279 0.722958 
-0.398429 -0.205877 0.111263 -0.745727 0.047785 -0.645366 
-1.366112 0.928835 2.434764 -0.326674 0.855748 -0.369944 
0.512724 1.538751 1.998393 0.454018 0.668059 -0.563305 
-0.612017 -0.131432 0.291852 0.067493 -0.345565 0.884828 
-1.291482 0.875268 2.306902 -0.330557 0.868633 -0.352076 
0.221989 1.233514 1.444219 0.685620 0.664929 -0.242379 
-0.523962 -0.881388 0.096685 -0.343972 0.167419 -0.903438 
0.079446 -0.051523 -0.145394 0.448193 -0.057673 -0.876173 
1.366615 1.701896 2.576832 -0.232478 -0.683415 0.689843 
0.865771 0.730055 1.161230 0.570959 0.723588 -0.334057 
-0.233883 0.914184 0.070692 -0.685620 0.430269 -0.579513 
0.447442 0.181132 0.048068 0.643493 0.051251 -0.745769 
0.959671 1.480229 2.207519 0.351319 0.656833 -0.664394 
0.028980 1.414471 0.255922 0.471604 0.784719 0.333101 
0.340327 0.220724 0.442603 0.370095 -0.149100 0.904920 
0.843823 0.803120 1.368606 0.567742 0.733924 -0.336656 
-0.430211 1.047047 1.104763 0.631140 -0.649401 0.211455 
-1.147005 -0.186812 0.676144 0.390542 -0.349122 0.807133 
0.777164 0.452866 0.481807 0.627853 0.419487 -0.568584 
0.474339 1.207408 1.610830 0.562067 0.671415 -0.367007 
0.983687 1.689662 2.417174 -0.280512 -0.676078 0.678708 
0.660054 0.451444 0.367192 0.649788 0.362029 -0.573712 
-1.234678 0.009816 0.775297 -0.526518 0.343866 -0.735933 
0.459021 -0.050376 0.131453 0.735240 0.075372 -0.648996 
0.410499 -0.199356 0.118003 0.751965 0.039096 -0.635734 
-0.559189 0.788118 0.763435 0.548888 -0.626049 0.511311 
0.214077 1.041093 0.144430 0.710203 0.397782 -0.519587 
1.305199 1.370103 2.268847 0.273966 0.747132 -0.596827 
1.314529 0.048979 0.828318 0.367755 0.613636 -0.573191 
-0.783915 1.244493 2.302625 0.480946 -0.711083 0.507278 
-1.244528 0.709048 1.384789 -0.121766 0.642247 -0.539957 
-0.607896 1.137071 1.473308 -0.656058 0.658854 -0.155264 
-0.015137 -0.687300 -0.015386 -0.412397 0.008701 -0.873385 
1.656801 1.457956 2.467788 0.255137 0.671737 -0.685545 
-0.879924 0.652329 0.808378 0.256657 -0.731040 0.619603 
0.848305 1.256401 1.935073 0.399092 0.612832 -0.664541 
-1.264324 0.936407 2.061843 -0.195468 0.974894 -0.033410 
0.134350 1.246145 0.276415 0.701821 0.643135 0.018638 
-0.653458 1.166270 1.975131 0.597264 -0.649090 0.453802 
0.609277 1.313407 1.886557 -0.314829 -0.668882 0.664282 
-0.102401 0.310421 0.561939 -0.225867 -0.049797 0.962434 
-0.256990 -0.274798 -0.056360 -0.527505 -0.120421 -0.838583 
-1.289216 0.205393 0.845549 -0.552265 0.414641 -0.683306 
-1.468540 0.083482 0.958500 0.490537 -0.363526 0.761910 
1.702439 0.445693 1.829041 -0.529452 -0.577569 0.598973 
0.002317 -0.843425 0.108233 0.561652 -0.378632 0.724286 
-0.538617 -0.422735 0.185783 0.056054 -0.296181 0.922911 
0.940998 1.773952 2.480215 -0.345956 -0.572789 0.737979 
0.129525 -0.946876 -0.000761 -0.101081 -0.470078 0.862050 
0.674370 1.526705 2.080275 0.426821 0.646829 -0.614767 
-1.531197 0.837106 1.856961 -0.144565 0.970543 -0.107447 
-1.613553 0.217207 1.087559 -0.580182 0.350941 -0.721279 
0.226392 0.467197 -0.072357 0.450879 0.009399 -0.886612 
0.499756 0.246814 0.402143 0.024741 -0.368395 0.853030 
-1.379991 0.886106 1.955121 -0.162642 0.983189 -0.024711 
0.176873 1.197376 0.307343 0.723905 0.650491 -0.078198 
0.111785 1.107809 0.098866 0.449065 0.464288 -0.751329 
-1.162707 1.222817 2.701898 -0.414044 0.685850 -0.585968 
-0.519759 1.245027 1.808971 0.365042 -0.883194 0.174099 
0.779743 -0.612985 0.331966 0.320366 0.312427 -0.785783 
-1.025984 0.765923 1.434192 0.383971 -0.879161 0.258820 
0.906187 1.432893 2.139257 -0.309875 -0.555219 0.763182 
-0.791434 1.083150 2.101547 0.631095 -0.636133 0.433852 
0.506943 1.142371 1.651960 -0.278837 -0.675074 0.587131 
-0.280125 0.976886 0.315494 -0.922200 0.339202 0.088657 
0.999569 1.140839 1.887282 0.400752 0.712651 -0.550938 
0.061661 0.894000 -0.038730 0.476809 0.392458 -0.765697 
-1.250146 0.585815 1.074774 0.464635 -0.635365 0.563174 
-0.709696 1.080972 1.840095 -0.609161 0.755548 -0.173007 
-0.275575 0.985027 0.231182 -0.899569 0.387673 -0.156523 
1.284813 1.619069 2.476621 0.303551 0.610784 -0.729542 
0.228227 1.083099 0.201892 0.827929 0.436369 -0.297634 
-1.183389 -0.081898 0.723309 -0.512332 0.316121 -0.757316 
-0.216550 -0.373840 0.299589 -0.289987 -0.328305 0.872533 
1.723768 0.371335 1.184753 0.335799 0.833236 -0.331474 
-0.353350 0.252507 0.436886 -0.364894 -0.120630 0.907726 
-0.388997 -0.258523 0.246463 -0.349783 -0.278708 0.863133 
0.882004 1.498549 2.180978 0.371590 0.649057 -0.662218 
0.966580 0.620799 0.981346 0.570845 0.682587 -0.400506 
1.780381 1.180656 2.255593 -0.238441 -0.543446 0.797621 
0.408890 0.845325 0.879578 0.274135 0.827599 -0.479259 
1.633453 0.149790 1.022491 -0.235831 -0.794720 0.487785 
-0.485392 -0.627424 0.110284 0.061941 -0.268758 0.948134 
-0.757013 1.045353 1.882765 0.592164 -0.760515 0.261727 
0.655785 -0.409540 0.313564 0.468418 0.258354 -0.765559 
0.742215 1.041281 1.667606 -0.359173 -0.829646 0.383021 
0.680798 0.390257 0.295670 0.664308 0.266286 -0.648016 
-0.066937 1.259338 0.381134 -0.176193 0.807718 0.550404 
0.999343 1.055851 1.802247 0.441939 0.774482 -0.421407 
1.521809 0.222303 0.999512 -0.302800 -0.743297 0.516916 
0.830636 -0.574232 0.368785 0.312632 0.344793 -0.767942 
-0.315567 -0.253821 -0.000296 -0.633130 -0.044774 -0.752714 
0.915178 0.162597 0.614813 -0.308156 -0.503513 0.732751 
0.809150 0.033849 0.508453 0.627273 0.328077 -0.612011 
1.153898 1.707847 2.508551 -0.251583 -0.677960 0.687583 
-0.479609 0.581029 0.242162 -0.528246 0.714874 -0.333996 
0.311153 -0.420886 0.029105 0.687122 -0.039327 -0.699414 
0.315772 0.402021 -0.033031 0.470362 -0.037172 -0.879241 
0.315426 0.765892 0.101373 0.801384 0.402230 -0.327030 
-0.870051 -0.533293 0.410582 0.284111 -0.295530 0.879344 
-1.461738 1.194461 2.812349 -0.315938 0.694162 -0.640754 
-0.633982 -0.523292 0.249057 -0.419743 0.246078 -0.821306 
1.202325 0.469783 0.938561 0.547711 0.627715 -0.548710 
-0.202403 1.064477 0.138943 -0.691859 0.407929 -0.549932 
0.418377 1.481651 1.885961 0.491749 0.673775 -0.523447 
-0.401269 0.469897 0.020477 -0.561376 0.146284 -0.750015 
-0.466215 1.445356 2.061035 -0.711713 0.641626 -0.205506 
1.242395 1.497975 2.358274 0.291843 0.672498 -0.671402 
0.099300 0.322134 -0.134593 0.439848 0.032269 -0.894383 
1.321215 1.162001 2.122072 -0.351493 -0.632602 0.674518 
-0.678222 1.023203 1.402786 0.321619 -0.861162 0.373683 
1.642622 1.178936 2.225392 -0.275857 -0.598529 0.731959 
1.568117 0.260568 1.036820 -0.304851 -0.763987 0.498852 
0.930950 0.645190 1.115846 -0.389372 -0.722748 0.546995 
0.048214 0.908781 0.529623 0.192314 -0.099573 0.966332 
-0.486750 1.259333 1.590129 -0.657587 0.703343 0.104530 
-0.789173 0.361897 0.397430 -0.647257 0.323178 -0.646133 
1.562114 0.964089 2.134801 0.398621 0.458674 -0.786234 
-0.397877 1.318725 1.762997 0.577535 -0.736952 0.307660 
0.730629 0.926019 1.517664 0.608297 0.683822 -0.371803 
-0.331091 0.120219 -0.015918 -0.488974 -0.053399 -0.859380 
-0.722134 0.439732 0.480798 0.245243 -0.529977 0.795462 
0.021009 0.618332 -0.128904 0.294658 0.124659 -0.943052 
-0.717211 1.356860 2.468652 0.545210 -0.757154 0.346829 
1.722125 1.059307 2.212051 0.321076 0.432149 -0.835269 
-1.362094 0.543115 1.084432 0.446539 -0.562090 0.653328 
0.566631 0.269437 0.376891 -0.215383 -0.447587 0.844232 
0.796725 0.809505 1.296723 0.573357 0.745565 -0.297260 
0.120677 1.254203 1.556934 -0.393619 -0.781865 0.411675 
-0.898635 0.752717 0.996137 0.410099 -0.704179 0.551365 
-0.484955 -0.146364 0.214970 -0.046956 -0.313494 0.926816 
0.334582 -0.188944 -0.002011 0.618653 -0.049597 -0.765123 
0.571033 -0.434392 0.243222 0.523335 0.191071 -0.747849 
0.637966 0.788038 0.890185 0.226838 0.822350 -0.480447 
0.269848 1.354078 1.667932 0.586887 0.554810 -0.548129 
1.270801 0.526090 1.303753 0.484932 0.733875 -0.212219 
0.269199 1.005499 0.330076 0.916746 0.345318 0.120059 
0.341437 0.476776 -0.040341 0.530897 -0.002850 -0.841246 
-1.212477 0.961175 2.401760 0.418587 -0.634307 0.644266 
0.324540 -0.772505 0.115107 0.178785 -0.290363 0.904800 
-1.501225 0.962351 2.543511 -0.292193 0.831961 -0.433974 
1.271958 0.470000 1.098003 0.508865 0.682943 -0.347021 
0.912818 0.926736 1.617751 0.427690 0.520647 -0.676736 
1.379262 0.488906 1.414530 0.436792 0.795094 0.053984 
-1.412431 0.978164 2.519724 -0.316277 0.823880 -0.431215 
-0.857251 0.895879 1.510069 0.402411 -0.863850 0.123919 
0.329766 -0.351277 0.066660 0.775855 -0.019812 -0.628973 
-0.524434 0.251317 0.379242 -0.070416 -0.383500 0.859293 
0.764805 1.117007 1.727462 0.487187 0.748637 -0.390086 
-0.358655 0.051788 -0.004265 -0.548755 -0.013521 -0.815938 
1.032348 1.246841 2.025143 0.386797 0.593411 -0.703071 
1.083466 1.324757 2.120684 0.325716 0.647361 -0.682502 
0.676254 1.294671 1.870902 0.498671 0.546314 -0.629038 
-0.672282 1.028988 1.668160 0.432259 -0.779228 0.405512 
1.642315 0.439318 1.773591 -0.562474 -0.595801 0.485682 
-0.203164 1.053892 0.496546 -0.651601 0.653572 -0.329999 
-1.620882 0.478694 1.236912 0.340503 -0.424837 0.824223 
-0.353768 1.111516 1.022686 -0.197599 0.688502 -0.598763 
0.499274 0.325230 0.411299 -0.028176 -0.328675 0.867262 
0.098010 0.534108 -0.115918 0.389305 0.069429 -0.911331 
0.134074 -0.349556 0.330955 0.112527 -0.335980 0.933319 
-1.783133 0.659446 1.447875 0.042115 0.676979 -0.542050 
-0.056236 0.679748 0.492890 -0.058129 0.147677 0.976585 
0.767045 0.106858 0.454839 0.661424 0.293747 -0.607417 
-0.196805 1.469725 1.580121 0.336605 -0.849862 0.348641 
0.194772 1.376181 1.622790 0.481035 0.668455 -0.563820 
1.665698 0.340845 1.706676 -0.608192 -0.577735 0.377558 
1.609073 0.331739 1.083212 -0.322958 -0.785232 0.478974 
-0.611236 0.468163 0.252896 -0.623849 0.324169 -0.659929 
1.695520 1.620991 2.623486 0.265693 0.626567 -0.731125 
-0.721834 -0.895334 0.120406 -0.151950 0.492174 -0.826201 
-1.023639 0.897144 1.709420 -0.332387 0.933842 0.010383 
-0.541709 -0.739638 0.134413 0.165369 -0.287303 0.921705 
0.209811 0.647852 0.488268 0.356541 0.275892 0.845308 
-1.041148 -0.217708 0.594611 0.367996 -0.365429 0.805023 
0.076164 -0.509332 0.275468 0.083635 -0.309837 0.936724 
-0.275224 0.869079 0.388322 -0.817424 0.142913 0.513470 
-0.615430 0.679921 0.522420 -0.242734 0.812745 -0.408294 
0.553616 0.386321 0.418834 -0.320653 -0.476343 0.794514 
-0.018275 0.869676 -0.081162 -0.422335 0.367552 -0.825224 
1.510765 1.419350 2.384318 0.261664 0.718330 -0.634430 
0.829693 1.331075 1.986710 0.386314 0.620118 -0.677604 
1.643063 0.268729 1.075386 0.328064 0.777931 -0.459595 
-1.201098 1.364225 2.873768 0.321007 -0.736443 0.586267 
0.698584 -0.264076 0.353265 -0.183571 -0.377169 0.846156 
-1.699581 0.684648 1.479768 0.006025 0.699335 -0.543930 
0.456371 0.956645 1.068568 0.101398 0.746595 -0.572035 
0.514259 1.041723 1.555550 -0.241028 -0.770831 0.543722 
0.832262 1.454998 2.116673 -0.277524 -0.569668 0.764044 
-0.372901 -0.769800 0.113684 -0.131772 -0.284288 0.907554 
-0.725673 1.117082 1.986688 -0.600570 0.763373 -0.219466 
-0.638472 0.379052 0.403609 0.190447 -0.503241 0.833722 
-0.910372 1.224832 2.519000 -0.518471 0.702093 -0.475531 
1.484231 0.477046 1.669556 0.580430 0.518417 -0.438028 
-0.618929 -0.319286 0.276789 -0.553121 0.211490 -0.727931 
0.394360 1.154657 1.536701 0.684390 0.627990 -0.318892 
-0.334717 0.192350 -0.013175 -0.469951 -0.052525 -0.872185 
0.164892 0.255878 -0.104724 0.456618 -0.004227 -0.886192 
-0.096519 0.422562 -0.117758 -0.392954 0.045487 -0.914722 
-0.156096 -0.520782 0.262461 -0.154813 -0.364741 0.911288 
-0.751806 0.727435 0.695140 -0.352291 0.777762 -0.464761 
-1.626519 0.305563 1.110652 -0.590855 0.385387 -0.696007 
0.339192 -0.585642 0.036672 0.619595 0.017890 -0.738191 
-0.339095 1.173970 1.239674 0.631699 -0.699214 0.285228 
-0.231697 -0.811947 -0.015008 -0.004819 0.001176 -0.995921 
-0.966783 0.712264 0.984501 0.433677 -0.687866 0.553188 
0.063051 0.826910 -0.066704 0.445157 0.350761 -0.807666 
0.352183 1.065124 1.369196 -0.147116 -0.794659 0.575073 
-1.543939 1.253996 2.898297 0.277551 -0.699493 0.656560 
-0.321506 0.859976 0.212712 -0.933492 0.320263 -0.157960 
-1.688667 0.864880 2.512964 -0.238941 0.889185 -0.373197 
-0.128911 1.494626 1.548410 0.737328 -0.642928 0.033619 
-0.000136 0.272364 0.565449 -0.090892 -0.102753 0.984508 
-0.565192 0.408947 0.397704 0.093136 -0.389589 0.868174 
0.149849 -0.774634 0.140767 0.031771 -0.427031 0.875970 
-0.091255 0.980253 0.534123 -0.184717 -0.134164 0.967331 
-0.403056 1.391538 1.806894 -0.750895 0.622794 -0.121751 
-1.309065 0.602133 1.237555 0.403552 -0.642862 0.563400 
0.771978 1.002244 1.606559 0.481422 0.528225 -0.610254 
-0.618657 1.131640 1.653064 -0.617302 0.702146 0.002046 
-1.301752 0.592406 1.128738 -0.483431 0.621248 -0.553306 
-0.839998 1.194072 2.331944 0.510430 -0.697940 0.491495 
-0.131882 0.827725 0.501168 -0.279534 -0.195479 0.938300 
-0.356882 1.374909 1.549920 -0.726760 0.638821 0.138207 
-0.480292 0.636317 0.482006 -0.057402 0.888067 -0.305837 
-1.741606 0.744721 1.628806 0.098206 -0.886054 0.409576 
0.335418 1.235468 1.645048 -0.090898 -0.620879 0.740920 
1.294886 0.440850 1.483146 0.660588 0.660741 -0.140973 
-0.654365 1.212645 2.035237 -0.685172 0.666741 -0.244672 
0.524116 0.631417 0.503760 0.222037 0.867856 -0.288398 
-0.017104 0.193232 -0.184380 -0.449989 0.034445 -0.886338 
1.063476 0.807904 1.612234 0.461186 0.568734 -0.626744 
0.252280 1.098203 1.373388 -0.479637 -0.789636 0.356850 
0.524235 1.483199 1.949095 0.470722 0.660855 -0.558594 
-0.652475 1.385033 2.372009 -0.651197 0.673938 -0.337335 
1.499559 0.725851 1.886181 0.516487 0.587955 -0.584538 
0.405193 0.474993 0.450139 -0.599178 -0.482664 0.575577 
0.453689 0.535288 0.152138 0.631680 0.445602 -0.473509 
-0.540346 0.997438 1.108250 0.294306 -0.791665 0.527579 
-0.042269 -0.344633 -0.137218 -0.320413 -0.233723 -0.906911 
0.845818 0.345766 0.605582 -0.352296 -0.537724 0.734475 
-0.305874 0.319329 -0.027119 -0.428328 -0.049301 -0.901332 
-1.118555 -0.092399 0.673689 -0.505867 0.325429 -0.752206 
0.249625 -0.767218 0.120266 0.081093 -0.356570 0.873402 
-0.727741 0.975324 1.380376 0.329017 -0.858471 0.371664 
-0.479937 1.145677 1.337148 0.289072 -0.838425 0.446311 
0.841744 0.583619 0.739258 0.576821 0.675239 -0.406652 
0.376750 0.658647 0.239245 -0.116992 0.713655 0.016101 
0.348505 -0.406212 0.229245 0.452174 -0.309661 0.811562 
0.653893 0.687888 0.918669 -0.294857 -0.788337 0.525256 
0.572369 -0.534298 0.227313 0.457463 0.205230 -0.794849 
-0.354055 1.272736 1.242651 -0.073825 0.649054 -0.579748 
1.225407 0.474163 1.006628 0.534704 0.645742 -0.490428 
0.938659 1.171110 1.906447 -0.373551 -0.622804 0.684791 
-0.694781 -0.723523 0.246557 -0.373917 0.199907 -0.876613 
-0.655753 -0.095735 0.343411 -0.656326 0.214350 -0.644762 
-0.146080 0.115983 -0.116077 -0.470660 -0.016252 -0.876160 
0.972058 0.689220 1.321938 -0.433111 -0.732415 0.506115 
-1.368270 -0.133945 0.809618 -0.449942 0.382170 -0.762438 
1.359372 0.425537 1.450222 0.582768 0.716370 -0.009510 
-0.946018 0.501257 0.549251 -0.615771 0.429837 -0.624910 
0.603782 -0.913800 0.073212 0.194532 0.358954 -0.867327 
-0.932937 -0.686717 0.300168 0.161115 -0.554376 0.793522 
0.682216 -0.864656 0.116497 0.167272 0.428285 -0.841802 
1.028741 1.733204 2.465964 0.344093 0.584447 -0.731627 
0.797189 1.241241 1.887827 0.410501 0.631325 -0.634904 
0.077105 -0.698361 0.194466 0.221881 -0.448414 0.851896 
-0.846352 0.023372 0.495097 -0.573581 0.346588 -0.661863 
1.281792 1.540855 2.412802 -0.286724 -0.606993 0.737009 
-0.339017 -0.052751 0.368303 -0.452821 -0.266389 0.842946 
-0.604664 0.606042 0.396525 -0.522925 0.638793 -0.452522 
0.180139 1.200772 1.385247 -0.785684 -0.391388 -0.237202 
-0.533195 0.417597 0.113593 -0.646935 0.252460 -0.681960 
-0.637507 0.131157 0.358300 0.136994 -0.427505 0.854064 
1.303116 0.452082 1.160570 -0.454524 -0.725301 0.271293 
-0.552190 1.163448 1.669769 0.380151 -0.812781 0.407845 
1.236803 0.312577 0.867548 0.493315 0.609795 -0.571355 
1.016432 -0.590584 0.365609 -0.107951 -0.643764 0.725014 
-1.473383 0.912495 2.466982 -0.297682 0.863779 -0.376148 
0.826859 1.029672 1.738458 -0.366447 -0.642185 0.640008 
0.396310 -0.417614 0.172353 0.225723 -0.288010 0.895501 
-1.079293 0.699281 1.131973 -0.513822 0.729250 -0.385773 
0.486213 -0.543670 0.158502 0.523589 0.134757 -0.769444 
0.051714 1.127979 0.507779 -0.129315 0.376137 0.890159 
-1.381435 0.322859 0.931782 -0.572611 0.444559 -0.659320 
0.120058 0.882515 0.512455 0.246447 -0.177692 0.948105 
-1.067699 0.920123 1.928784 0.228008 -0.871539 0.270553 
0.436966 1.403789 1.853709 -0.197184 -0.554884 0.799791 
0.584162 1.076914 1.620327 -0.279878 -0.807960 0.461892 
-0.246182 -0.894510 0.062292 0.127756 -0.371313 0.883074 
1.033266 1.368279 2.152005 -0.358282 -0.514307 0.775160 
-0.857924 -0.678742 0.299839 -0.266827 0.405779 -0.823835 
-0.020729 1.218813 0.435734 0.011732 0.701765 0.694888 
1.282233 1.314698 2.215125 -0.278345 -0.463834 0.838304 
0.238355 1.080674 0.276649 0.881776 0.419840 -0.068579 
0.726139 1.575052 2.159118 0.400318 0.645464 -0.639243 
-1.680202 0.410255 1.226684 -0.484164 0.417129 -0.760671 
-0.651367 1.401900 2.450471 0.563714 -0.767038 0.304659 
0.231729 -0.305800 -0.071320 0.527057 -0.117921 -0.838900 
0.373127 -0.483846 0.161389 0.228610 -0.292805 0.904954 
-0.156163 1.216481 0.249542 -0.760595 0.596795 -0.149131 
-0.008627 -0.914730 -0.080396 -0.511813 0.170942 -0.810747 
0.752939 0.272202 0.387948 0.657724 0.286352 -0.636843 
-0.843449 1.261454 2.476414 -0.560537 0.691176 -0.438491 
-0.050319 -0.053616 0.463724 -0.110889 -0.314748 0.941749 
0.883566 0.543118 0.818205 -0.330937 -0.750111 0.556364 
0.369528 -1.323608 -0.052057 0.884795 0.226079 -0.039903 
1.438175 1.697548 2.594854 0.303870 0.587047 -0.746586 
0.143761 1.387535 1.692122 -0.279148 -0.563676 0.764627 
1.162629 1.374826 2.212354 0.299974 0.727443 -0.609408 
0.079906 -1.112776 -0.103025 0.079410 -0.462103 0.733454 
-1.494931 0.624369 1.309569 -0.194775 -0.445397 0.616001 
-1.568926 0.894898 2.133361 -0.105273 0.989195 -0.036027 
1.496097 0.891313 2.024875 -0.337848 -0.357803 0.861618 
-0.582475 1.401877 2.281828 0.528876 -0.752030 0.373523 
-0.302080 0.464471 0.446894 -0.231435 0.058380 0.969360 
1.147582 0.590675 1.260909 0.529815 0.685020 -0.459431 
-0.698033 0.727890 0.807034 0.564868 -0.625288 0.480063 
0.450097 1.317781 1.805896 -0.304083 -0.667262 0.671048 
0.389922 0.921092 1.011842 0.112079 0.784958 -0.551660 
1.525654 1.135615 2.189253 0.332621 0.360745 -0.863787 
-1.383505 0.575023 1.217276 -0.443301 0.598789 -0.596903 
0.574541 0.001961 0.305810 -0.150749 -0.384430 0.878333 
0.992353 0.344281 0.654434 0.602408 0.455328 -0.596529 
-1.244223 0.909045 2.349824 -0.358173 0.870660 -0.323037 
-1.105639 0.670859 1.042846 -0.543402 0.682484 -0.430902 
1.250412 0.920639 1.847823 0.515800 0.670750 -0.501326 
0.157644 0.151915 0.519995 0.273587 -0.209458 0.929677 
-0.545032 0.660041 0.547752 -0.017692 0.867644 -0.373842 
0.170831 1.194346 0.235539 0.803446 0.551981 -0.211613 
0.124591 -0.416067 -0.089142 0.317948 -0.263039 -0.891307 
0.247771 -0.972234 0.023921 -0.258342 -0.358700 0.885750 
-0.541034 -0.204944 0.225095 0.014428 -0.318148 0.917491 
0.774942 0.480417 0.667541 -0.314338 -0.653551 0.655399 
-1.488757 0.166298 0.989199 0.508580 -0.388282 0.739807 
-0.641107 1.128779 1.803445 0.509644 -0.789536 0.295008 
-0.824226 0.833374 0.966131 -0.644155 0.668357 -0.295162 
0.882664 0.599007 0.920449 -0.339513 -0.744779 0.556734 
0.578870 1.497683 1.995474 0.455206 0.655610 -0.578829 
-1.168583 0.442314 0.815231 0.505867 -0.571150 0.625604 
-0.621083 0.643227 0.671325 0.649947 -0.586563 0.460217 
1.850126 1.377147 2.455815 0.241401 0.584286 -0.768869 
0.201822 -0.194381 0.377298 0.296325 -0.308028 0.886528 
1.401418 1.348383 2.283479 0.264162 0.754903 -0.591986 
-0.476201 1.185344 1.607799 0.404157 -0.779744 0.399495 
-1.700210 0.810081 1.849605 -0.114074 0.961425 -0.180147 
0.019847 1.218752 0.131183 0.439687 0.281860 -0.840528 
0.297613 1.509984 1.853163 0.084097 0.842276 -0.443998 
-1.320799 0.136770 0.858462 -0.547395 0.379069 -0.708273 
1.408539 0.004332 0.865733 0.316816 0.648714 -0.550468 
0.479638 -1.000703 0.028363 0.262372 0.212446 -0.902166 
0.701315 -0.713642 0.245904 -0.153864 -0.356356 0.863942 
-0.920903 0.442313 0.627999 0.352625 -0.542355 0.722236 
-0.644870 1.357354 2.289976 0.505618 -0.741180 0.422935 
0.609617 0.202334 0.383346 -0.231837 -0.446474 0.839567 
-0.011289 0.786820 -0.099342 -0.396143 0.276591 -0.870584 
0.308424 0.751119 0.392963 0.758656 0.218766 0.550852 
-0.374716 -1.115689 -0.016402 -0.342622 0.077688 -0.927227 
-0.541760 0.477655 0.521333 0.315286 -0.707364 0.614518 
1.074908 0.983796 1.786214 0.484778 0.755415 -0.415727 
-1.006177 -0.590160 0.389022 0.205065 -0.523636 0.792373 
-0.706009 1.284707 2.283731 -0.679533 0.643408 -0.342264 
-0.231795 0.971807 0.121855 -0.714441 0.395093 -0.523122 
1.657055 1.789658 2.754706 0.274185 0.620899 -0.732700 
0.102325 -0.205135 0.395730 0.123558 -0.323788 0.937277 
0.485904 1.433174 1.905609 -0.194527 -0.569237 0.791130 
-0.858852 0.918612 1.433640 -0.514189 0.782150 -0.220643 
-0.862908 -0.756041 0.234774 -0.162844 0.541840 -0.802065 
0.003121 0.114087 0.528997 0.094313 -0.260464 0.954966 
-0.087123 0.342035 -0.137936 -0.425089 0.039932 -0.901281 
0.776743 0.559993 0.781634 -0.291657 -0.755676 0.573432 
-0.428923 0.459738 0.437983 0.264422 -0.622379 0.524069 
1.067235 0.637218 1.255658 0.543263 0.690912 -0.458217 
-0.597631 1.300209 2.057011 0.488710 -0.701823 0.508147 
0.285098 -0.313272 0.302011 0.460133 -0.312446 0.816442 
-1.565992 0.879299 2.047206 0.080274 -0.967372 0.102233 
0.142844 1.127466 0.545698 -0.331579 0.136513 0.892563 
-0.740241 0.682147 0.618648 -0.483128 0.677213 -0.497428 
0.716267 0.814836 1.148620 0.588035 0.754073 -0.240826 
-1.099393 -0.018511 0.670778 -0.512328 0.360587 -0.727227 
1.133202 0.632292 1.421782 -0.482872 -0.732008 0.400170 
0.355068 1.460167 1.827481 0.511331 0.679363 -0.499279 
1.053685 1.780958 2.519440 0.350761 0.560105 -0.748172 
-1.417510 0.899034 2.149504 -0.183729 0.952574 -0.116402 
-0.176490 1.136064 0.164800 -0.663246 0.470411 -0.504537 
0.503411 0.809183 0.872864 0.150284 0.801697 -0.550650 
0.992015 1.541429 2.276471 0.347094 0.635194 -0.687832 
0.227631 0.397016 0.508519 0.273510 0.024786 0.957780 
-0.298562 0.720330 -0.031098 -0.630210 0.410085 -0.640720 
-0.199204 0.224402 0.518108 -0.315325 -0.135607 0.926612 
-1.207677 -0.192874 0.724353 -0.502258 0.264267 -0.794258 
-0.579124 1.201425 1.817096 -0.701709 0.626690 -0.192541 
0.426295 0.044647 0.054577 0.686888 0.041563 -0.709660 
-0.499935 1.304078 1.860657 -0.724222 0.645237 -0.156842 
-0.362251 1.275776 1.427001 0.272178 -0.852715 0.435908 
-0.725979 0.657687 0.760132 0.390510 -0.670731 0.579476 
-0.458735 1.212524 1.319412 -0.745715 0.614073 -0.078871 
0.041041 -0.763774 -0.030502 0.218786 0.063694 -0.952829 
-1.755657 0.829985 2.495207 0.210304 -0.913087 0.344161 
-0.798278 0.631377 0.740236 0.210152 -0.717611 0.653493 
0.023401 -0.429032 0.306704 0.011479 -0.194926 0.980525 
-0.020967 0.372957 -0.166293 -0.413818 0.069567 -0.905433 
-0.685860 0.203708 0.324296 -0.674239 0.249339 -0.644421 
1.189414 0.624556 1.567432 -0.573322 -0.717627 0.290191 
-0.131797 1.224038 0.401478 -0.267023 0.837225 0.317931 
0.140854 -0.124418 -0.118843 0.495760 -0.060183 -0.857087 
-0.321293 1.518495 1.894065 -0.423492 0.848995 -0.124292 
1.480732 0.614201 1.811853 -0.467159 -0.532939 0.697393 
-0.356906 0.692768 0.176839 -0.717696 0.505263 0.020877 
0.647134 0.747159 0.983041 -0.243258 -0.796265 0.548686 
1.692507 0.309259 1.114878 0.324836 0.803485 -0.441820 
-0.140593 0.928829 0.027575 -0.554927 0.473058 -0.656879 
0.497684 0.909022 1.185655 -0.199858 -0.798777 0.557193 
-0.477026 -0.422332 0.138652 -0.016265 -0.272004 0.951911 
-1.085151 0.874209 1.679388 -0.300771 0.943777 -0.032268 
-0.921090 0.825384 1.375913 0.359466 -0.865874 0.329286 
0.164344 0.332709 -0.098379 0.437530 0.006242 -0.895565 
-1.142036 0.907394 1.878372 -0.240940 0.968182 -0.035111 
-0.911723 1.040989 2.221843 -0.560169 0.746751 -0.328323 
0.558424 -0.346418 0.248311 0.590922 0.169089 -0.702511 
-0.122002 0.709289 0.481927 -0.103341 0.106235 0.982832 
-0.085835 0.565121 -0.115796 -0.361099 0.086818 -0.920295 
1.041057 0.144006 0.708082 0.504325 0.506678 -0.640834 
-0.803297 0.286824 0.437721 -0.654910 0.320981 -0.628290 
0.097051 -0.336942 -0.119027 0.381521 -0.199366 -0.886596 
-0.328107 1.330661 1.293779 -0.271687 0.721729 -0.486907 
0.870109 0.217462 0.545538 0.634346 0.367690 -0.602755 
0.903380 1.363707 2.076112 0.359606 0.699168 -0.613555 
-0.586625 0.193464 0.331130 0.123518 -0.442956 0.868209 
-0.879617 0.790560 0.928409 -0.636698 0.651272 -0.343662 
-1.345074 0.259330 0.895153 -0.562717 0.425518 -0.674024 
-1.051845 1.380178 2.833491 0.341627 -0.757811 0.549675 
-0.991650 0.759049 1.299114 0.386065 -0.830642 0.361357 
-0.847758 1.011778 1.901749 -0.463392 0.858938 -0.102328 
-0.558934 1.468721 2.381231 -0.453168 0.853132 -0.210342 
-0.179364 0.178110 -0.097472 -0.458637 -0.020117 -0.883449 
0.723960 0.608687 0.604556 0.565932 0.670452 -0.399340 
0.268861 -0.210391 -0.050095 0.514432 -0.119197 -0.847127 
0.380932 0.878252 0.935563 -0.498271 -0.800083 0.321431 
0.606615 -0.838007 0.134590 0.263030 0.286986 -0.857691 
1.026754 0.300216 0.709152 0.596693 0.478786 -0.582056 
1.117758 0.590965 1.196259 0.541345 0.673701 -0.490935 
1.332961 0.546862 1.601743 0.581634 0.502919 -0.388949 
0.611060 -0.196749 0.285237 -0.091415 -0.338723 0.890652 
-0.641809 0.880857 0.858294 -0.161446 0.785311 -0.541768 
-0.326027 -0.435722 0.055212 -0.716761 -0.000099 -0.675308 
-0.330742 -1.027741 -0.028471 -0.151564 0.099101 -0.940615 
0.146439 0.390556 0.559671 0.299342 0.029083 0.948484 
1.192449 1.108831 1.976326 0.418719 0.634325 -0.636557 
0.823285 0.492872 0.585899 0.607397 0.510120 -0.518276 
0.396743 -1.007126 -0.001694 0.311307 0.124607 -0.928294 
1.016664 -0.221009 0.583240 -0.269121 -0.515565 0.716671 
-0.451536 1.090185 1.163872 0.281328 -0.799820 0.524790 
1.699430 0.674249 2.008003 -0.443619 -0.479418 0.744865 
-0.278855 0.794496 0.054934 -0.707996 0.431395 -0.477176 
-0.663329 -0.278872 0.314481 -0.541375 0.240862 -0.726452 
0.076277 0.237087 0.549266 0.178953 -0.131652 0.962645 
1.561914 0.474480 1.732900 0.555568 0.516028 -0.533727 
1.396335 1.158852 2.167539 -0.336717 -0.635779 0.673380 
-0.537284 -0.666842 0.143366 0.135904 -0.287883 0.923731 
-0.039199 -0.394340 0.312629 0.015071 -0.213929 0.972004 
0.059027 0.834278 0.511084 0.187176 -0.211768 0.950554 
0.931747 0.599781 0.868789 0.565792 0.705790 -0.397096 
0.494226 0.058275 0.314753 0.001236 -0.341249 0.887483 
-0.133488 1.122655 0.377865 -0.875140 -0.076621 0.350080 
0.213670 1.214968 0.557213 -0.512007 0.660051 0.461417 
1.418055 1.563045 2.477005 0.283602 0.634467 -0.717377 
-1.193569 0.914754 2.132268 0.209078 -0.971603 0.018003 
-0.126753 1.134274 0.111899 -0.488954 0.444112 -0.744288 
0.087890 0.075303 -0.148627 0.480604 0.001043 -0.870595 
0.778905 0.680440 0.827750 0.558287 0.758807 -0.322775 
0.584302 0.900844 1.159638 0.614416 0.752670 -0.195064 
-0.735781 0.871900 1.140581 0.333190 -0.797568 0.476593 
0.217625 0.098067 -0.076501 0.475946 -0.050589 -0.873040 
1.010844 0.985898 1.716718 0.482060 0.712640 -0.501810 
0.893198 1.276881 1.993163 -0.303560 -0.733722 0.596868 
-1.329239 1.143036 2.685911 -0.355759 0.726292 -0.572165 
1.185006 -0.392881 0.541198 -0.140895 -0.688791 0.659880 
-0.520328 1.317483 1.930905 -0.720907 0.640499 -0.185376 
-0.301520 0.545638 -0.057466 -0.529851 0.070011 -0.831351 
0.576399 0.627751 0.436720 0.432974 0.766047 -0.337155 
-0.268647 -0.366052 -0.033939 -0.592090 -0.103578 -0.788016 
1.042529 0.675445 1.341158 0.540785 0.705455 -0.441143 
0.958329 -0.642961 0.318453 -0.103471 -0.615194 0.748572 
0.912015 1.045720 1.738323 0.439418 0.832428 -0.336395 
-0.912874 1.075900 2.288253 0.577943 -0.655628 0.468602 
-0.643066 0.541200 0.363072 -0.571869 0.437439 -0.611548 
0.677676 0.008798 0.376841 0.684993 0.229596 -0.611116 
1.359703 -0.036920 0.823956 -0.240939 -0.660983 0.593247 
-0.097730 -0.155042 -0.131263 -0.441071 -0.100644 -0.873671 
1.118882 0.447020 0.801302 0.566844 0.569908 -0.565859 
0.193078 -0.295560 0.339092 0.248956 -0.321055 0.895493 
-0.978705 1.126368 2.462946 0.499987 -0.691985 0.510085 
0.257623 1.212162 1.383851 0.416956 0.839623 -0.300897 
-1.334045 0.832279 1.723145 -0.203154 0.966482 -0.081559 
1.260049 1.146279 2.072509 -0.370950 -0.611606 0.688162 
-1.053922 0.391643 0.702515 -0.622169 0.464653 -0.580299 
0.809338 -0.816734 0.163942 0.096448 0.568237 -0.803541 
-0.012186 -0.201974 0.392474 0.006683 -0.340530 0.935580 
1.351018 1.535490 2.432094 -0.280917 -0.606896 0.739027 
-0.949637 0.976660 2.015920 0.347205 -0.924607 0.082387 
0.286268 0.519395 -0.060815 0.490785 0.022745 -0.860746 
0.645806 0.128142 0.302449 0.687065 0.209050 -0.637049 
-1.668282 0.858342 2.337703 0.157182 -0.948080 0.207220 
0.669173 0.939177 1.438307 0.616838 0.695509 -0.326222 
0.287812 0.100013 -0.037548 0.474743 -0.080097 -0.873485 
-0.502441 1.217319 1.680569 0.385491 -0.824633 0.368366 
0.752598 -0.248331 0.416452 0.491772 0.317866 -0.723917 
-1.837919 0.698377 1.543303 -0.062890 0.835940 -0.422677 
0.937192 0.540250 0.766121 0.572284 0.645300 -0.456983 
-1.043758 0.670007 0.989153 0.457172 -0.677740 0.544505 
-0.109050 1.069523 0.086659 -0.455314 0.445014 -0.748010 
0.209126 0.577761 -0.079448 0.435447 0.083000 -0.876251 
0.836847 0.823435 1.487163 -0.388435 -0.753039 0.497601 
1.297735 1.258562 2.165055 0.330485 0.293280 -0.892356 
-0.535607 0.473400 0.178424 -0.608405 0.387528 -0.589845 
1.073261 0.944466 1.721237 0.487161 0.641029 -0.585072 
0.950314 1.294395 2.045609 -0.310438 -0.754975 0.575456 
0.315955 1.001765 1.127765 -0.634714 -0.640397 0.070792 
-1.382491 0.742243 1.520980 -0.042657 0.665051 -0.632125 
0.870870 -0.524130 0.409133 0.319628 0.361095 -0.751736 
1.189725 1.656762 2.474133 0.317876 0.596078 -0.735278 
-0.114771 1.240745 0.189428 -0.667149 0.537790 -0.472399 
0.615495 0.823889 0.951926 0.520846 0.782494 -0.273783 
1.013211 0.725888 1.460995 0.536732 0.724707 -0.420533 
-0.119957 0.385096 0.561752 -0.247112 0.021226 0.960062 
0.183149 1.027873 0.522447 0.340166 -0.335145 0.798781 
-0.245699 1.054458 0.346882 -0.896393 0.403074 0.130812 
0.513680 -0.396489 0.204905 0.595965 0.138393 -0.710374 
1.250666 1.029142 1.968825 -0.352764 -0.474109 0.779608 
-1.058516 1.107089 2.508976 0.455273 -0.691179 0.553338 
-0.272546 -0.030529 0.408192 -0.389848 -0.275478 0.866833 
-1.322163 0.685706 1.367632 -0.013871 0.554353 -0.636346 
-0.343160 -0.189796 0.020566 -0.659525 -0.009738 -0.730058 
0.512505 0.163678 0.131234 0.714759 0.116110 -0.671565 
-0.091899 -0.228063 0.385868 -0.101641 -0.328359 0.937446 
0.169254 0.071995 0.493957 0.270929 -0.279248 0.918525 
-0.632538 0.111053 0.289999 -0.689456 0.209829 -0.641480 
1.103808 1.820816 2.589364 -0.257753 -0.655689 0.699664 
-0.672258 1.079348 1.530094 -0.617842 0.673754 -0.255693 
1.069533 1.651036 2.415735 0.326200 0.611543 -0.718741 
0.730543 0.434688 0.409857 0.641862 0.366250 -0.592186 
-0.251296 0.301220 0.506174 -0.345594 -0.057995 0.926829 
1.052977 0.236039 0.732998 0.553986 0.504579 -0.602081 
0.825182 1.689557 2.344085 -0.301524 -0.682317 0.664915 
0.317595 0.847384 0.326816 0.909114 0.246819 0.268487 
-0.501574 0.950015 0.939337 0.720053 -0.641566 0.235397 
-0.514093 0.139881 0.140308 -0.695738 0.151891 -0.678809 
0.185247 0.294655 0.540695 0.328338 -0.055241 0.934613 
-1.383949 1.057976 2.606271 -0.326815 0.774450 -0.507995 
0.125358 1.331661 1.631908 -0.157857 -0.672021 0.694665 
0.128067 -0.077593 0.444121 0.184398 -0.304127 0.931778 
0.404867 0.304411 0.408707 0.202688 -0.145493 0.920747 
-1.105057 0.378458 0.755722 0.452712 -0.544167 0.655566 
1.284135 0.494103 1.215508 0.491048 0.716008 -0.247247 
-0.377249 0.532407 0.065861 -0.515181 0.322251 -0.616495 
-0.975867 0.939172 1.832549 -0.336845 0.933729 0.002249 
0.264595 0.620546 -0.067246 0.520612 0.158833 -0.817542 
-0.860172 0.565008 0.698137 0.281808 -0.644913 0.680403 
0.156218 0.450763 -0.085901 0.401061 0.025065 -0.910219 
-0.364071 1.290384 1.585302 0.368071 -0.717446 0.580290 
0.319037 0.290007 0.451498 0.313472 -0.081285 0.930598 
-0.527623 1.070634 1.105757 -0.713028 0.675170 -0.115805 
0.438170 -0.357559 0.158741 0.117887 -0.272398 0.927969 
1.082061 0.836359 1.677857 -0.505738 -0.780626 0.354984 
-0.801917 0.171704 0.472145 -0.668524 0.305631 -0.607142 
1.443385 0.395810 1.215805 0.439546 0.765421 0.035620 
-0.942578 -0.446439 0.479363 0.311290 -0.308158 0.861570 
1.682121 0.955179 2.180347 -0.358322 -0.434841 0.823729 
-0.074621 0.146516 -0.155395 -0.469900 0.017077 -0.877474 
-0.963655 0.753506 1.189078 0.396621 -0.783789 0.429923 
1.335045 0.722826 1.753571 0.454566 0.428529 -0.760169 
-0.434441 0.613306 0.312568 -0.343577 0.862050 -0.236347 
0.528348 0.832263 0.939545 0.041380 0.798394 -0.592793 
-1.217891 0.565655 0.844554 -0.587918 0.573513 -0.567624 
0.668958 0.999943 1.552554 0.588448 0.625114 -0.431574 
0.503170 -0.012788 0.275863 -0.048085 -0.343665 0.899692 
-0.214612 0.708091 -0.066511 -0.508617 0.284526 -0.774993 
0.771171 0.385716 0.375689 0.649071 0.300904 -0.650962 
0.017107 1.327591 0.310789 0.324160 0.654216 0.633406 
1.140014 0.856054 1.738014 -0.521863 -0.777920 0.329031 
-0.521829 0.620153 0.328580 -0.505139 0.764907 -0.321660 
0.146232 -0.007329 0.470274 0.222011 -0.292592 0.928221 
-1.190456 0.868585 1.822494 0.127237 -0.773598 0.494543 
-0.940691 -0.359625 0.495092 0.326491 -0.340105 0.835968 
-1.632891 0.631857 1.352274 0.146377 0.488924 -0.700748 
1.413286 0.552076 1.682476 -0.608769 -0.680150 0.260708 
0.635231 0.869118 1.294319 -0.275111 -0.781260 0.533360 
-0.261184 1.304492 1.269529 0.178081 0.552233 -0.686297 
0.578323 0.702849 0.765331 -0.600986 -0.680785 0.371353 
0.346843 0.980779 1.233295 -0.492298 -0.801599 0.331466 
0.923267 1.225055 1.953617 -0.354090 -0.678750 0.638416 
-1.471631 0.669172 1.390066 0.103002 0.496610 -0.728507 
0.288288 0.086583 0.441658 0.360154 -0.254264 0.891491 
-0.926449 0.859159 1.447033 -0.475317 0.809348 -0.268338 
-0.168068 1.214113 0.322767 -0.665391 0.715381 -0.045834 
-0.431864 0.880129 0.782436 -0.301491 0.706542 -0.635642 
0.495471 0.463060 0.144537 0.671831 0.353090 -0.534728 
1.351183 -0.200007 0.712535 0.195734 0.730452 -0.589109 
0.308632 -0.532396 0.000578 0.581824 -0.033786 -0.777172 
-0.408114 0.222930 0.021027 -0.558610 0.042195 -0.805081 
1.419960 1.033297 2.086414 0.398144 0.520983 -0.741668 
1.439949 -0.097962 0.803294 -0.188940 -0.760260 0.561089 
-0.453835 0.007780 0.307780 -0.212064 -0.282215 0.897145 
0.474039 -0.455756 0.123552 -0.022553 -0.264276 0.959550 
-1.101001 0.896131 1.812368 -0.257164 0.965394 -0.036285 
-0.730329 1.220361 2.218712 -0.669773 0.661649 -0.322899 
-0.280960 -0.434795 -0.019308 -0.595670 -0.077305 -0.779546 
-0.232402 1.029024 0.415935 -0.808381 0.276443 0.389551 
0.715642 0.821673 1.294635 -0.313415 -0.775816 0.520979 
0.451952 1.241567 1.704881 -0.117301 -0.681970 0.678434 
-0.428253 0.548023 0.145381 -0.530276 0.523768 -0.467090 
-0.117976 1.271385 0.315465 -0.630365 0.708820 0.186431 
0.169631 -0.344609 -0.093210 0.461572 -0.160503 -0.859321 
0.519330 0.873570 1.126298 -0.204821 -0.801821 0.555320 
-0.434056 1.266194 1.403149 -0.757204 0.591199 -0.065182 
-0.143656 -0.242593 -0.108905 -0.468736 -0.119227 -0.860121 
-1.402074 0.091160 0.912632 0.481216 -0.383576 0.752663 
1.061491 -0.534943 0.414913 -0.117976 -0.653486 0.707800 
0.884723 0.695676 1.077363 0.573966 0.710448 -0.347502 
0.350278 0.656636 0.004150 0.615504 0.334018 -0.659182 
-0.393099 1.468947 2.056879 0.664926 -0.634603 0.393497 
-0.367056 0.626291 0.056003 -0.574167 0.425607 -0.564867 
0.490674 -0.787512 0.120403 0.362219 0.169958 -0.884022 
1.663502 0.384602 1.124928 0.363184 0.800217 -0.436001 
0.622006 0.124345 0.373736 -0.207976 -0.428103 0.845114 
-0.290686 -0.770310 0.108964 -0.118590 -0.325061 0.878961 
-0.720916 0.049851 0.406586 0.163534 -0.408536 0.829198 
0.786991 0.381654 0.568041 -0.347569 -0.534390 0.751387 
0.753735 0.037297 0.459811 0.667190 0.283363 -0.599202 
0.757942 -0.876095 0.129054 0.105343 0.527296 -0.820167 
1.488661 1.475761 2.425745 0.269083 0.685404 -0.667545 
-0.991311 1.291149 2.705225 0.400138 -0.749945 0.521488 
-0.189096 -0.890865 -0.029178 -0.012135 0.074702 -0.985617 
1.501522 0.352482 1.577779 0.664271 0.566522 -0.198876 
0.405198 0.127663 0.396067 0.344015 -0.246804 0.881218 
1.549474 1.912753 2.821242 0.291759 0.604517 -0.738736 
0.394143 1.046331 1.169829 0.190376 0.782622 -0.507146 
-1.280235 -0.171504 0.769511 -0.490583 0.293173 -0.787486 
-0.081156 -0.536166 -0.041566 0.017197 -0.289973 -0.950904 
-0.285601 0.240762 -0.038606 -0.442253 -0.053166 -0.892677 
0.858296 0.666925 0.933948 0.578491 0.713093 -0.340998 
0.128207 1.184819 0.149211 0.579562 0.457023 -0.637984 
-1.037326 0.165912 0.667335 0.435894 -0.505424 0.692369 
-0.033316 1.083822 0.067413 -0.322126 0.453695 -0.820606 
0.558879 -0.221284 0.237920 -0.067327 -0.320501 0.912944 
-0.041471 -0.200123 -0.147796 -0.362177 -0.158099 -0.898975 
0.485737 0.418911 0.446867 -0.471087 -0.521533 0.688664 
0.382683 -0.025761 0.011853 0.615015 -0.010031 -0.769508 
-0.468666 0.530961 0.519522 0.541503 -0.651028 0.491705 
-0.168861 1.207207 0.513392 0.387197 0.715169 0.486827 
-0.342116 0.770985 0.187621 -0.943454 0.286290 -0.142194 
-1.068732 0.322006 0.718312 0.428966 -0.528102 0.672714 
-1.429788 0.017754 0.921009 -0.543402 0.305897 -0.758523 
-0.376487 -0.402846 0.096486 -0.698758 0.035596 -0.676881 
0.145433 -0.609757 -0.015403 0.026364 -0.126763 -0.986217 
-0.686146 0.653460 0.531898 -0.497841 0.666026 -0.476646 
0.476457 0.032148 0.127535 0.728040 0.088845 -0.658386 
-0.428888 -0.289458 0.190666 -0.187658 -0.267447 0.921470 
0.842478 -0.295097 0.467968 -0.291894 -0.443257 0.777316 
0.660430 1.416738 1.988935 -0.251351 -0.554548 0.782524 
-0.320241 -0.463262 0.225457 -0.476893 -0.316009 0.811349 
-0.957120 0.158359 0.595489 -0.564581 0.415999 -0.643442 
1.222709 -0.113391 0.728018 0.341687 0.556513 -0.614124 
1.609564 0.784638 2.026865 -0.394071 -0.423954 0.799967 
-0.807279 1.035077 2.008864 -0.575827 0.788343 -0.214535 
-0.042880 1.368065 0.251934 -0.595359 0.699353 0.111180 
1.064518 0.395463 0.790682 -0.434497 -0.599709 0.647918 
0.191763 -0.604481 0.221100 0.268252 -0.391983 0.879089 
-0.475471 -0.829408 0.084889 -0.372912 0.151367 -0.894438 
-0.342065 -0.630885 0.028675 -0.583831 0.033158 -0.768294 
1.566787 0.842079 2.034227 0.453036 0.502096 -0.703542 
1.459056 0.953980 2.043862 0.434785 0.527147 -0.696117 
0.561540 0.516117 0.285979 0.646350 0.486812 -0.460762 
1.595618 0.652172 1.911757 -0.415371 -0.433086 0.772282 
-0.009004 0.715448 -0.116640 -0.248245 0.209756 -0.941447 
0.796714 1.570823 2.195907 0.388093 0.636302 -0.661870 
-1.483118 0.592860 1.217876 0.186341 0.347382 -0.763899 
-0.623255 0.463518 0.481467 0.222522 -0.586251 0.761291 
0.458389 0.742836 0.710834 0.328895 0.828952 -0.432247 
-0.441794 1.291330 1.647871 -0.759489 0.540302 -0.117978 
-1.491614 0.785081 1.628513 -0.172223 0.893112 -0.397241 
-1.586888 0.550105 1.166986 -0.343937 -0.234538 0.864019 
-0.811524 1.314870 2.532419 0.506988 -0.749963 0.405787 
1.427343 0.401446 1.108867 0.454743 0.732028 -0.195684 
-0.379432 0.631683 0.525777 0.669051 -0.571558 0.453460 
1.884865 1.188634 2.293154 -0.226282 -0.506815 0.830278 
0.820188 -0.363901 0.431929 -0.268914 -0.429320 0.791278 
-1.708815 0.615416 1.337408 -0.181525 -0.500871 0.665377 
0.969115 0.843232 1.579761 0.468976 0.602276 -0.582781 
0.068655 0.724420 -0.100031 0.314683 0.244990 -0.899644 
-0.996397 -0.268680 0.552687 0.351694 -0.358585 0.815224 
-1.401828 0.901713 2.042371 0.124255 -0.944874 0.129507 
-0.142633 0.625611 -0.095643 -0.392510 0.129513 -0.887250 
