-0.232536 1.079867 0.550848 -0.533875 0.613257 -0.577363 
-0.315413 1.390049 1.874457 0.754902 -0.595562 0.256734 
-1.202613 0.316449 0.871392 -0.707262 0.469402 -0.507099 
0.335347 0.974139 1.260242 -0.597659 -0.730147 0.290225 
1.438417 1.293217 2.615616 -0.433567 -0.607837 0.664385 
-1.206381 0.641220 1.988270 0.293876 -0.831387 0.262995 
0.877835 -0.290786 0.567342 -0.443630 -0.432756 0.696503 
0.236710 1.223451 1.505420 0.843548 0.506238 -0.159674 
0.936741 1.618081 2.570212 -0.600070 -0.284630 0.736178 
0.260412 1.094015 1.274089 -0.785030 -0.354078 -0.225964 
-1.175898 -0.119074 0.818753 -0.639720 0.303562 -0.651705 
0.632609 0.810907 1.453418 -0.463423 -0.729897 0.457497 
-0.354416 0.715163 0.177906 -0.945792 0.277607 -0.074704 
1.505624 0.742996 2.274512 0.503076 0.366108 -0.777480 
-1.281596 0.313737 0.946592 -0.716930 0.457150 -0.511650 
1.105220 1.216133 2.323205 0.469024 0.664493 -0.572583 
0.208422 1.133849 0.584921 -0.382363 -0.071764 0.867028 
-0.181045 0.812971 -0.032058 -0.541900 0.421722 -0.701060 
-0.266832 0.047641 0.426047 -0.369060 -0.258140 0.884657 
1.442451 1.207530 2.537677 0.433155 0.656872 -0.607362 
-0.044244 -0.269584 -0.154449 -0.345906 -0.195577 -0.901041 
-0.614544 1.087125 2.131627 -0.799035 0.561970 -0.153384 
0.148075 1.058129 0.083264 0.537984 0.417499 -0.712349 
-1.326787 0.347162 1.223003 0.573714 -0.543517 0.551755 
0.974002 0.492508 1.179976 0.692411 0.606420 -0.347751 
0.712886 0.119622 0.477062 -0.362419 -0.437311 0.761878 
-1.079999 0.067053 0.753611 0.585470 -0.444692 0.616232 
1.532639 0.372220 2.044355 -0.576998 -0.420410 0.679367 
0.360528 0.110988 0.396897 0.427187 -0.221634 0.874818 
-0.046450 1.696515 1.571252 0.854470 -0.379711 0.273727 
0.109912 1.272337 0.240508 0.709897 0.610751 0.042795 
0.333522 -0.944157 0.056982 -0.082633 -0.241482 0.947427 
0.684842 0.789591 1.528926 -0.496018 -0.714582 0.443535 
-1.015198 1.126885 2.970251 0.508861 -0.710793 0.473677 
-0.337065 1.283177 1.488575 0.429311 -0.834180 0.337825 
0.815260 0.066126 0.537205 0.729272 0.294533 -0.546996 
-0.312496 -1.369219 -0.029922 0.442379 -0.575553 0.442515 
-0.120080 0.142377 0.514551 -0.229171 -0.223928 0.938728 
0.093758 1.013279 0.035306 0.467901 0.454363 -0.735691 
-0.039984 -1.196982 -0.159477 -0.256233 0.272233 -0.926124 
0.215936 0.546041 0.474981 0.310571 0.072187 0.933223 
1.391701 1.601532 2.860591 -0.404913 -0.651362 0.638743 
-1.620049 0.473007 1.835315 -0.316153 0.920299 -0.159189 
0.736616 -0.796978 0.265826 -0.232016 -0.441995 0.805867 
-1.112127 0.408469 0.782865 -0.712322 0.472066 -0.500996 
1.008783 0.497759 1.360314 0.680378 0.619385 -0.375367 
-0.737198 -0.830540 0.243849 0.257894 -0.430246 0.823068 
0.970389 -0.695328 0.406105 -0.221116 -0.654734 0.686299 
0.375158 -1.012091 0.037668 -0.094979 -0.194425 0.926604 
0.056641 0.491795 -0.134870 0.369770 0.064343 -0.924108 
0.412360 0.996091 1.234349 0.782403 0.603459 -0.089613 
-0.360956 -0.118508 0.319927 -0.481796 -0.262103 0.831026 
0.387933 0.644512 0.401923 0.377710 0.900177 -0.073647 
0.088282 0.465304 0.540947 0.205066 0.078791 0.960537 
0.445621 1.035479 1.583937 -0.382397 -0.767808 0.460044 
0.576239 -0.167177 0.280884 -0.192680 -0.323418 0.877783 
1.484998 1.238261 2.592502 0.432562 0.634946 -0.633692 
1.106584 0.426235 1.606304 -0.705739 -0.625160 0.184386 
-0.732825 0.890800 1.459777 -0.698822 0.640159 -0.061413 
-0.552773 1.062879 1.786121 0.614183 -0.739469 0.197567 
1.129506 0.481418 1.678728 -0.707917 -0.643113 0.174316 
-0.536702 0.635895 0.630911 0.770121 -0.480149 0.401247 
-1.513069 0.548056 2.038922 -0.289295 0.943378 -0.031614 
0.868659 0.200430 0.645163 -0.471331 -0.492625 0.669698 
-0.377880 -0.703066 0.123391 -0.088990 -0.263960 0.915185 
1.129931 1.562560 2.660912 -0.390747 -0.689399 0.608939 
-0.688448 1.208307 2.632226 -0.710195 0.593065 -0.344786 
-0.614716 0.998130 1.756508 -0.731421 0.610396 0.018818 
-0.724674 1.207536 2.707801 -0.651892 0.653098 -0.352401 
-0.858017 -0.707346 0.388310 -0.393965 0.363628 -0.775951 
0.609155 0.714414 1.050754 -0.411118 -0.757450 0.494020 
0.906341 0.467995 0.983185 -0.536361 -0.654369 0.505872 
-0.926300 -0.083312 0.582805 -0.613172 0.352873 -0.628218 
-0.388773 0.642947 0.523365 -0.127400 0.924728 -0.221427 
-0.804319 1.192654 2.860927 -0.572981 0.699214 -0.419840 
0.703849 0.380197 0.580401 -0.424262 -0.573402 0.664004 
1.131978 0.304700 0.907576 0.690811 0.547674 -0.465609 
-0.496325 1.209223 1.980874 0.636012 -0.645641 0.409314 
0.520738 -0.795402 0.168248 0.434104 0.159333 -0.836653 
-0.626232 -0.936627 0.115276 -0.281394 0.408582 -0.817913 
0.271404 0.593024 0.445979 0.543775 0.063445 0.787283 
0.384336 0.569080 0.044039 0.602998 0.270691 -0.620731 
-0.556217 0.349355 0.113035 -0.692466 0.185050 -0.689279 
1.543386 0.571604 2.212744 -0.537207 -0.402204 0.735781 
1.390577 -0.004965 1.019331 0.513603 0.640193 -0.458666 
1.267842 0.270247 1.342775 0.570934 0.680893 0.014634 
-1.231797 -0.068912 0.879498 0.589422 -0.366122 0.664092 
-0.280624 0.796006 0.045945 -0.706758 0.435961 -0.473797 
-0.596313 -0.182631 0.281030 0.141461 -0.312880 0.877632 
-0.203529 1.459957 1.627211 0.799420 -0.492024 0.292499 
0.140769 -0.257989 -0.121385 0.453831 -0.136218 -0.865072 
0.348155 -0.914380 -0.006189 0.437235 0.044419 -0.884713 
1.565712 1.387334 2.777106 -0.407837 -0.634352 0.655014 
-0.014354 0.983600 0.537627 -0.157565 -0.015333 0.984786 
0.070372 -1.123165 -0.112738 0.143126 -0.522356 0.637195 
1.324759 1.169617 2.432102 -0.427431 -0.511468 0.736513 
0.694889 1.385089 2.123797 0.575833 0.591248 -0.546716 
-0.396228 0.397104 -0.003380 -0.537984 0.034254 -0.824412 
-0.842237 -0.809367 0.286320 -0.271263 0.543621 -0.757640 
-0.518061 0.401998 0.080229 -0.673673 0.222591 -0.668693 
0.122721 0.628170 -0.111171 0.362809 0.123570 -0.904719 
-0.935048 0.725079 2.171337 0.418770 -0.898334 -0.084041 
-0.696238 0.323894 0.289514 -0.703910 0.247574 -0.636235 
0.536809 -0.227992 0.229226 -0.151241 -0.297197 0.907667 
-1.018690 -0.254454 0.660116 0.504456 -0.348477 0.721418 
-1.353867 -0.270546 0.920769 0.537248 -0.392619 0.686619 
-1.331502 0.333242 1.146119 0.594415 -0.517843 0.575828 
0.666700 1.563619 2.302431 -0.641586 -0.354551 0.666867 
0.711656 0.500101 0.559919 0.689857 0.518449 -0.391253 
0.459705 0.622748 0.412513 0.433968 0.836940 -0.164946 
-0.353010 0.640786 0.004692 -0.602542 0.338273 -0.634239 
1.215932 0.498751 1.777671 0.600198 0.381055 -0.629368 
-1.018999 0.373529 0.740300 0.553239 -0.521524 0.603310 
1.508422 1.619496 2.953662 -0.437300 -0.585340 0.679362 
0.568381 -0.751648 0.214976 0.438644 0.185688 -0.815885 
0.144007 0.307035 -0.123091 0.446809 0.011823 -0.891548 
-0.124007 -0.232331 -0.128569 -0.447177 -0.130438 -0.867636 
-0.873689 0.825619 2.351102 -0.648355 0.704984 -0.242852 
1.379794 0.222418 1.739608 0.697103 0.442993 -0.351574 
1.032769 -0.080632 0.742807 -0.507933 -0.506909 0.611006 
-0.812831 0.434694 0.622121 0.398844 -0.582243 0.666777 
-0.441924 0.492450 0.083197 -0.594711 0.315642 -0.596009 
-0.613301 0.289643 0.370598 0.253338 -0.484172 0.817430 
0.413999 0.123445 0.019826 0.627412 0.008295 -0.755980 
1.147207 0.974466 2.111916 0.526316 0.502874 -0.657539 
0.817687 0.633207 1.383752 -0.547203 -0.707246 0.421048 
-0.511862 0.435915 0.465433 0.421928 -0.649365 0.612201 
-0.278717 -1.276675 -0.042239 0.313737 0.042444 -0.934538 
1.491893 0.634464 2.203089 0.556849 0.412385 -0.701414 
0.628324 0.474215 0.689785 -0.535446 -0.633066 0.514279 
0.055633 1.349868 0.232046 0.614437 0.681290 0.017258 
0.753544 -0.451884 0.428359 0.508690 0.293077 -0.716918 
1.128660 -0.018157 0.818132 0.580484 0.503998 -0.540846 
0.218082 0.573606 -0.087942 0.440374 0.073102 -0.875519 
0.211000 0.833422 0.445753 0.574676 0.010144 0.802651 
-0.811967 1.008159 2.566520 -0.671499 0.637422 -0.363698 
-0.778746 0.834169 1.441292 -0.676548 0.671583 -0.078078 
0.327428 1.070920 1.458624 -0.314843 -0.776972 0.522475 
-0.530589 0.281964 0.374630 0.027658 -0.410208 0.835784 
0.124685 -0.434730 0.292688 0.066925 -0.322790 0.943217 
0.825175 1.425346 2.298600 -0.439612 -0.610389 0.651566 
-0.276245 -0.337999 0.283754 -0.434633 -0.314312 0.826611 
-0.441275 0.553150 0.146258 -0.576665 0.512992 -0.438003 
1.531404 0.293862 1.981431 -0.593651 -0.428833 0.656172 
0.347969 0.702393 0.030045 0.640033 0.519864 -0.446197 
-0.877685 0.392739 0.626905 0.455561 -0.532155 0.667670 
0.444491 1.085539 1.663162 -0.398089 -0.559984 0.687179 
-0.252033 -0.762832 0.116968 -0.065079 -0.338511 0.878043 
0.576580 0.866039 1.478739 -0.438430 -0.736225 0.468521 
0.095875 0.553928 -0.124534 0.373534 0.072354 -0.915776 
-1.666400 0.446529 1.780580 -0.321240 0.913902 -0.202070 
0.820520 0.884192 1.697187 0.505247 0.381676 -0.744258 
-0.241946 0.415394 -0.064595 -0.418514 -0.008711 -0.903903 
-0.199159 -0.558050 -0.027407 0.054954 -0.221222 -0.957508 
-0.980091 0.991381 2.775426 0.560891 -0.697135 0.436219 
0.771718 1.392173 2.202134 0.554589 0.588245 -0.579465 
1.622853 1.343912 2.773952 -0.409757 -0.627533 0.660911 
0.946231 0.336124 0.687400 0.700771 0.448121 -0.500575 
-0.866835 1.119687 2.843499 -0.637830 0.566512 -0.516108 
0.659435 1.231609 1.947724 0.583204 0.625671 -0.491012 
0.564296 0.501789 0.288138 0.709623 0.458054 -0.411695 
0.963530 0.012339 0.694137 0.649470 0.409563 -0.567998 
-0.780188 1.167909 2.778462 -0.672377 0.560559 -0.467356 
-0.517664 1.286673 2.399460 0.788880 -0.547122 0.278909 
-0.946053 0.678315 1.704142 0.442557 -0.805506 0.078352 
0.908682 1.526027 2.467410 -0.446451 -0.656890 0.605168 
0.158782 1.149269 0.139134 0.606532 0.482069 -0.574273 
0.274655 0.992026 0.339430 0.925195 0.326027 0.189132 
1.068695 -0.516456 0.595669 -0.290685 -0.589463 0.652858 
-1.007388 0.875995 2.632916 -0.585784 0.693813 -0.394174 
-0.756220 -0.330295 0.407103 -0.564571 0.268904 -0.700610 
0.214253 1.417171 1.740996 -0.729787 -0.031451 0.650824 
0.688266 0.180441 0.341210 0.728513 0.215346 -0.602623 
-0.528214 0.105573 0.297021 0.090466 -0.388957 0.871104 
0.130289 1.102932 0.347593 0.794407 0.051593 0.495282 
-0.938970 1.163262 2.959511 0.556276 -0.644540 0.509423 
-0.952244 0.312165 0.601476 -0.719648 0.367278 -0.546623 
0.208086 1.043856 0.396287 0.275871 0.855110 0.261903 
0.282207 -1.203265 0.009082 -0.131629 -0.166866 0.968637 
-0.457728 1.308979 2.184033 0.690026 -0.665018 0.255326 
0.571313 1.517144 2.174120 -0.627122 -0.340557 0.653401 
-0.264984 -0.838126 0.079113 0.057692 -0.329962 0.877366 
0.047559 1.086781 0.060341 0.343632 0.457326 -0.807711 
-0.001796 1.265100 0.375404 -0.112831 0.752180 0.647294 
-1.112161 0.817612 2.650774 -0.549142 0.717679 -0.392306 
-0.255660 -0.610959 -0.019024 0.057516 -0.168656 -0.945310 
-0.734378 1.063689 2.415619 0.626945 -0.666570 0.400663 
-0.641424 1.024740 2.088445 -0.789804 0.579425 -0.143154 
0.571861 0.032685 0.321767 -0.259083 -0.383062 0.847568 
-1.302013 0.625955 2.046771 -0.318037 0.943253 0.060254 
0.633167 0.110216 0.398243 -0.317661 -0.418676 0.803867 
1.256961 1.395573 2.589767 0.464768 0.573977 -0.671715 
-0.720380 1.004141 2.277712 0.683800 -0.617336 0.370665 
-1.295714 -0.051721 0.937284 -0.664911 0.312810 -0.634678 
-1.355222 0.272093 1.039110 0.677325 -0.457821 0.562258 
0.420859 -0.051046 0.290513 0.191493 -0.237365 0.909055 
0.900788 -0.362118 0.561641 0.504358 0.372792 -0.659130 
-0.283985 -0.875585 -0.024241 0.041391 -0.029264 -0.990448 
-0.353253 -0.281666 0.062479 -0.775336 -0.008949 -0.624831 
-1.052891 -0.467034 0.665498 0.465246 -0.274711 0.790166 
-0.206550 1.217751 0.524244 -0.829672 -0.406974 -0.336190 
1.479511 0.980147 2.342253 0.415514 0.657367 -0.598513 
1.060547 0.179701 0.825099 -0.564161 -0.524349 0.575667 
1.375343 1.255152 2.541698 -0.433312 -0.573340 0.689092 
-0.495913 0.051201 0.132022 -0.733567 0.110283 -0.646713 
-0.795500 0.827734 2.122491 0.529688 -0.832082 -0.139425 
-0.062662 -1.132209 -0.137857 -0.241228 0.266098 -0.932872 
0.063234 0.386261 -0.151003 0.412763 0.052517 -0.905796 
-0.130808 0.702034 -0.102998 -0.394020 0.222078 -0.864602 
0.477614 -0.443857 0.134106 -0.097850 -0.243589 0.955545 
-0.077344 0.070950 0.501863 -0.178360 -0.294504 0.934765 
0.299464 1.113896 1.522200 -0.307146 -0.775291 0.526084 
-0.339238 1.328199 1.394469 -0.878371 0.427618 0.067928 
-0.514165 1.254936 2.200369 0.649825 -0.675913 0.321405 
0.486438 0.096740 0.322219 -0.060573 -0.339144 0.865783 
0.243113 -1.021153 0.005227 -0.377874 -0.337064 0.839498 
1.055242 0.391717 1.009243 0.694492 0.570047 -0.404882 
0.622431 1.340286 2.033349 -0.376960 -0.565896 0.724215 
-0.055681 -1.075594 -0.090586 -0.202185 -0.471262 0.769948 
-0.698112 0.048437 0.406990 0.261211 -0.398296 0.800949 
0.063238 0.197031 0.532669 0.165420 -0.171555 0.958994 
1.688588 1.544768 2.996390 -0.420901 -0.608205 0.672858 
-0.180753 1.487318 1.564817 0.854464 -0.305142 0.143366 
1.031705 1.632969 2.650103 0.321670 0.799302 -0.492298 
-1.344908 0.555275 2.470246 0.377915 -0.899713 0.076426 
0.883898 0.539663 1.030905 0.707361 0.608654 -0.280170 
0.548824 -0.537479 0.202621 -0.206287 -0.276407 0.900104 
0.822043 0.240629 0.609385 -0.460864 -0.495565 0.686834 
-0.275789 -0.231925 -0.058486 -0.525611 -0.117753 -0.837487 
-0.303958 -0.028841 0.380675 -0.418884 -0.261575 0.860642 
-0.404709 1.345404 1.932880 -0.836453 0.511801 -0.034793 
-0.315436 1.322927 1.578184 0.441115 -0.829792 0.310339 
1.239625 0.700986 1.970901 0.636182 0.560528 -0.477594 
-0.341323 0.720507 0.312640 -0.921079 0.179104 0.272596 
0.055665 -0.336488 -0.146325 0.336453 -0.226494 -0.901306 
0.586415 -0.288549 0.266612 -0.172554 -0.296090 0.886891 
-0.727728 0.779899 1.705389 0.612589 -0.782258 0.067436 
0.593228 0.432710 0.286143 0.710552 0.328462 -0.519628 
1.399076 1.137035 2.445933 0.430765 0.702349 -0.555645 
0.894314 1.469162 2.389983 0.498415 0.604030 -0.620888 
-0.743506 0.621473 0.626396 -0.605534 0.665697 -0.390026 
0.342053 -0.264379 0.279796 0.497149 -0.285618 0.815036 
-1.325607 0.822663 2.867262 -0.495184 0.692815 -0.515917 
-0.649152 0.462971 0.546811 0.331029 -0.615538 0.694907 
1.057246 0.833457 1.928130 -0.475452 -0.424801 0.740044 
-0.376752 0.269091 -0.002429 -0.502539 -0.008139 -0.845447 
-0.676064 -0.765166 0.291887 -0.468234 0.148774 -0.838817 
-0.539921 -0.201723 0.228467 0.098200 -0.304997 0.908207 
-0.336513 0.189570 -0.022394 -0.470477 -0.055777 -0.870949 
0.131529 -0.574951 -0.036906 0.038762 -0.220095 -0.965165 
0.447529 0.550426 0.139070 0.658268 0.408785 -0.458949 
-1.514172 0.515662 1.861468 -0.323879 0.924271 -0.097838 
-0.394640 1.388222 2.102627 -0.476670 0.842886 -0.007586 
0.264834 1.427955 1.800808 -0.706055 -0.093981 0.649779 
0.600636 0.794811 1.311171 -0.434466 -0.748394 0.469613 
-0.202536 -0.483212 -0.050714 -0.154890 -0.251403 -0.903567 
-0.031357 -0.917987 -0.070855 -0.281100 0.192840 -0.923647 
-1.414955 -0.167628 1.033548 -0.649537 0.278557 -0.672377 
1.323312 1.378117 2.619102 -0.423668 -0.631432 0.646985 
1.417582 0.412210 1.950550 -0.529204 -0.367003 0.730856 
-0.071810 0.221983 0.537299 -0.174742 -0.145711 0.961695 
-1.061668 0.703151 1.965716 -0.394136 0.915384 0.054270 
1.706344 1.262824 2.753442 -0.411932 -0.618379 0.669164 
1.369600 1.196783 2.482132 0.437373 0.669692 -0.588874 
-0.127115 1.082889 0.516074 0.138233 0.059716 0.918735 
0.907561 -0.444826 0.542487 -0.364776 -0.443722 0.712225 
-0.410820 1.213337 1.779992 0.692608 -0.668541 0.175369 
-0.126017 -0.118956 0.417708 -0.176483 -0.310226 0.931013 
-1.251809 -0.259982 0.882406 -0.628645 0.237920 -0.702391 
-0.622730 0.151387 0.253986 -0.725580 0.185984 -0.624750 
1.630908 1.077459 2.529048 0.411884 0.620250 -0.650975 
1.257341 0.202869 0.990782 -0.591234 -0.614038 0.490569 
1.043822 0.433854 1.179684 0.686732 0.591649 -0.398675 
0.512897 0.141468 0.130311 0.742891 0.098149 -0.644460 
1.248103 -0.212573 0.859008 -0.398360 -0.602857 0.562263 
-1.274706 -0.131696 0.912253 -0.650456 0.284639 -0.660489 
-0.480444 0.820513 0.764542 -0.445512 0.680198 -0.577417 
-0.622827 0.634729 0.513025 -0.355356 0.807741 -0.360407 
0.312658 0.984108 1.104137 0.177806 0.714890 -0.510539 
-0.618436 1.240177 2.527719 -0.714710 0.646366 -0.240866 
0.342056 -0.420099 0.054819 0.752698 -0.025104 -0.635793 
-1.535725 0.418718 1.570922 0.151072 -0.721018 0.373043 
-1.060357 0.519992 1.292424 0.579127 -0.726401 0.290660 
1.698693 1.459125 2.925547 0.424323 0.611109 -0.668127 
0.245546 -1.135859 -0.008144 -0.604197 -0.363947 0.563920 
-0.917565 -0.574776 0.529553 -0.520954 0.201248 -0.783214 
1.693638 1.124615 2.613644 -0.404339 -0.569906 0.709237 
1.127103 0.419374 1.525972 -0.589046 -0.698895 0.137421 
-0.342612 0.748744 0.240489 -0.959539 0.208181 0.015721 
-0.339221 -0.953095 0.053031 0.101625 -0.245578 0.946279 
0.678717 -0.287953 0.366792 -0.275924 -0.339591 0.821591 
0.349737 -1.332298 -0.023454 0.624776 -0.027754 0.528159 
1.117169 -0.461496 0.656403 0.365540 0.570000 -0.605985 
1.172582 1.121554 2.283144 0.452439 0.721171 -0.517867 
0.275385 -1.336025 -0.025565 -0.574633 -0.480204 0.406030 
0.281927 1.276619 1.708617 -0.438943 -0.570756 0.688403 
-0.695624 0.899141 1.764361 -0.663650 0.703262 0.079559 
-0.777894 0.733519 1.203650 0.505089 -0.769382 0.351116 
1.016766 0.409886 1.096851 -0.600482 -0.624139 0.480621 
-1.113652 -0.533590 0.613077 -0.412792 0.476048 -0.710290 
1.049759 0.626725 1.696194 0.590898 0.463598 -0.610934 
-1.187027 0.797678 2.696570 0.544325 -0.649954 0.518552 
-0.155779 -0.196428 0.380853 -0.194479 -0.314955 0.923670 
-0.326188 0.013687 -0.030592 -0.515634 -0.062888 -0.840389 
1.023863 -0.642487 0.466574 -0.234741 -0.669764 0.662609 
-0.990322 0.450125 0.706287 -0.691690 0.483747 -0.499043 
0.249017 0.470986 0.460929 0.253913 0.044976 0.961259 
0.392700 -0.234402 0.091758 0.780112 0.003905 -0.611086 
-1.248508 0.774694 2.723192 0.525900 -0.650876 0.538705 
1.285291 0.302991 1.703541 -0.742760 -0.580243 0.105479 
-0.737562 0.342772 0.488171 0.351008 -0.505546 0.748849 
-0.333561 0.801025 0.320990 -0.921166 0.236202 0.297028 
1.103999 0.241148 0.880768 -0.607911 -0.551558 0.543640 
1.486073 1.328480 2.673083 0.442607 0.590100 -0.672596 
0.786357 1.130699 1.981828 -0.435690 -0.699780 0.542812 
1.435322 0.756507 2.242077 0.518721 0.374392 -0.760093 
0.159996 0.875610 0.482412 0.347913 -0.143381 0.901655 
0.767277 0.322961 0.406556 0.712381 0.280217 -0.598701 
0.876185 0.526764 0.947989 0.708420 0.611262 -0.279854 
-1.212250 -0.316526 0.833247 0.532978 -0.286121 0.745629 
-1.491038 0.091214 1.132580 -0.710856 0.340792 -0.595823 
-0.443340 0.634286 0.213188 -0.608380 0.749432 -0.195894 
0.625764 1.410536 2.112834 -0.402055 -0.595855 0.683252 
1.386843 0.164505 1.359529 -0.500302 -0.740990 -0.229743 
-1.239661 0.389945 0.981074 -0.689285 0.516406 -0.485532 
-0.275853 0.909282 0.147833 -0.821385 0.380060 -0.336452 
-1.305588 0.634341 2.120594 0.287524 -0.913718 0.057069 
-0.240875 1.408268 1.587066 0.547632 -0.760751 0.262604 
1.007987 0.735630 1.752982 0.521857 0.362703 -0.766509 
1.217533 -0.099327 0.870969 -0.458261 -0.590821 0.553561 
1.125986 -0.368731 0.730235 0.439601 0.489208 -0.590998 
0.542392 1.362449 1.961228 0.616172 0.602680 -0.477185 
-0.730845 -0.722119 0.339202 0.343897 -0.250865 0.870647 
-0.492363 -0.038588 0.155339 -0.746743 0.094702 -0.628921 
0.057902 1.004191 0.529874 0.141138 -0.060834 0.974153 
1.188363 -0.281936 0.794865 -0.379041 -0.574460 0.593300 
-1.130695 -0.194969 0.770887 -0.622782 0.280410 -0.675035 
-0.762279 1.081266 2.600450 0.647323 -0.680441 0.323670 
-1.620151 0.383381 1.548302 -0.127082 0.661279 -0.530979 
-1.132686 1.128631 3.058159 0.492064 -0.691664 0.515329 
-0.425494 -1.165723 0.023789 -0.369845 0.117931 -0.876059 
-1.197344 1.161631 3.137987 -0.457092 0.711072 -0.496283 
-1.103790 0.718329 2.498361 -0.535689 0.777509 -0.284355 
-1.021647 0.540954 0.887528 -0.718280 0.553257 -0.373723 
-0.668666 0.499392 0.395831 -0.651990 0.416705 -0.555915 
0.385638 1.091339 1.519262 0.809683 0.533473 -0.200974 
0.598423 0.593905 0.511789 0.407471 0.793187 -0.312173 
1.698701 1.044054 2.537519 0.405404 0.590789 -0.683497 
-0.033071 1.221610 0.124417 -0.497272 0.338549 -0.784118 
-0.606720 0.920899 1.035263 -0.793557 0.603330 -0.019838 
0.099452 1.210845 0.427841 -0.062019 0.780508 0.571712 
0.587126 0.592907 0.403823 0.700168 0.655428 -0.259728 
1.022834 0.298102 0.738551 0.697825 0.447639 -0.523335 
-0.642164 0.976283 1.565262 -0.744331 0.570401 -0.159334 
-0.368646 1.142891 1.126208 0.750542 -0.331678 -0.053516 
-0.660516 1.037554 2.164612 0.689684 -0.609650 0.369632 
-0.982648 0.627065 1.519202 -0.544323 0.778435 -0.256822 
0.510307 0.036874 0.283451 -0.176934 -0.358560 0.873814 
-1.432295 0.589120 2.275816 0.278400 -0.951299 -0.018509 
0.614926 0.460783 0.348965 0.705660 0.395627 -0.470500 
0.742345 0.049378 0.449682 0.735293 0.245783 -0.564294 
-0.356400 1.372629 2.000633 0.785537 -0.552357 0.276563 
-0.626540 0.485034 0.318117 -0.651878 0.386128 -0.572123 
-0.274206 0.256327 -0.054595 -0.438435 -0.046863 -0.894807 
-0.476869 -1.120444 0.047422 -0.375928 -0.120169 0.721395 
0.596627 0.772029 1.224919 -0.424419 -0.757213 0.473676 
-0.572637 1.072589 1.489980 -0.779906 0.534031 -0.023396 
-0.150995 1.569931 1.553135 -0.632259 0.638502 0.131295 
0.266029 -0.275321 0.313015 0.419046 -0.305159 0.839876 
1.531837 0.219823 1.919064 0.675974 0.495302 -0.532611 
1.063359 -0.145190 0.737658 0.547170 0.465310 -0.578748 
-1.273438 1.004781 3.031770 0.479126 -0.686124 0.539975 
-1.315011 -0.316960 0.867236 0.510325 -0.414730 0.689864 
1.274591 0.189138 1.495653 -0.668233 -0.628622 -0.118880 
0.326635 0.658235 -0.054742 0.594788 0.241585 -0.752682 
0.004931 -0.285223 0.342648 -0.045261 -0.361503 0.928285 
-0.674110 0.332730 0.430835 0.304755 -0.500819 0.782001 
-0.744598 -0.659999 0.373472 -0.505087 0.154022 -0.812946 
-1.157948 0.282035 0.826625 -0.696501 0.462330 -0.516562 
0.468552 -0.523244 0.116872 -0.111890 -0.238691 0.957688 
0.632545 0.273666 0.242140 0.724804 0.182318 -0.634683 
-1.590476 0.501553 1.934853 -0.300266 0.931333 -0.107912 
-0.286133 0.629641 -0.073620 -0.560145 0.170905 -0.792775 
-0.623800 0.437043 0.265558 -0.673913 0.305255 -0.623081 
-0.746773 0.758843 0.916116 -0.729462 0.618343 -0.197773 
-0.271445 -0.144667 -0.059576 -0.502892 -0.111389 -0.853065 
0.974543 0.477463 1.103575 0.696263 0.597703 -0.347194 
-0.490521 1.147713 1.640008 -0.796596 0.472454 0.049672 
0.106134 0.554014 0.529043 0.255423 0.100099 0.951523 
0.656287 0.424183 0.616243 -0.410137 -0.621450 0.633440 
0.034360 -0.686817 0.207677 0.325650 -0.428804 0.831355 
0.052767 -0.212721 0.380144 0.053371 -0.339008 0.934538 
0.962051 1.468812 2.443766 0.492795 0.589375 -0.637836 
0.767757 -0.904695 0.169987 0.183126 0.600374 -0.773104 
-0.521644 0.144693 0.134285 -0.721052 0.136966 -0.657738 
1.507343 1.496848 2.836682 0.449400 0.576304 -0.679324 
1.033821 -0.584963 0.523089 0.303464 0.602257 -0.648225 
-1.479259 0.544216 1.950440 -0.310706 0.934226 -0.047866 
1.339352 0.008693 1.487854 0.814639 0.511697 0.228826 
-0.730227 0.815641 1.168353 -0.720910 0.668805 -0.066548 
0.392514 1.444271 1.956127 -0.585456 -0.419640 0.654390 
0.583900 -0.824813 0.208409 0.404480 0.191681 -0.821415 
-1.028121 0.686975 2.208201 0.374644 -0.917197 -0.091153 
0.392986 -0.754100 0.109164 0.020720 -0.256399 0.922771 
1.017536 0.250381 0.799667 -0.566046 -0.537231 0.586027 
0.108295 0.134673 -0.147018 0.472543 0.000446 -0.875559 
-0.364625 0.103893 0.395045 -0.435660 -0.227021 0.867954 
-0.709587 0.948296 2.174027 -0.774811 0.599230 -0.186609 
0.620768 0.881629 1.536575 0.755882 0.577501 -0.264302 
-0.102303 0.340152 0.558520 -0.242469 -0.012446 0.961391 
-0.444546 1.271829 1.936316 0.611697 -0.663031 0.426328 
-0.260896 -0.933854 0.038480 0.222331 -0.335909 0.878235 
1.051705 0.970370 2.043830 -0.542430 -0.571197 0.615268 
-1.521417 0.023563 1.157352 -0.704766 0.310136 -0.619878 
0.767992 0.277124 0.565617 -0.445251 -0.495910 0.708345 
-1.106224 -0.416311 0.724611 -0.575097 0.222309 -0.742162 
1.283392 0.700368 2.038599 -0.463406 -0.346610 0.796035 
0.530473 1.413516 2.035341 -0.388763 -0.592893 0.692025 
-1.341826 -0.120544 0.976061 0.602187 -0.325119 0.683262 
0.719619 0.449507 0.713283 -0.424948 -0.687248 0.556814 
1.178253 -0.213083 0.808275 -0.413583 -0.571007 0.585232 
-0.369190 0.492824 0.355274 -0.410984 0.143093 0.807752 
-1.053371 -0.158481 0.703271 0.532161 -0.373707 0.690330 
-1.100348 0.714089 2.115300 -0.377790 0.918410 0.043833 
1.024248 1.409687 2.449911 -0.463013 -0.612839 0.639212 
1.433377 0.040698 1.062867 0.520250 0.664113 -0.439115 
0.713954 0.655505 0.854080 0.615603 0.709864 -0.300962 
-1.167394 0.926703 2.864215 0.510429 -0.702562 0.487656 
-1.093690 0.507410 1.230153 -0.625529 0.677457 -0.303512 
-0.829461 0.821198 2.060503 -0.570784 0.798709 -0.032765 
-0.798112 0.751749 0.988015 -0.765812 0.580306 -0.162258 
-0.196217 -0.470407 0.268355 -0.236082 -0.327892 0.910592 
-0.209693 -1.134826 -0.066007 -0.117022 0.104892 -0.919468 
-1.216448 0.612033 1.804277 -0.371179 0.921373 0.026288 
-0.985689 0.189472 0.670015 -0.725178 0.369877 -0.522825 
-0.702055 0.585167 0.530304 -0.616616 0.596003 -0.431971 
-0.577211 -0.299483 0.247654 0.134362 -0.287618 0.892275 
-1.380056 0.308924 1.098507 -0.651052 0.475264 -0.577928 
1.121383 1.047607 2.180003 -0.489999 -0.680627 0.540510 
-1.600988 0.466058 1.758898 -0.333416 0.912284 -0.178173 
0.949442 0.332115 0.793968 -0.540792 -0.594331 0.560565 
-0.272265 -0.490766 0.230126 -0.380179 -0.309726 0.864847 
-0.163770 -0.620948 -0.021691 -0.054777 -0.122075 -0.988413 
0.087887 -0.513127 -0.059107 0.016485 -0.349269 -0.934090 
-0.545639 1.058993 1.286497 -0.806749 0.537982 0.013063 
1.172480 -0.128249 0.824285 0.523929 0.522490 -0.542899 
0.583786 1.159505 1.824132 -0.357063 -0.694113 0.584839 
0.654478 -0.086486 0.379330 0.751615 0.182425 -0.564582 
-1.105673 0.551675 1.468951 -0.387015 0.703601 -0.376064 
0.608275 0.201812 0.233128 0.732003 0.163449 -0.628663 
0.801618 0.835944 1.642867 0.583237 0.462116 -0.585719 
-0.116174 0.274392 -0.141511 -0.446014 0.020368 -0.892052 
-1.218224 0.413544 1.083334 -0.660896 0.561386 -0.444375 
-0.063972 -0.167883 -0.154086 -0.397960 -0.130318 -0.887662 
0.000959 1.360799 0.277306 0.181448 0.659024 0.669703 
-1.515113 0.560399 2.111650 0.258772 -0.955559 0.016055 
0.230477 0.904197 0.044310 0.657210 0.442780 -0.606620 
0.064023 0.393978 0.554011 0.179101 0.023260 0.970855 
-0.383375 0.571236 0.345389 -0.328848 0.008967 0.495291 
1.394557 1.393051 2.672044 0.457154 0.568782 -0.680051 
0.240852 0.817510 -0.009917 0.584155 0.490093 -0.637441 
0.639475 0.597051 0.712459 0.209564 0.890458 -0.349956 
1.461999 0.138634 1.329996 0.496840 0.740478 0.168549 
0.019464 0.711376 0.466093 0.034545 0.074913 0.994373 
-0.041749 1.031909 0.036556 -0.337504 0.471210 -0.795759 
0.047204 0.270908 -0.179367 0.456744 0.048681 -0.886709 
0.174595 0.127077 -0.110323 0.472166 -0.029360 -0.875377 
-0.565247 -0.892321 0.147358 0.259030 -0.273353 0.906502 
1.253092 0.220582 1.074394 -0.589102 -0.631721 0.268991 
-0.686773 0.634021 0.744081 0.789815 -0.475622 0.373312 
1.511864 1.435893 2.784595 0.447213 0.577949 -0.679216 
0.552165 0.326319 0.124067 0.725868 0.131411 -0.666390 
-1.042395 0.128111 0.706951 -0.659986 0.417652 -0.562546 
-0.155615 0.231915 0.529104 -0.298561 -0.120864 0.934312 
0.531103 1.089931 1.713742 -0.319712 -0.622537 0.666411 
-0.853775 0.702171 1.583802 0.561485 -0.777044 -0.118277 
-0.050610 0.285800 -0.176792 -0.447541 0.048598 -0.891581 
0.219742 1.048795 0.148354 0.744554 0.406202 -0.455742 
0.962966 0.472625 1.027368 0.701093 0.591566 -0.337800 
1.285249 0.547300 1.894057 0.677856 0.569482 -0.425144 
1.388023 -0.195426 0.962035 -0.375035 -0.672981 0.512069 
0.815959 1.479900 2.351962 -0.463449 -0.631601 0.618051 
-1.371677 0.546589 1.749812 -0.363007 0.913814 -0.069627 
-0.494511 0.565766 0.226559 -0.600095 0.643143 -0.337480 
0.914283 0.498868 1.136765 -0.559398 -0.660652 0.472985 
0.865701 0.131254 0.626708 -0.446017 -0.471095 0.682427 
1.416400 0.966877 2.300334 -0.452104 -0.634791 0.608305 
0.944795 0.536419 1.390557 -0.605295 -0.665235 0.418487 
0.258649 0.932573 0.131729 0.778668 0.386369 -0.411409 
0.538314 0.840910 1.289172 -0.401961 -0.760198 0.483740 
0.927340 0.470096 0.900951 0.701545 0.609023 -0.325102 
-0.196837 0.044043 0.460828 -0.312194 -0.274699 0.903235 
0.221374 1.260307 1.444007 0.487352 0.815962 -0.305827 
-0.784112 0.448810 0.467511 -0.679754 0.392655 -0.563155 
0.964237 0.719180 1.689682 0.552034 0.441668 -0.661962 
-0.427575 1.150441 1.376459 0.442556 -0.813398 0.362230 
-0.671056 -0.599223 0.307083 -0.504663 0.188119 -0.789203 
-1.412071 0.542554 1.807708 -0.346781 0.919602 -0.067910 
-1.099570 0.468937 1.066468 0.625214 -0.625243 0.414063 
1.219858 1.211417 2.405309 -0.437857 -0.519456 0.724854 
0.983778 0.213748 0.706419 0.706820 0.411543 -0.526372 
1.069805 -0.313943 0.701192 0.477222 0.462197 -0.600518 
-0.759906 0.819098 1.512832 0.519678 -0.807784 0.110839 
0.165548 0.684100 -0.098595 0.423873 0.213824 -0.856235 
1.570497 1.124870 2.540291 -0.410136 -0.538273 0.727930 
0.399153 -0.498835 0.098217 0.672451 0.030969 -0.685705 
-0.309529 0.738382 0.385895 -0.752670 0.214532 0.565264 
-0.256707 0.068136 -0.065861 -0.469759 -0.070556 -0.874742 
0.112790 1.308346 1.599364 -0.526150 -0.584192 0.571261 
-1.098005 0.575466 1.535873 -0.390492 0.727228 -0.410405 
1.623588 1.538090 2.949437 -0.416720 -0.618529 0.664995 
-0.729906 -0.399789 0.375671 -0.541534 0.257452 -0.725135 
0.577361 1.464757 2.099369 0.580608 0.611368 -0.511595 
-0.177328 1.130851 0.341039 -0.647439 -0.012485 0.612835 
-0.276298 0.927093 0.375257 -0.863251 0.118388 0.446898 
0.236226 0.042711 0.439362 0.345511 -0.263078 0.893807 
1.494326 0.904063 2.311411 -0.449709 -0.582958 0.653049 
-0.636443 0.970114 1.695362 -0.689689 0.638126 0.110285 
0.594767 0.305642 0.184451 0.724738 0.158680 -0.650870 
0.573561 -0.911911 0.123738 0.323405 0.294058 -0.835879 
-0.146614 0.611101 -0.105410 -0.383878 0.105788 -0.897636 
-0.979812 -0.089743 0.633468 -0.619046 0.342782 -0.632840 
-0.222686 -1.230591 -0.062185 0.681432 -0.403939 0.450713 
0.526395 0.711358 0.833482 -0.710977 -0.643117 0.206887 
-0.684334 0.798969 1.094820 0.488183 -0.748321 0.425329 
1.193388 0.229109 1.523304 -0.745523 -0.572227 0.013238 
1.293531 1.115407 2.359914 0.436413 0.724500 -0.525011 
-0.739839 1.153117 2.657355 -0.694173 0.589512 -0.385304 
0.463630 0.957929 1.268512 0.772914 0.606176 -0.115980 
-0.520201 0.892290 1.019699 0.694185 -0.667562 0.236314 
-0.318125 0.414880 -0.044559 -0.463494 -0.028057 -0.883011 
-0.320885 -0.884148 0.075886 0.007768 -0.259676 0.930788 
0.478976 -0.596143 0.121383 -0.145814 -0.243027 0.946387 
0.448341 0.820471 0.985324 -0.732391 -0.662753 0.070619 
1.323960 1.626247 2.844263 -0.489532 -0.467885 0.713781 
-0.930695 0.712096 1.801610 0.426027 -0.725534 0.441198 
0.902320 0.705535 1.649054 -0.608896 -0.719884 0.314825 
0.364887 -0.614769 0.051044 0.623134 0.019549 -0.733086 
-0.779952 0.811435 1.771616 -0.576777 0.795265 0.157056 
1.254049 0.269417 1.272362 0.589445 0.657604 -0.063923 
0.326535 0.758913 0.097121 0.810322 0.420173 -0.298492 
-0.118793 -0.948083 -0.078373 -0.167192 0.177944 -0.953923 
-0.138767 -0.325547 -0.117245 -0.436683 -0.171584 -0.866993 
-0.064096 1.295533 0.323039 -0.374817 0.746893 0.516361 
-0.959630 0.930815 2.667691 0.607414 -0.667891 0.421552 
0.716774 0.251907 0.355721 0.721071 0.236993 -0.607396 
-0.616954 -0.343310 0.292209 -0.634214 0.171257 -0.675214 
-1.433870 0.299916 1.335176 -0.575541 0.524731 -0.577141 
-0.283626 -0.602152 0.176156 -0.351717 -0.308295 0.874502 
-1.030408 0.656769 1.676027 -0.440541 0.747399 -0.469844 
-0.683386 0.409863 0.475039 0.316810 -0.547766 0.753660 
-0.121348 -0.860342 0.059271 0.009553 -0.462548 0.865162 
-0.897307 0.775411 2.304430 -0.632441 0.733621 -0.205379 
0.861235 0.638562 1.439405 0.692383 0.648549 -0.281594 
0.480050 1.162286 1.734217 -0.307017 -0.682401 0.617898 
-0.217760 -0.302797 0.317092 -0.308649 -0.319034 0.874170 
-0.311895 -0.276658 -0.014361 -0.639111 -0.065673 -0.744729 
0.220548 0.475229 -0.085984 0.451852 0.008774 -0.885937 
0.466634 0.154413 0.357928 0.037704 -0.324275 0.857446 
1.523721 1.176219 2.560006 0.425139 0.668135 -0.600486 
-0.267875 -1.198338 -0.014985 0.639305 -0.376962 0.478242 
0.604894 0.767761 0.970981 0.650309 0.703658 -0.186193 
0.146499 0.413656 0.546759 0.320543 0.041661 0.941173 
0.266466 0.212207 0.470291 0.378243 -0.138936 0.905086 
0.446138 0.964934 1.129852 0.463749 0.785430 -0.384436 
-0.532587 1.057811 1.431315 0.461868 -0.822051 0.310433 
1.461817 0.813253 2.278039 -0.486099 -0.516013 0.680683 
0.756490 1.294613 2.099502 0.555910 0.622724 -0.534499 
-0.819009 -0.266590 0.473146 0.439053 -0.376448 0.733954 
1.188679 -0.032023 0.870340 -0.496226 -0.578797 0.551890 
-0.085103 0.950699 0.518229 -0.198786 -0.123571 0.964853 
-0.761740 0.048791 0.462950 0.305534 -0.399518 0.768766 
-1.116656 0.212508 0.782889 -0.680999 0.441104 -0.537940 
0.224849 -0.221045 -0.086385 0.514655 -0.106980 -0.846146 
-1.049604 1.069913 2.932624 -0.579965 0.597241 -0.541837 
0.991452 0.868910 1.904645 -0.488163 -0.458873 0.722720 
-0.858024 -0.363836 0.500168 -0.563159 0.253293 -0.719005 
-1.505931 0.593505 2.711343 -0.435086 0.813429 -0.348061 
-0.446559 1.230648 1.876817 0.646444 -0.634723 0.405080 
0.112415 -0.708911 0.168520 0.135887 -0.442801 0.876015 
-1.416589 0.706058 2.787150 -0.463366 0.754075 -0.431980 
-0.745425 0.592596 0.809646 0.412578 -0.709397 0.547014 
1.533110 0.817113 2.303241 -0.465360 -0.515011 0.697353 
1.639455 0.892711 2.355881 0.408003 0.402195 -0.810054 
-0.267410 1.456682 1.508047 -0.731453 0.560237 0.124781 
1.370500 1.312594 2.591155 -0.438765 -0.607947 0.661141 
-1.132275 0.636952 1.775201 -0.387077 0.919165 0.056604 
1.548640 0.444541 2.117574 0.594254 0.425391 -0.667149 
-0.993578 0.750042 2.081046 -0.409862 0.907284 0.044247 
0.018266 0.560377 -0.147982 0.337817 0.097142 -0.933151 
1.132510 1.373080 2.493862 0.467937 0.588818 -0.658683 
-1.355512 0.571060 1.853397 -0.344702 0.925137 -0.023396 
-1.180641 0.385262 0.888048 0.666388 -0.531616 0.517896 
0.405942 0.027751 0.014450 0.645723 0.001540 -0.743008 
0.770758 0.697265 1.464438 -0.531937 -0.707316 0.427585 
-0.612464 0.293504 0.197948 -0.703856 0.203106 -0.658317 
-1.190500 0.137623 0.848687 -0.679384 0.401470 -0.566422 
-0.866227 0.130959 0.567737 0.395604 -0.431067 0.707001 
0.901904 0.524976 1.205304 -0.562509 -0.668769 0.458446 
-0.752754 0.791572 1.071757 -0.745994 0.626177 -0.106488 
-0.463690 0.619559 0.462175 -0.195408 0.908991 -0.222298 
-0.572864 0.218229 0.323784 0.210087 -0.457619 0.845664 
1.165971 0.559236 1.768976 0.583986 0.367257 -0.663250 
-0.746705 0.753047 1.137759 0.503043 -0.749821 0.394276 
-0.103018 0.824700 -0.062526 -0.479093 0.372962 -0.773641 
-1.292698 1.066059 3.108896 -0.499635 0.636883 -0.578695 
-0.816232 0.472466 0.540332 -0.674107 0.443038 -0.531158 
1.173133 0.286360 1.560700 -0.746260 -0.581294 0.058898 
0.282559 0.801581 0.050409 0.696404 0.453093 -0.474487 
-0.865732 0.401007 0.488607 -0.699944 0.354129 -0.583132 
1.068441 0.501554 1.608875 0.664558 0.552109 -0.384897 
-0.259981 1.351171 1.541538 0.503966 -0.676498 0.529753 
1.185347 0.903250 2.098861 0.547668 0.549858 -0.620349 
-1.302358 0.156154 0.970677 0.652078 -0.427584 0.590983 
-0.221324 0.516765 0.477184 -0.276972 0.074943 0.955605 
0.404691 0.872502 1.142514 -0.650495 -0.688521 0.181332 
1.235766 0.259544 1.130871 0.622062 0.613860 -0.203939 
-1.295457 0.723297 2.693441 -0.492246 0.755587 -0.389250 
-0.512356 0.231468 0.096431 -0.707623 0.145986 -0.679262 
0.598655 0.729628 0.908507 0.236131 0.823910 -0.494723 
1.540518 1.253696 2.641465 0.429901 0.620898 -0.652383 
0.274859 0.805562 0.392993 0.709998 0.175382 0.613649 
-1.389316 0.512104 1.687024 0.318176 -0.889210 0.094530 
-1.308222 0.519193 1.615667 -0.249156 0.699188 -0.548053 
0.284230 0.376228 0.450604 0.258974 -0.002459 0.957867 
-0.264391 -0.423925 -0.057478 -0.559281 -0.121185 -0.811541 
-0.334153 -0.628730 0.013699 -0.602343 -0.002727 -0.761894 
-1.354256 0.584046 2.550130 0.488534 -0.748357 0.385735 
-1.606377 0.423196 1.636770 -0.239151 0.774060 -0.427484 
0.766886 0.636580 1.024147 0.717248 0.632593 -0.194734 
1.071044 0.401780 1.237577 -0.642752 -0.614216 0.450077 
0.787670 0.115050 0.487312 0.727219 0.278289 -0.563362 
0.214896 0.192219 -0.087229 0.463222 -0.036266 -0.881194 
-1.331269 0.221077 0.988216 -0.709616 0.414019 -0.544969 
-0.849043 0.784387 1.968348 0.517315 -0.822701 0.103404 
-0.191864 -0.251070 -0.103260 -0.518604 -0.101822 -0.842007 
-0.025127 -0.807832 0.111524 -0.371554 -0.441717 0.815424 
0.919184 0.965057 1.928690 -0.518734 -0.545770 0.651220 
-0.204407 0.654797 -0.093168 -0.480269 0.180783 -0.831099 
-0.919470 0.472232 0.658518 -0.680368 0.487266 -0.499898 
-0.125234 -0.556587 -0.043954 -0.048483 -0.253271 -0.955363 
1.274531 1.035419 2.283734 -0.422389 -0.492742 0.756595 
-0.614297 -0.583080 0.254640 -0.503191 0.198196 -0.780296 
-0.721117 0.896836 2.110177 0.776978 -0.541199 0.313884 
0.219591 -0.291507 -0.090099 0.523564 -0.116039 -0.840122 
0.529536 0.875169 1.377560 -0.405963 -0.753170 0.482329 
-1.404626 0.365818 1.293020 0.044622 0.387734 -0.741788 
-0.319995 1.326967 1.690886 0.640789 -0.668439 0.330918 
1.691702 0.941400 2.434158 -0.391004 -0.497105 0.770686 
-1.237773 0.420679 1.356078 0.545316 -0.637207 0.436272 
0.980510 0.650399 1.672854 -0.639631 -0.700295 0.301426 
-1.173017 0.874843 2.793522 -0.542993 0.677532 -0.484728 
-0.130513 0.535107 0.531121 -0.289875 0.088491 0.947914 
-0.485101 1.084181 1.608536 0.547785 -0.718304 0.190006 
-0.163289 -0.758278 0.146291 -0.038280 -0.401251 0.879822 
-1.333845 0.588439 2.347071 0.325281 -0.928624 -0.007301 
0.139255 1.146433 0.405903 0.985278 -0.135462 0.012686 
1.442535 1.620593 2.915589 -0.451091 -0.561474 0.690535 
0.445508 -0.970127 0.043713 0.362426 0.163432 -0.883879 
0.145281 1.212619 1.511938 -0.684704 -0.672014 0.206313 
0.477550 0.884427 1.263014 -0.369827 -0.772155 0.497689 
1.667347 0.033155 1.232326 0.447838 0.796113 -0.368328 
-0.807352 1.052422 2.648411 0.625349 -0.684312 0.361016 
-1.440661 0.066790 1.082986 -0.700838 0.338420 -0.601678 
-1.357690 0.643691 2.639812 0.486942 -0.731280 0.428388 
-0.564770 1.004083 1.371772 0.466158 -0.811175 0.327634 
0.599851 1.200160 1.907415 -0.475620 -0.635673 0.597862 
-0.909587 0.659117 1.190178 -0.673232 0.678685 -0.182166 
0.152802 0.972902 0.040885 0.572333 0.444390 -0.669335 
1.252616 0.210314 1.576635 0.750939 0.468222 -0.087229 
-0.321075 0.089229 -0.031435 -0.482154 -0.071757 -0.864068 
-0.619383 0.634322 0.583704 -0.179956 0.859358 -0.379573 
1.022590 0.187698 0.763621 0.706356 0.436098 -0.510950 
0.930773 0.164167 0.654151 0.714129 0.374613 -0.532299 
1.464598 1.074441 2.425294 0.422422 0.678352 -0.581160 
0.454989 0.096290 0.070479 0.750171 0.058162 -0.652533 
-1.444011 0.150565 1.101893 0.681357 -0.395492 0.595524 
-0.343771 -0.220262 0.018414 -0.693677 -0.024413 -0.697670 
0.425917 0.894370 1.047852 0.164479 0.743702 -0.582072 
-0.117217 -0.761930 -0.041260 -0.036133 0.008241 -0.979883 
-0.339939 1.208393 1.215838 0.762348 -0.211509 -0.207886 
0.722557 -0.537522 0.383961 0.482638 0.273750 -0.738471 
0.746938 -0.317646 0.448114 0.578360 0.282498 -0.676584 
1.268022 0.614730 1.927803 0.663273 0.562968 -0.440579 
-0.461641 0.423874 0.034935 -0.628248 0.143455 -0.733411 
0.366030 1.008244 1.359819 -0.324432 -0.780342 0.517905 
-0.834494 0.618354 0.889307 0.463722 -0.700605 0.520192 
0.767889 0.536120 0.693180 0.679824 0.617070 -0.323576 
1.383012 -0.257447 0.901499 0.369567 0.727173 -0.495643 
0.578852 0.843096 1.228521 0.742973 0.638732 -0.126980 
1.366978 0.088481 1.035731 -0.513295 -0.662098 0.473555 
-0.377063 -0.163418 0.053679 -0.753065 0.018957 -0.646440 
-0.957315 0.712237 1.874779 0.402152 -0.770681 0.342638 
0.026568 1.375564 1.567236 -0.680523 -0.613958 0.324611 
0.502189 1.078590 1.605030 0.681181 0.438019 -0.446652 
1.015496 1.540052 2.549461 0.500077 0.545313 -0.669181 
0.296310 0.893181 0.323575 0.899690 0.221182 0.291324 
0.561483 0.929799 1.513308 0.768052 0.570682 -0.240523 
-0.018504 1.149458 0.482727 0.030982 0.506905 0.836897 
-0.457490 0.522425 0.502729 0.648255 -0.565308 0.464884 
-1.430191 0.525618 2.534003 -0.447898 0.852442 -0.257142 
1.398295 0.344803 1.866482 0.621885 0.417117 -0.648565 
0.036489 -0.776212 0.136059 0.300674 -0.443378 0.825504 
-0.467841 0.881775 0.825467 0.639353 -0.622278 0.415519 
0.370369 0.350027 0.388521 0.212440 -0.064887 0.949303 
1.032647 1.207217 2.259819 0.484062 0.660656 -0.567676 
-0.213831 0.969712 0.070590 -0.660175 0.418143 -0.620719 
-1.262628 0.668930 2.583848 0.522132 -0.682843 0.469289 
-0.449122 0.690182 0.609986 -0.228418 0.829750 -0.378491 
-0.881052 0.780709 2.032691 0.488342 -0.861343 0.024416 
0.472038 0.743537 0.791466 -0.630830 -0.716365 0.282321 
-0.716167 0.882212 1.602553 -0.706651 0.613809 -0.246138 
0.543501 0.736930 1.018680 -0.451768 -0.769272 0.423016 
0.485232 0.485597 0.531207 -0.744086 -0.421152 0.481357 
-1.223996 -0.198258 0.859714 -0.634190 0.265903 -0.680439 
0.228391 0.684167 0.459894 0.431783 0.244937 0.829074 
-0.205988 0.596191 0.486316 -0.449015 0.096073 0.850987 
0.659974 1.016352 1.757141 -0.389378 -0.566652 0.687826 
0.449547 -0.142743 0.136133 0.769257 0.045045 -0.611568 
0.486684 0.909188 1.108407 0.622748 0.726466 -0.177617 
-0.748072 0.357301 0.341682 -0.701768 0.277349 -0.625663 
0.233136 1.284324 1.637730 -0.152972 -0.777017 0.595516 
0.305865 0.541553 -0.066995 0.520159 0.052498 -0.839707 
1.572626 1.042329 2.459416 0.413428 0.634928 -0.630506 
-0.477856 0.727753 0.666745 -0.313418 0.757621 -0.488242 
-0.897140 -0.146069 0.551067 -0.600214 0.332564 -0.647888 
-0.417767 1.227062 1.366456 -0.866349 0.447551 0.068154 
-0.029582 0.868028 0.510004 -0.157088 -0.171041 0.961434 
0.306825 -0.055531 -0.039408 0.515072 -0.095568 -0.843579 
0.082735 0.207894 -0.160369 0.463906 0.023234 -0.881603 
0.583183 1.006423 1.704897 -0.448214 -0.576942 0.638789 
-0.124176 0.037027 -0.139150 -0.483530 -0.021747 -0.867625 
-0.823430 0.782346 1.471288 -0.652835 0.697052 -0.121555 
-0.892835 0.855916 2.461303 -0.626102 0.704852 -0.300114 
-0.298803 -0.551198 -0.027674 -0.559813 -0.061004 -0.803576 
-0.690881 -0.022363 0.389467 -0.755177 0.191444 -0.564789 
1.037901 0.799134 1.846888 0.634863 0.672673 -0.348116 
0.418011 1.380628 1.863693 0.645940 0.605687 -0.432181 
0.662311 0.909512 1.642091 -0.490802 -0.760220 0.362860 
0.610634 0.081191 0.272742 0.741304 0.160197 -0.606571 
0.620647 -0.319225 0.329371 0.650885 0.182413 -0.649464 
-0.735318 0.417578 0.531200 0.350366 -0.558816 0.720638 
1.205418 0.342240 1.439924 0.584937 0.686643 -0.030997 
-0.912339 0.745884 1.713424 -0.532154 0.829401 0.019659 
-0.401755 1.178968 1.591953 0.536328 -0.705590 0.401000 
1.572981 1.293728 2.698106 -0.413236 -0.626582 0.659585 
-1.057618 0.878035 2.685100 -0.573229 0.687457 -0.424139 
-0.527273 1.103809 1.374177 -0.809846 0.517070 0.023331 
-0.892606 0.214598 0.559625 -0.730917 0.323870 -0.546275 
0.034386 1.306018 0.317765 0.350655 0.730610 0.538222 
-0.122972 -0.401491 -0.109386 -0.356138 -0.242569 -0.883569 
0.639139 0.012364 0.381910 -0.287145 -0.390233 0.816718 
0.995093 -0.523206 0.574217 0.396391 0.453984 -0.652544 
0.273998 0.306873 0.467192 0.332661 -0.054029 0.929524 
-0.751172 0.909171 2.222595 -0.753609 0.616264 -0.214775 
-0.492741 -0.594976 0.154278 -0.563681 0.113031 -0.758366 
-1.267943 0.460689 1.405922 -0.148774 0.540227 -0.597320 
-0.410767 0.637571 0.130818 -0.590690 0.588360 -0.407143 
0.843249 1.547754 2.442008 -0.477240 -0.613508 0.623510 
-0.919608 0.789024 2.392698 0.650279 -0.588500 0.465462 
-0.140569 0.608231 0.515853 -0.122808 0.330312 0.929081 
1.078414 1.349335 2.431497 -0.455817 -0.588185 0.665284 
-0.230932 0.764592 0.438518 -0.475827 0.165088 0.845343 
-0.772401 0.815416 1.345422 -0.686665 0.677477 -0.078430 
0.124283 0.680462 0.483379 0.103536 0.171061 0.968763 
-0.654460 1.084159 2.221479 0.652571 -0.639698 0.392493 
-1.090681 0.464935 0.924013 0.639626 -0.567294 0.503299 
-0.510587 -0.838184 0.121220 0.258431 -0.251201 0.913281 
-0.038089 0.962872 -0.021550 -0.404437 0.511258 -0.746909 
1.109471 0.551341 1.716173 -0.692549 -0.665216 0.221015 
0.182282 1.228198 0.459395 -0.291113 0.917319 0.254509 
-0.796367 1.118673 2.729485 -0.666137 0.585938 -0.444351 
1.317997 0.198569 1.130712 -0.562174 -0.664726 0.208234 
0.776580 1.544069 2.364974 0.478390 0.650682 -0.586146 
0.061035 0.883561 -0.058800 0.478393 0.372378 -0.777538 
-1.055339 0.825329 2.606304 -0.565019 0.718928 -0.368711 
-0.602718 0.606218 0.659117 0.786478 -0.473677 0.381309 
-1.406683 1.014009 3.139040 -0.463886 0.663238 -0.585717 
0.459739 1.139879 1.618923 0.710300 0.646814 -0.186394 
-0.118889 0.808883 0.485584 -0.247637 -0.192870 0.942760 
-0.199526 0.477270 -0.091145 -0.433528 0.022485 -0.895155 
0.381552 0.000717 0.341167 0.374802 -0.228850 0.878849 
-0.231696 -0.134330 0.381628 -0.385705 -0.294534 0.861437 
-0.977075 0.570889 1.134200 0.577591 -0.686692 0.380455 
0.301935 0.523842 0.422908 0.378355 0.045117 0.875741 
-0.720475 0.145236 0.441937 0.297272 -0.433729 0.779071 
-0.779688 0.411718 0.406080 -0.691360 0.333498 -0.599316 
-0.370498 -0.687306 0.041479 -0.580105 0.037048 -0.771732 
0.869004 -0.528644 0.496826 0.445850 0.349959 -0.692310 
0.429237 0.805350 0.870066 0.439250 0.793769 -0.410034 
-0.589123 -1.015513 0.098697 -0.073549 -0.330477 0.768589 
-0.370108 0.350683 0.392822 -0.268626 -0.027884 0.949944 
0.217153 -1.075346 -0.044598 0.116645 0.098240 -0.941174 
-1.246708 0.413027 1.266540 -0.606187 0.605234 -0.428979 
-0.004901 -0.044215 0.457488 -0.052481 -0.323715 0.941441 
1.566689 0.877365 2.327140 0.433017 0.377650 -0.808357 
0.150503 -0.840478 0.087675 -0.046996 -0.421030 0.872039 
-0.124627 -0.640578 0.209991 -0.198017 -0.421895 0.883412 
0.379742 0.915388 1.196922 -0.591138 -0.736360 0.289834 
-0.147116 0.948903 0.027502 -0.563744 0.461613 -0.660575 
-1.015759 1.022656 2.850445 -0.591950 0.607817 -0.516495 
-1.276735 0.240573 0.937393 -0.705536 0.429343 -0.535925 
0.272263 1.056325 1.201785 0.029588 0.657613 -0.575227 
-1.173532 0.757359 2.623385 -0.523331 0.747101 -0.364435 
0.205555 -0.151703 0.383378 0.319388 -0.299356 0.884826 
-0.792700 -0.201242 0.455756 -0.615755 0.279375 -0.651886 
0.720104 -0.184995 0.440103 0.673207 0.243115 -0.607799 
-0.770617 0.647257 0.750672 -0.224255 0.805246 -0.474654 
-0.721128 0.268656 0.336468 -0.713495 0.250840 -0.616076 
0.331330 0.782894 0.337879 0.881768 0.241581 0.372823 
-1.476803 0.481678 1.683244 0.300640 -0.879389 0.154194 
-0.299236 0.368068 0.446764 -0.277294 0.001051 0.953569 
0.404825 -0.428605 0.154365 0.127478 -0.263508 0.920895 
-0.531281 -0.756805 0.163881 -0.463641 0.146558 -0.835524 
-1.472461 0.509977 1.783899 0.283596 -0.826217 0.395896 
-1.185395 0.574108 1.727921 0.327310 -0.834687 0.423397 
1.379845 0.502157 1.967769 0.650552 0.519895 -0.507817 
1.325430 0.846468 2.197304 0.518016 0.413033 -0.729168 
0.946826 -0.628453 0.465941 -0.264225 -0.545630 0.707891 
0.137858 1.384084 1.603896 0.334603 0.797465 -0.399767 
-0.739361 1.224914 2.804578 -0.462285 0.855131 -0.204872 
0.588333 -0.549960 0.269166 0.531858 0.188182 -0.751680 
