0.543389 0.457433 0.524015 0.866497 0.437305 -0.151610 
0.853443 -0.056419 2.925542 0.912182 -0.297225 0.241269 
0.693958 0.174964 1.202031 -0.919471 0.002092 0.281336 
-0.931358 0.763362 1.624475 -0.917039 -0.308298 -0.018192 
-0.680942 -0.048424 1.123534 0.957322 0.149068 0.161341 
0.799166 0.533114 1.519173 0.950214 -0.281044 -0.131890 
0.757608 -0.267864 2.913361 0.882669 -0.430044 0.158818 
0.316889 -0.650089 -0.033514 0.713626 -0.181020 -0.644877 
-0.600430 -0.202581 1.661017 0.902184 0.388228 -0.083927 
0.327947 -0.369193 -0.115485 0.694406 -0.199977 -0.644695 
-0.639275 -0.341588 0.859485 0.970544 0.071266 0.085619 
-0.301834 0.763146 -0.109029 -0.622991 0.553079 -0.521605 
-0.797204 0.512291 1.534368 0.933336 0.066975 0.212255 
0.201109 1.155525 0.146322 0.846361 0.499524 -0.126339 
-0.133597 -0.185731 -0.256478 -0.457219 -0.182027 -0.850572 
0.687577 -0.276325 1.901390 -0.854034 0.456752 -0.153491 
0.712624 0.026423 1.143742 0.964585 -0.185487 -0.142741 
0.315034 -1.014657 0.146028 0.645398 -0.155828 -0.710358 
-1.062234 0.452662 2.363366 -0.877346 -0.402167 -0.227552 
0.956023 0.891456 2.027544 0.996984 -0.009238 -0.043722 
-0.799551 0.265476 1.610425 -0.876709 -0.360936 -0.204137 
-0.766196 0.257456 1.508341 -0.924430 -0.371162 -0.049943 
0.928989 1.028092 2.040482 -0.807010 0.412547 0.327375 
0.987739 0.090948 2.454373 -0.935601 0.253443 -0.063657 
-0.896509 1.061050 1.554282 0.786570 0.022054 0.612123 
-0.602788 -0.167458 0.594941 0.852753 0.000246 0.347768 
-0.645445 0.546042 0.702094 -0.845576 0.221677 -0.455227 
0.231730 1.067240 0.071927 0.814438 0.427513 -0.321641 
-0.969003 0.195783 2.217556 -0.915990 -0.353380 -0.178121 
0.287222 -0.317305 0.173850 0.541321 -0.184897 0.794390 
0.658462 -0.790098 0.841093 0.933325 0.083147 -0.236504 
-0.605929 -0.220541 0.521648 -0.945211 -0.112760 -0.262186 
-0.836458 0.739480 1.222979 -0.918709 -0.380496 -0.021472 
0.257339 0.708547 -0.184560 0.493878 0.386508 -0.758108 
-0.237433 0.466181 0.322812 -0.260509 -0.114817 0.952953 
-1.013985 0.323731 2.427514 -0.839411 -0.488034 -0.196404 
-0.364719 -0.455081 -0.031748 -0.829576 -0.159790 -0.522397 
0.852063 0.122941 1.632272 0.892195 -0.233851 -0.310545 
0.708881 -0.310495 2.133423 -0.742131 0.526073 0.299634 
0.614673 -0.446544 2.216828 0.807756 -0.577748 -0.043734 
-0.478166 -0.888088 0.527087 -0.822382 -0.097406 -0.391699 
0.332305 0.151866 0.210573 0.386140 -0.180217 0.860036 
0.377479 -0.607395 0.036125 -0.319086 -0.039977 0.942440 
0.608724 -0.371869 1.877602 -0.828470 0.499703 -0.130999 
-0.240643 -0.056915 -0.212431 -0.527537 -0.137963 -0.826646 
-0.605761 -0.292970 0.614178 0.863428 0.043681 0.324963 
0.363475 -0.472699 -0.025520 0.828290 -0.153029 -0.520187 
-0.414239 -0.430802 0.056646 0.266669 -0.050355 0.931913 
-0.679544 0.688527 0.785653 -0.895092 0.091168 -0.429531 
-0.155549 -0.658681 -0.081712 -0.115083 -0.326820 -0.933426 
0.736376 0.617403 1.240213 0.966104 -0.231196 -0.090481 
0.190129 1.165278 0.463549 -0.479382 0.079348 0.841539 
-0.693557 0.180465 1.124638 0.936601 0.072279 0.238237 
-0.291104 -0.575155 0.098739 -0.278629 -0.142553 0.900081 
-1.061860 0.882853 2.205071 0.875287 0.222775 0.293154 
-0.641372 -0.291242 0.925169 0.966076 0.102989 0.076815 
0.293094 0.436610 -0.208757 0.572465 0.024403 -0.813925 
1.061783 0.416688 2.785860 0.965221 -0.157462 0.199068 
0.685525 0.569260 0.952563 0.945018 0.029141 -0.236200 
0.702993 -0.816211 0.935535 0.964018 0.124198 -0.179996 
0.948422 0.298914 3.021937 -0.940430 0.181712 -0.251055 
0.799693 0.629023 1.612260 -0.900627 -0.182100 0.231522 
0.633736 -0.700855 0.782812 0.925270 0.046732 -0.261203 
-0.565271 0.482210 0.383850 -0.855495 0.427712 -0.232154 
-0.399477 -0.351538 0.011427 -0.860438 -0.147452 -0.474933 
1.064837 0.666839 2.861526 -0.951269 -0.004960 -0.203462 
-0.948838 1.149714 1.612894 0.759174 0.412601 0.400364 
0.142028 1.132438 0.303282 0.946338 -0.013527 -0.025715 
0.279064 0.512129 -0.209746 0.542612 0.079607 -0.821109 
0.591337 -0.371834 1.642149 -0.824402 0.480633 -0.219712 
0.057264 1.315525 0.196301 0.462035 0.711312 0.486491 
-0.483326 -0.691595 0.434906 -0.818245 -0.138547 -0.433733 
-0.635818 -0.323624 1.376394 0.942680 0.224099 -0.099651 
-0.833351 -0.098043 2.311148 -0.899580 -0.419879 -0.065892 
-0.340783 -0.062224 0.170303 -0.398498 -0.167120 0.856673 
0.925724 0.404053 1.909670 -0.894988 0.000624 0.390816 
-0.217570 1.168244 0.485897 0.545169 -0.004709 0.813804 
0.629270 0.030275 0.760448 0.974845 -0.093755 -0.179383 
-0.760819 0.017887 1.763656 -0.806494 -0.419599 -0.349905 
-0.897051 0.081116 2.146596 -0.917508 -0.368051 -0.110474 
0.467007 -0.817941 0.446000 0.784517 -0.067816 -0.491972 
-0.565466 -0.607581 0.615852 -0.889959 -0.100013 -0.297023 
0.157846 -0.289890 0.225194 0.217560 -0.184245 0.953542 
-1.067054 0.434695 2.682287 0.864234 0.474717 0.056572 
-1.003560 0.907344 1.952670 0.849492 0.179400 0.413528 
0.865408 -0.072527 2.844656 -0.921708 0.324157 -0.178982 
-0.548791 0.618182 0.521265 0.890879 0.123009 0.415119 
-0.434515 -0.826053 0.384323 0.679228 0.025455 0.593395 
0.059386 -0.386293 0.215043 0.064815 -0.130135 0.986593 
1.035610 0.443435 2.889183 0.958054 -0.169948 0.213410 
0.127549 1.098609 -0.022011 0.483801 0.457297 -0.730947 
0.983079 0.554732 3.083668 -0.924223 -0.000920 -0.358328 
-0.849615 0.670621 1.432664 -0.904336 -0.415451 -0.038754 
-0.238719 -0.800520 -0.025358 -0.012378 -0.313223 -0.935563 
0.585240 -0.050672 0.560176 0.952846 -0.066480 -0.270842 
-1.215910 0.827540 2.892294 -0.945850 -0.303797 0.052271 
-0.456536 0.357947 0.379827 0.778920 -0.108766 0.561603 
-1.131277 0.784283 2.288461 -0.953351 -0.267485 -0.124706 
0.760484 -0.151697 1.393928 0.954258 -0.236725 -0.123784 
0.778541 -0.214572 2.964804 -0.903053 0.382063 -0.186675 
0.524951 -0.307587 0.459839 -0.708994 -0.028843 0.516207 
0.679023 -0.366892 2.208725 -0.772681 0.543180 0.205207 
-0.951024 0.790673 1.753797 -0.859660 -0.417938 -0.164027 
-0.557220 -0.392481 1.470860 0.908889 0.313476 -0.146702 
-0.568396 0.137319 0.328942 -0.913356 -0.076621 -0.363033 
-0.808477 0.574821 1.291477 -0.923269 -0.371082 -0.028931 
0.241389 0.238830 0.296324 0.410003 -0.155041 0.895384 
-0.638734 -0.401624 0.896061 0.971033 0.063843 0.062106 
1.030711 0.153279 2.408833 0.896269 -0.400466 -0.152594 
0.561895 -0.137843 0.483958 0.938774 -0.060194 -0.314308 
-0.866402 0.012767 2.623972 0.917175 0.335395 -0.118096 
-0.495354 0.062831 0.327399 0.636615 -0.159806 0.641931 
0.263166 -0.904696 0.096475 -0.122122 -0.009796 0.919132 
-0.096384 -0.916733 -0.066458 -0.253339 -0.062781 -0.930309 
1.088850 0.663342 2.718559 0.980818 -0.050929 0.083395 
-0.882026 0.981407 1.512047 0.919983 -0.142830 0.340263 
0.656353 -0.540024 1.242721 -0.967374 0.127294 -0.108396 
-0.740042 0.387894 0.962295 -0.958015 -0.269289 -0.032393 
-0.861323 0.720623 1.667726 0.869602 0.103693 0.381848 
-0.355585 -0.526700 -0.016636 -0.807371 -0.164963 -0.547574 
0.737229 1.036937 1.567786 -0.947854 0.188324 0.107904 
0.153250 -1.132523 0.015682 0.331460 -0.135983 -0.822498 
0.809079 0.739003 1.651378 -0.866265 -0.186282 0.309022 
0.421892 0.152718 0.177919 -0.533456 -0.209141 0.799226 
-0.305658 -0.685841 -0.033712 -0.679310 -0.203130 -0.681637 
0.473365 -0.505835 0.389477 0.842842 -0.107261 -0.440349 
0.524347 -0.065939 0.503078 -0.793366 -0.092429 0.473757 
-0.714737 0.110051 1.046326 -0.958950 -0.241593 -0.079165 
-0.470252 -0.264463 0.225636 0.468071 -0.065720 0.749417 
-0.355807 -1.163212 0.173295 0.184268 -0.156640 0.660182 
0.186104 0.516932 -0.243436 0.488722 0.106291 -0.849528 
0.884200 0.886345 2.008268 -0.870350 -0.070364 0.336071 
0.614611 -0.971986 0.661599 -0.828136 -0.287332 0.358746 
1.089748 0.460655 2.357114 0.965836 -0.099814 -0.204245 
-0.624560 0.275960 0.465812 -0.946040 -0.028892 -0.287368 
-0.394811 -0.710407 0.194338 0.506268 0.012472 0.774285 
-0.665393 -0.181421 1.095576 0.963451 0.162925 0.103832 
-0.229089 0.146706 0.279530 -0.364855 -0.193187 0.906914 
-0.864563 0.180201 1.927371 -0.954322 -0.261588 0.002276 
-0.715072 0.105770 1.122923 -0.955709 -0.259187 -0.072346 
1.023477 0.629681 2.545705 -0.948776 0.063350 0.021772 
0.609053 -0.929809 0.718669 0.869290 0.122552 -0.324102 
-0.166548 -0.516077 0.162722 -0.230840 -0.228516 0.943795 
0.520334 -0.949195 0.556932 0.806110 0.017119 -0.436416 
-0.648516 0.190128 0.620771 -0.955026 -0.109627 -0.265429 
0.425963 -0.901130 0.366307 -0.624065 -0.031208 0.656225 
-0.800430 0.244282 1.699930 0.971335 0.159230 -0.026171 
-0.981549 0.404020 3.205220 0.896628 0.418460 -0.119369 
-0.702461 0.244650 1.259965 0.928685 0.102244 0.227838 
-0.870920 1.057344 1.487585 0.915640 0.283131 0.104440 
1.024163 0.284549 2.777092 0.951548 -0.150770 0.252887 
0.479621 0.513441 0.021940 0.838741 0.151103 -0.405316 
-1.056567 0.538863 3.133589 -0.905378 -0.400000 0.119603 
-0.731308 -0.059518 3.015267 -0.871080 -0.456625 0.170895 
-1.142908 0.751415 2.571342 0.912029 0.317567 0.134794 
0.446869 0.237241 -0.044192 0.870822 -0.070445 -0.485587 
-0.861367 0.133956 2.901719 0.842024 0.516060 -0.043974 
-0.554820 0.373207 0.219263 -0.914654 0.076470 -0.327531 
0.097279 -0.663444 -0.085977 0.032625 -0.301322 -0.945262 
-0.947713 0.972699 1.546120 -0.903573 -0.358753 0.037111 
0.480394 -0.531823 1.903948 -0.789279 0.573339 -0.047831 
0.123977 1.051135 0.400741 0.029749 -0.048293 0.944680 
-0.073146 -0.412057 0.210281 -0.103850 -0.190012 0.974966 
0.961215 0.738169 2.002923 0.925041 -0.221319 -0.260731 
0.105571 0.030622 -0.296033 0.488661 -0.067883 -0.857142 
0.627505 -0.773470 0.775557 0.911804 0.054886 -0.275924 
0.685474 0.867462 1.345539 -0.948355 0.121542 0.141121 
0.189332 -0.397458 -0.204057 0.439856 -0.289684 -0.840561 
-0.112097 -0.996351 -0.056084 -0.341300 0.003166 -0.921214 
0.658049 0.775123 1.220612 -0.934974 0.145795 0.109042 
0.220270 -1.429123 0.140326 0.381115 -0.599761 0.621639 
0.529457 -0.378469 0.541728 -0.799449 -0.009636 0.436126 
1.027531 0.139354 2.254919 0.932895 -0.317108 -0.152544 
0.006338 -0.339332 -0.281107 0.302299 -0.335859 -0.881623 
-0.626818 -0.365691 2.199407 0.784817 0.484639 0.269851 
0.855621 0.282585 3.235264 -0.909320 0.166659 -0.353096 
-0.234389 -0.541604 0.135274 -0.360862 -0.195620 0.908082 
0.359910 0.065258 -0.125240 0.678598 -0.123745 -0.681223 
0.445025 0.378116 -0.044856 0.824479 0.015174 -0.501939 
-0.275117 -0.978353 0.100383 0.326352 0.033275 0.897613 
0.536782 0.521378 0.570026 -0.918686 0.200537 0.266390 
0.554530 0.248680 0.367711 0.940570 -0.061245 -0.280776 
0.443399 0.299351 0.292441 -0.654330 -0.237183 0.688546 
1.071396 0.889447 2.497213 -0.954255 0.168651 0.178031 
0.727089 -0.223364 1.839126 -0.864091 0.430970 -0.217853 
0.055794 0.784967 -0.211083 0.424152 0.368390 -0.813362 
0.948168 0.650250 2.012164 -0.893961 -0.148118 0.317159 
0.942246 0.478319 1.950989 -0.911978 -0.065345 0.344663 
-0.432407 0.343750 0.235384 0.636161 -0.213584 0.710454 
-0.908408 0.083449 2.604108 -0.832388 -0.539358 -0.069021 
0.423522 0.361359 0.327367 -0.758925 -0.087734 0.564241 
-0.398570 0.712098 0.146922 -0.618813 0.760347 0.038237 
0.355534 -0.108780 -0.111668 0.681323 -0.172413 -0.659666 
-0.546008 0.174828 0.483108 0.773108 -0.181859 0.522594 
-0.614862 0.016998 0.492982 -0.939826 -0.090409 -0.289124 
0.448819 0.694582 0.019745 0.735399 0.609050 -0.273151 
-0.726977 0.246596 0.984649 -0.959371 -0.250327 -0.058219 
-0.231390 0.337242 0.324278 -0.340621 -0.133471 0.924978 
-0.981717 0.310330 2.856868 -0.915128 -0.361912 0.161629 
-0.870077 0.222584 3.240674 -0.876328 -0.452395 0.161222 
0.526990 0.143641 0.550971 -0.841528 -0.168771 0.429452 
0.955223 1.001165 2.125268 -0.835214 0.363523 0.297514 
-0.563783 -0.322889 0.453222 -0.918732 -0.127854 -0.308598 
0.939990 0.646924 1.940940 0.931461 -0.182169 -0.232479 
-1.142222 0.987389 2.253927 0.782725 0.501046 0.255268 
-1.073925 0.653757 2.219163 -0.972489 -0.211659 -0.075868 
-0.611558 -0.288564 1.935815 -0.766969 -0.526604 -0.322782 
0.977260 0.353813 2.003701 0.963484 0.001257 -0.219564 
-0.430407 -0.148247 0.021138 -0.863477 -0.112606 -0.476010 
-0.365751 -0.219963 0.107926 -0.139069 -0.120818 0.904782 
-0.663973 -0.279296 0.833940 -0.968494 -0.125600 -0.095124 
-0.789604 0.003620 2.893030 0.897948 0.379140 -0.177519 
-0.821459 0.891928 1.195207 0.705348 0.520870 -0.157090 
-0.837023 -0.124508 2.394576 -0.895500 -0.427626 -0.076178 
1.111462 0.670175 2.482535 0.994154 0.019811 -0.101261 
-0.957848 0.196592 2.417269 0.934096 0.280533 -0.028869 
-0.256333 -0.008284 0.237791 -0.433456 -0.198681 0.864364 
-0.518170 -0.122395 0.370176 0.640292 -0.078784 0.593322 
-0.894029 0.789948 1.528225 -0.878862 -0.445477 -0.079773 
-0.543306 -0.556594 0.567727 0.826235 0.036558 0.392881 
0.608287 -0.373951 1.774261 0.756628 -0.575814 -0.099348 
0.861700 0.225491 3.194556 -0.910039 0.190198 -0.340944 
0.605461 -0.331122 1.542331 -0.856411 0.419538 -0.078185 
0.605496 -0.380738 0.744715 -0.946524 -0.032836 0.261773 
0.425276 -0.817848 0.359400 0.752822 -0.101844 -0.547105 
-0.833474 0.666073 1.553347 0.933797 -0.005359 0.227728 
-0.695658 0.632614 0.980118 0.960196 0.139269 0.207483 
-0.612054 -0.483947 1.031663 0.956185 0.100001 -0.073711 
-1.161107 0.687440 2.446283 -0.954525 -0.256441 -0.147075 
0.511296 -0.399172 0.446355 0.889240 -0.092137 -0.376133 
-0.352605 -0.370432 -0.086026 -0.791872 -0.170170 -0.559555 
0.734515 0.431873 1.238081 0.966592 -0.229769 -0.090096 
-0.115333 -1.111571 -0.057261 -0.519758 0.024468 -0.827996 
-0.608546 0.312704 0.405363 -0.940038 0.012344 -0.287540 
0.660240 -0.367917 2.137907 -0.751283 0.543988 0.254810 
0.630874 -0.258000 0.906794 -0.966992 0.048106 0.188797 
-0.879376 0.061979 2.674028 -0.836062 -0.530729 -0.034255 
-0.348266 0.457472 -0.181323 -0.610554 0.032106 -0.778997 
-0.598230 -0.495394 1.104349 0.947052 0.128828 -0.140057 
0.106020 -0.149449 -0.272079 0.442582 -0.170612 -0.858262 
-0.172373 1.016999 -0.042605 -0.598752 0.425197 -0.667934 
-0.560928 -0.552864 1.365854 0.921174 0.223167 -0.256933 
-0.480425 -0.384300 1.680969 0.858216 0.463098 -0.185261 
0.105870 0.354425 0.387229 0.248926 -0.132375 0.946548 
-0.699407 -0.072734 1.437746 -0.944082 -0.304102 -0.063209 
-0.136293 -0.829492 -0.041550 -0.146078 -0.212277 -0.941502 
-0.612676 0.146537 0.489538 -0.936690 -0.094154 -0.306802 
-0.827676 0.403493 1.688078 0.965868 0.089059 0.022329 
-0.797430 0.049368 3.017218 -0.881523 -0.434127 0.171614 
-0.507108 0.260706 0.111360 -0.878982 -0.057182 -0.456468 
-0.151332 1.132587 0.329828 -0.925579 0.045346 -0.152069 
0.145682 0.975173 0.396765 0.236361 -0.188953 0.941320 
-0.613195 -0.392772 0.689416 0.920615 0.042030 0.262350 
0.615335 -0.304903 0.713684 0.958901 -0.040418 -0.250144 
0.918463 0.502883 1.844812 0.962326 -0.099773 -0.090977 
0.078078 -0.296159 0.229090 0.113000 -0.187492 0.972161 
-1.067168 0.446534 2.605898 0.867437 0.453338 0.107499 
-0.088952 0.652787 0.377458 -0.084116 0.154932 0.974645 
1.074115 0.596867 2.879835 0.965205 -0.107760 0.213752 
-0.850738 0.126485 2.977788 -0.890846 -0.414172 0.168830 
0.074009 1.172065 -0.004554 0.453075 0.384330 -0.788941 
0.612451 -0.411604 2.098654 -0.745270 0.557911 0.251039 
-1.032358 0.711738 2.100157 0.863362 0.266420 0.376181 
-0.134842 1.230445 0.082787 -0.709513 0.562681 -0.376441 
0.345628 0.391984 -0.177682 0.623645 -0.011789 -0.771313 
0.604647 0.596034 0.864923 -0.967318 0.209732 0.056226 
0.875901 0.416605 3.254484 -0.911680 0.099174 -0.369984 
-0.839403 -0.056675 2.611379 0.909106 0.366973 -0.084307 
0.848709 0.913947 1.707466 0.925674 -0.301886 -0.139286 
-0.422898 -0.728662 0.287951 -0.769363 -0.168113 -0.533102 
0.411425 0.456676 0.370499 -0.887655 0.250982 0.362568 
-0.526429 0.233050 0.180343 -0.889647 -0.063709 -0.428300 
-0.226643 0.550214 -0.223439 -0.493752 0.130137 -0.840174 
1.056407 0.744150 2.537016 -0.963846 0.071644 0.115769 
0.046585 -0.854069 -0.065005 0.221127 -0.097008 -0.943885 
-0.756378 0.626237 1.165787 0.913230 -0.088754 0.357081 
-0.601340 0.082918 0.446311 -0.931652 -0.087493 -0.314175 
-0.488261 0.480309 0.436858 0.865100 0.268959 0.394070 
0.943356 0.032960 2.678377 -0.932903 0.247903 -0.190674 
0.183209 0.412158 -0.244917 0.513991 0.057716 -0.841687 
0.200285 0.544648 0.348019 0.290288 -0.092794 0.947317 
0.710476 -0.036076 1.233735 -0.947608 0.106859 0.214064 
0.475615 0.422831 0.005732 0.864592 0.072224 -0.416346 
-0.138742 0.294934 0.369143 -0.297443 -0.144886 0.936624 
0.618117 -0.435863 1.439304 0.885772 -0.346449 0.112365 
-0.806738 -0.081234 2.692371 0.900519 0.390635 -0.092517 
-0.933069 0.511895 1.880462 -0.922572 -0.261889 -0.161939 
-0.607401 -0.386695 0.611843 -0.918527 -0.120890 -0.274348 
0.918747 0.254047 3.070482 0.926559 -0.227366 0.280427 
-0.444944 0.178243 -0.055532 -0.846918 -0.060937 -0.522066 
0.444488 -0.597952 2.066884 0.768691 -0.628185 -0.079160 
-0.995591 1.003065 1.680881 -0.909818 -0.340410 -0.205947 
0.743214 0.233238 1.282829 0.964406 -0.236725 -0.096670 
-0.256412 1.040255 0.149925 -0.892980 0.391988 -0.057247 
-0.697713 0.193480 1.211204 0.934074 0.100906 0.222132 
0.854469 -0.126153 2.084439 0.886736 -0.441688 0.030184 
0.585310 0.649721 0.760049 0.940420 0.147953 -0.301045 
0.801160 0.940004 1.431936 0.949172 0.060158 -0.247417 
-0.642447 -0.172830 1.722703 -0.813536 -0.469040 -0.185634 
-0.463604 0.090546 0.244179 0.560245 -0.193187 0.732966 
-0.690114 0.269657 0.914819 0.931804 -0.037837 0.317975 
1.043865 0.853013 2.347291 0.997076 0.027899 -0.050745 
-0.603856 -0.315659 2.009253 0.693688 0.484243 0.465777 
-1.119647 0.666626 3.109219 -0.919859 -0.366764 0.117202 
0.832899 1.060665 1.809789 -0.904869 0.064951 0.349198 
0.021707 -0.163919 -0.301446 0.367035 -0.217972 -0.877366 
0.279832 -0.712516 -0.052772 0.583784 -0.219205 -0.769849 
0.994910 0.800018 2.136046 0.996074 0.014801 -0.044420 
1.066834 0.359619 2.529021 -0.944968 0.225199 0.110245 
0.606973 -0.365918 0.868448 -0.968933 0.028132 0.121642 
0.041367 -1.012251 -0.005966 0.249505 -0.312455 0.879997 
-0.165768 0.442674 0.382176 -0.341176 -0.097578 0.933475 
-0.461697 0.011937 0.230911 0.530792 -0.167498 0.746599 
0.237771 -1.356334 0.132372 0.802679 0.000697 0.504306 
-0.458497 -0.599872 2.161742 -0.817046 -0.541746 -0.181843 
0.321698 0.592472 0.284704 0.473816 -0.128358 0.829239 
-0.263663 -1.112036 0.088009 -0.603650 -0.230656 -0.742531 
0.743455 0.049566 1.285087 0.961135 -0.225472 -0.125356 
0.861282 0.597200 1.646428 0.886150 -0.233705 -0.326134 
-0.255269 0.915874 0.294127 -0.784149 0.049776 0.572867 
-0.659524 -0.589987 0.865621 -0.975632 -0.037982 -0.119666 
-0.566352 -0.326201 1.504201 -0.899047 -0.362648 0.106856 
-0.472518 -0.369196 1.585521 0.867245 0.448237 -0.117335 
0.185805 -0.888678 0.003858 0.223327 -0.229883 -0.943051 
-0.623294 0.631639 0.676475 -0.895645 0.092203 -0.434168 
0.937024 0.927424 2.113024 -0.897681 -0.036785 0.342323 
-0.213720 0.067812 0.273415 -0.364129 -0.205842 0.899845 
-0.424577 0.397398 -0.082105 -0.760285 0.037963 -0.588431 
0.711803 -0.247656 1.489453 -0.932193 0.274257 0.029635 
0.639720 -0.524195 0.989879 0.967141 -0.065027 -0.013518 
0.775839 -0.320155 2.528112 0.844616 -0.528517 -0.007547 
0.944467 0.586721 1.982620 -0.901281 -0.121978 0.327119 
0.942682 -0.012551 2.240744 0.912838 -0.368729 -0.096162 
0.126706 -0.899071 0.050976 -0.197755 -0.236867 0.885666 
0.121928 -0.336430 -0.238329 0.400875 -0.281640 -0.855508 
0.246962 0.117081 0.257944 0.399795 -0.193978 0.890021 
1.053574 0.537265 2.604658 -0.962997 0.083620 -0.002643 
-0.180781 -1.425611 0.142139 0.612341 -0.599974 0.386812 
-0.465448 -0.846548 0.469530 -0.808813 -0.115800 -0.427308 
-0.441785 -0.659389 0.301629 -0.793498 -0.161875 -0.499518 
-1.018348 0.436024 3.092071 0.900277 0.415712 -0.088916 
0.694859 -0.436335 1.322739 0.958091 -0.189262 0.068400 
0.806817 1.060012 1.556530 0.557718 0.526687 -0.465268 
0.310202 -0.622324 0.084994 0.107466 -0.119187 0.902148 
0.619831 -0.455991 0.940704 -0.969070 0.028548 0.066701 
-0.614018 0.395187 0.605822 -0.819023 0.421255 -0.338028 
-0.645104 -0.037741 0.600555 -0.956694 -0.100219 -0.243725 
0.533394 0.419373 0.168286 0.932362 0.095457 -0.281092 
-1.122322 0.595546 2.934944 0.933659 0.336026 -0.067015 
-0.608715 -0.403738 1.413122 0.932794 0.236129 -0.167580 
0.526695 0.553384 0.096563 0.911357 0.214959 -0.273252 
-0.524670 0.224653 0.430142 0.732688 -0.214270 0.579064 
-0.778330 -0.031549 1.976327 0.648234 0.431063 0.585480 
1.097004 0.583230 2.543291 0.987945 -0.009188 -0.009298 
-0.662549 0.560020 0.785369 0.922155 0.276322 0.185116 
0.866309 -0.128633 2.637500 0.857396 -0.492770 -0.021947 
0.171274 -0.850468 0.087299 -0.279214 -0.132371 0.851565 
-0.121542 -0.443906 -0.202087 -0.303648 -0.393463 -0.853543 
0.981115 0.332662 2.954115 0.944473 -0.204322 0.235644 
-0.634472 -0.855039 0.939804 0.946055 -0.047940 0.127861 
0.854169 -0.125826 2.176811 -0.791431 0.442883 0.300098 
-0.590430 0.350555 0.337969 -0.932937 0.054598 -0.290068 
0.160196 -0.689405 0.120388 0.069857 -0.211361 0.907881 
0.636257 -0.540428 0.775506 0.946477 0.019553 -0.243539 
-0.017106 1.325088 0.197655 -0.317879 0.672363 0.618410 
0.354709 -0.950351 0.218261 -0.532763 -0.002795 0.780963 
-0.865523 0.700843 1.498544 -0.896444 -0.434032 -0.043522 
-0.640275 0.446927 0.785123 0.925119 0.276055 0.226798 
-0.391376 -0.638259 2.003734 -0.806728 -0.551580 -0.129661 
0.652237 0.626170 1.095866 -0.864612 -0.269437 0.418568 
0.439871 0.376832 0.464632 -0.904843 0.032641 0.377668 
-0.740581 -0.202986 2.740251 -0.872981 -0.473135 0.058329 
-0.689009 -0.126533 1.793023 -0.782732 -0.486845 -0.295238 
-0.671731 -0.189275 1.442104 -0.937466 -0.287615 0.028324 
0.457950 -0.269477 0.186385 0.894746 -0.108734 -0.410245 
-0.581247 -0.032346 0.550458 0.836964 -0.062529 0.397704 
-0.878518 0.860405 1.229550 -0.851341 0.118149 -0.381379 
-0.753605 -0.083982 1.925157 -0.908340 -0.414437 0.022250 
0.736529 0.531213 1.414224 -0.887291 -0.136478 0.316458 
0.922202 -0.040474 2.434559 -0.907660 0.346043 -0.004809 
-0.671158 0.408248 0.719755 -0.797251 0.405968 -0.425772 
0.872091 0.076800 3.023289 -0.908128 0.320568 -0.208140 
-1.045635 0.814182 2.018792 -0.966743 -0.238819 -0.055918 
-0.112968 -0.379051 -0.235473 -0.382586 -0.312798 -0.856327 
0.480975 0.657885 0.078464 0.810762 0.504948 -0.220440 
0.945545 0.010526 2.149002 0.918382 -0.359195 -0.068350 
-0.240459 0.205082 -0.229995 -0.547371 -0.051089 -0.828635 
0.884282 0.353355 3.205748 -0.912670 0.124669 -0.355967 
-0.680661 0.246692 0.848426 0.931522 -0.061586 0.329625 
-0.971459 0.443383 2.069517 0.919598 0.219201 0.309312 
-0.523998 0.541767 0.404132 -0.839858 0.492105 -0.133615 
-0.318730 0.671596 0.301730 -0.639496 0.207703 0.733407 
-0.406086 -1.029847 0.277257 -0.727548 0.052589 -0.559910 
-0.725344 -0.169763 2.088465 0.691913 0.456314 0.463697 
-0.932542 1.019853 1.421407 -0.738498 0.237456 -0.429668 
-1.099224 0.742162 2.226943 -0.961964 -0.243785 -0.097979 
-0.528931 -0.462310 0.434590 -0.870994 -0.140021 -0.373287 
-0.778933 0.626938 0.934265 -0.870139 0.114844 -0.423231 
0.715193 -0.381580 2.402115 0.825169 -0.560388 -0.042793 
0.581472 -0.369647 0.648479 0.925389 -0.056218 -0.300673 
-0.526884 -0.529762 2.233361 -0.831021 -0.526542 -0.147758 
0.676073 -0.203813 0.985416 0.963766 -0.122781 -0.195171 
-0.294785 0.481963 0.275469 -0.196495 -0.129168 0.968328 
0.949010 0.195852 2.004132 -0.901839 0.203584 0.339254 
0.821334 0.614776 1.711257 -0.881669 -0.068171 0.336361 
0.787891 -0.002696 1.487054 0.953115 -0.272240 -0.126920 
-0.359027 -0.326630 0.104369 -0.268262 -0.134388 0.853778 
-0.586764 -0.460607 0.594977 -0.902896 -0.118542 -0.294717 
-0.575971 0.025822 0.352513 -0.919073 -0.075610 -0.340452 
-0.979226 0.670150 1.920463 -0.867271 -0.384523 -0.229755 
-0.652909 0.075435 0.632714 -0.959105 -0.107266 -0.246599 
0.833260 0.987641 1.753837 -0.830633 -0.103848 0.522349 
-0.148259 0.005041 0.293641 -0.268421 -0.209556 0.938821 
-0.729354 -0.210732 2.160347 -0.888586 -0.449295 -0.017061 
-0.772914 0.324995 1.572294 0.944219 0.146160 0.130845 
0.853510 -0.134781 2.715893 0.864952 -0.473472 0.017763 
-0.761841 -0.285512 2.470807 -0.879525 -0.473333 -0.029747 
-0.353024 0.337907 0.231088 -0.117906 -0.182322 0.905659 
-0.213968 0.461420 -0.239115 -0.520318 0.071322 -0.841072 
0.199515 0.949211 -0.059123 0.639210 0.434816 -0.622833 
0.773994 0.393938 1.544888 -0.907043 -0.025109 0.251895 
0.000056 -0.727072 -0.089640 0.707276 -0.140195 -0.682694 
0.596396 0.310655 0.832159 -0.906364 -0.193571 0.359519 
-0.480988 0.637618 0.372453 -0.848603 0.487979 -0.055473 
0.676366 -0.018146 1.096062 -0.943577 0.044181 0.244975 
0.435582 0.690874 0.138153 0.514983 0.832666 -0.000248 
-0.515080 -1.031519 0.458655 -0.795007 0.287398 -0.410709 
0.693337 -0.381410 2.305314 0.824691 -0.556899 -0.031321 
-0.730396 -0.226904 2.234438 0.766333 0.459774 0.304357 
0.511613 -0.846888 0.540819 0.814926 -0.026187 -0.435618 
0.080814 0.929840 0.405113 0.211848 -0.117553 0.962264 
-0.513234 0.617167 0.445202 0.870611 0.208638 0.422720 
0.229524 -0.720463 0.096935 0.067046 -0.150114 0.858699 
-0.895236 0.345113 1.870507 -0.966173 -0.187184 -0.037572 
-0.733456 0.317417 0.966280 -0.959001 -0.258117 -0.045992 
1.053976 0.361750 2.370015 -0.965033 0.103612 0.128351 
0.524507 0.592194 0.522710 -0.913786 0.170792 0.302240 
-1.185313 0.772260 2.741318 0.936918 0.297999 0.054792 
-0.863266 -0.049689 2.534482 0.915162 0.352367 -0.069264 
0.124574 -0.060442 -0.278378 0.484523 -0.105920 -0.853673 
-0.511354 0.177324 0.123853 -0.882505 -0.055875 -0.441417 
0.914578 0.415338 3.168424 -0.916213 0.086053 -0.356732 
-0.732712 -0.031919 3.114207 0.871723 0.460970 -0.162073 
0.906021 1.048017 1.967875 0.820361 0.522119 -0.018403 
0.684063 -0.352374 1.438565 -0.933271 0.253047 -0.033108 
-0.001960 -1.066113 -0.077431 -0.573717 0.071245 -0.800705 
-1.013899 0.541903 3.350698 -0.898046 -0.407214 0.151630 
-0.531679 -0.330740 0.367332 -0.908075 -0.132243 -0.339921 
-0.343222 -0.585887 1.659469 -0.810280 -0.544147 0.140729 
-0.839839 0.149015 1.844336 -0.939957 -0.304302 -0.067846 
-0.675803 0.499169 0.747790 -0.812951 0.312866 -0.461318 
0.110364 0.371581 -0.288697 0.490572 0.061955 -0.858436 
-1.218042 0.916825 2.571189 0.866646 0.452044 0.182725 
1.041650 0.674304 3.030432 0.882789 0.205322 0.402488 
0.645651 0.034095 0.836953 0.973511 -0.103732 -0.167909 
0.713265 -0.158160 1.145900 0.959941 -0.170022 -0.182612 
-1.045636 0.648346 3.431364 -0.906052 -0.386768 0.159454 
0.466128 0.513208 0.406732 -0.867705 0.320976 0.355138 
-0.166549 1.222722 0.223965 -0.631490 0.751878 0.012166 
-0.786404 0.617547 1.352999 0.922151 -0.030977 0.296208 
-0.194719 -0.450592 -0.173180 -0.364024 -0.366529 -0.835397 
0.694799 0.832979 1.258359 -0.787079 0.438685 -0.154921 
-0.846591 0.531996 1.669458 0.959643 0.034098 0.071331 
-0.246827 0.271236 0.303809 -0.391986 -0.146697 0.904899 
-0.474259 -0.438038 1.523626 0.874595 0.404263 -0.156466 
0.365349 -0.251752 0.105781 0.175225 -0.125032 0.877408 
0.446905 -0.016486 0.235543 -0.555514 -0.150339 0.741148 
0.813341 0.128714 3.255168 -0.904383 0.250864 -0.340105 
0.428735 0.542656 0.341137 -0.866534 0.284546 0.393515 
1.025986 0.374387 2.172962 0.934081 -0.129291 -0.292510 
-0.510030 -0.408707 0.350835 -0.880808 -0.139312 -0.378080 
0.728386 0.047438 1.216042 0.963048 -0.206738 -0.131857 
-1.047571 0.813777 2.217872 0.875068 0.232652 0.276874 
-0.122147 0.773681 0.362610 -0.183125 -0.087809 0.968926 
0.222329 0.375457 0.334746 0.319289 -0.128494 0.932801 
-0.476406 0.347608 -0.016587 -0.864230 0.033099 -0.461483 
-0.476741 -0.459417 1.856821 -0.789586 -0.537567 -0.127928 
-0.375834 -0.558190 1.716568 -0.805353 -0.542859 0.069459 
0.620641 -0.151709 0.720707 0.971749 -0.063037 -0.220824 
0.588825 0.391603 0.414122 0.952714 0.145008 -0.185940 
0.450416 -0.548402 1.576669 0.746589 -0.598945 0.189983 
-0.928193 0.210087 2.746178 0.822157 0.552431 0.030619 
0.894633 -0.060329 2.190808 -0.833935 0.402911 0.258568 
-0.123248 1.263417 0.160687 -0.684921 0.651593 0.086454 
-0.610151 0.346106 0.711537 0.904175 0.150697 0.304654 
-0.473875 0.393694 0.460321 0.874800 0.131288 0.415185 
0.335899 0.699415 0.265271 0.704635 0.273144 0.600557 
0.692482 0.316700 1.052689 0.974384 -0.186257 -0.087707 
-0.466473 -0.619733 0.374810 0.686159 0.036966 0.578945 
-0.814454 0.664959 1.185957 -0.926889 -0.361623 -0.019526 
-0.033309 -0.866899 -0.061163 -0.262776 -0.074687 -0.942765 
0.760954 0.600157 1.517466 -0.884049 -0.150989 0.306329 
-0.757753 0.040470 1.889482 0.783790 0.375890 0.410894 
-0.700221 0.448222 0.922351 0.915534 -0.095198 0.376385 
0.771870 1.298153 1.574717 -0.649060 0.203039 -0.714261 
-0.116286 0.934507 -0.108375 -0.520044 0.483416 -0.676624 
0.497642 0.597844 0.356649 0.890992 0.430076 -0.025117 
-0.238292 0.360954 -0.222380 -0.534396 0.014926 -0.834315 
-0.448147 -0.473615 1.792714 0.842623 0.489996 -0.090347 
0.607149 -0.022427 0.809676 -0.940657 -0.068049 0.297187 
-0.366122 -0.529561 1.600538 0.828593 0.514070 -0.205118 
1.037447 0.221761 2.423839 -0.956849 0.176005 -0.029843 
0.488691 -0.132925 0.237113 0.904162 -0.086230 -0.394079 
0.499076 0.634031 0.423879 0.911106 0.350156 -0.053115 
0.643338 -0.270680 0.977341 -0.966409 0.068200 0.160320 
0.440278 0.618413 0.307246 -0.810845 0.323550 0.432431 
0.629180 -0.440269 0.792892 -0.959178 -0.055675 0.235658 
0.276813 0.941800 0.256983 0.877235 0.160661 0.395169 
-0.894861 0.687122 1.595816 -0.847142 -0.416580 -0.210810 
0.588369 -0.454700 2.151185 -0.767091 0.571017 0.182446 
0.676559 -0.103180 1.082166 -0.954590 0.075769 0.222847 
-0.727101 0.702608 0.930804 0.904265 0.319870 0.095351 
0.184645 -0.358881 0.202283 0.262315 -0.186674 0.933478 
0.654683 -0.598138 0.970794 -0.969221 -0.034346 0.084113 
0.000055 1.323298 0.025708 0.481004 0.066180 -0.816411 
-1.159175 0.716166 2.658001 0.920498 0.338596 0.093970 
0.639173 0.126812 0.806785 0.976215 -0.110338 -0.152836 
-1.025506 1.113252 1.801396 -0.907279 0.351076 -0.082498 
0.477028 -0.528724 1.798259 -0.784306 0.569162 -0.121784 
-0.864323 0.172372 3.074489 -0.886328 -0.426595 0.165580 
-0.626965 0.217664 0.541084 -0.943338 -0.099800 -0.296005 
-0.106378 -0.604913 0.150721 -0.228153 -0.252151 0.939486 
-1.208838 0.893334 2.647676 0.898754 0.385055 0.127503 
0.714527 0.606584 1.144453 0.971637 -0.213861 -0.076252 
0.317791 0.200760 -0.183689 0.588429 -0.077369 -0.800367 
0.710228 0.127143 1.133189 0.967386 -0.191407 -0.121805 
-0.993238 0.265778 2.304535 -0.881498 -0.410375 -0.195488 
-1.019082 0.686689 3.646582 -0.902047 -0.388540 0.186427 
0.358992 0.744536 0.204163 0.818670 0.362471 0.371148 
0.857258 0.120388 1.831845 -0.940519 0.165464 0.109518 
0.797914 -0.038610 1.564874 -0.960204 0.214510 0.123940 
0.843263 0.870406 1.641798 0.967097 -0.174636 0.041814 
0.342333 0.787607 0.021839 0.785254 0.520566 -0.263429 
0.674624 0.499750 1.168884 -0.880931 -0.178480 0.371033 
-0.442601 0.656485 0.001583 -0.743454 0.467516 -0.356987 
0.191700 0.034839 0.281711 0.364334 -0.204970 0.897529 
-1.062185 0.483759 2.298982 -0.847452 -0.421292 -0.320030 
-0.009854 0.221815 0.358695 -0.076251 -0.193630 0.975603 
1.055147 0.603726 2.970139 0.955507 -0.106466 0.266636 
0.265236 -0.863289 0.000416 0.389642 -0.238981 -0.809693 
-0.505410 -0.825088 0.568076 -0.844580 -0.092630 -0.355657 
-0.181080 -1.354878 0.141042 0.426404 -0.246316 0.640482 
0.355805 -1.151960 0.154827 -0.214446 -0.176822 0.694750 
-0.893569 0.138299 2.748539 -0.826417 -0.541574 -0.021398 
0.536458 0.257668 0.289510 0.928404 -0.057484 -0.316807 
-0.045728 1.006610 -0.097740 -0.377061 0.489815 -0.767893 
-0.649729 -0.256800 1.248671 0.952236 0.196526 -0.005455 
-0.826705 0.329622 1.811419 0.919200 0.221666 0.250103 
1.094330 0.711393 2.665841 0.986257 -0.017681 0.036042 
-0.901915 0.198578 2.932034 -0.900306 -0.393719 0.166346 
-0.979048 0.765374 1.902072 0.899139 -0.004979 0.337740 
-1.092872 0.524365 2.907408 -0.912729 -0.396049 0.081977 
0.440850 0.164005 0.247807 -0.600043 -0.201086 0.729451 
-0.875024 0.845453 1.571930 0.934030 -0.090328 0.247598 
-0.662821 -0.478953 0.900215 -0.977560 -0.072884 -0.059959 
-0.684171 0.024596 1.103891 0.951023 0.116944 0.190606 
0.186284 -0.533911 -0.123883 0.020211 -0.439659 -0.872243 
0.366372 -1.026552 0.212944 -0.530860 -0.066287 0.775192 
0.582641 0.092076 0.546710 0.956355 -0.090369 -0.245341 
0.775186 -0.072208 1.494542 -0.955531 0.226540 0.154878 
0.560635 0.382027 0.663445 -0.923725 0.279956 0.193650 
-0.183315 1.223202 0.376498 0.355301 0.817047 0.352317 
-0.853013 0.739505 1.568401 0.935383 -0.041520 0.227754 
0.609782 -0.093573 0.670618 0.968374 -0.069560 -0.227864 
-0.118107 0.818452 -0.174017 -0.478827 0.424995 -0.749811 
0.399811 0.700037 -0.045789 0.668337 0.542235 -0.430991 
0.707400 0.936710 1.447236 -0.969308 0.046454 0.216734 
-1.059124 1.025100 2.033675 0.904055 0.275689 0.304214 
-0.534612 -1.008670 0.529312 0.794070 -0.289937 0.384880 
-0.559784 -0.834044 0.722821 -0.894970 -0.052413 -0.248067 
-1.128703 0.855431 2.387100 0.895594 0.282659 0.245093 
0.715092 0.264808 1.156054 0.970153 -0.209516 -0.089928 
0.185877 0.306422 0.354645 0.371436 -0.133739 0.916726 
-0.351312 -0.741587 0.093821 -0.746865 -0.177640 -0.601873 
-0.058034 1.271457 0.251894 -0.198177 0.791746 0.564741 
-0.680612 -0.113875 1.346143 0.954811 0.240127 0.071473 
-0.488936 0.136412 0.317580 0.642235 -0.190006 0.653418 
0.129282 0.282482 -0.296091 0.521596 0.008870 -0.847802 
-0.861367 0.911033 1.468489 0.919808 -0.124889 0.335750 
1.090075 0.713028 2.423305 0.994767 0.014888 -0.095004 
0.943383 0.001318 2.339694 -0.915698 0.341770 0.075290 
0.144079 1.182760 0.408981 -0.405216 0.535208 0.693273 
0.052428 -0.053388 0.289418 0.123620 -0.214711 0.966704 
-0.365564 -0.784847 0.158593 -0.738680 -0.178336 -0.598926 
-0.230590 -0.869287 0.087439 0.182000 -0.048824 0.871725 
0.937057 0.364879 3.091982 -0.922209 0.109966 -0.328009 
0.883279 -0.072130 2.750235 0.868992 -0.462138 0.012362 
0.521565 -0.240116 0.388051 0.923582 -0.083300 -0.345130 
-0.724941 -0.020432 1.711378 0.940399 0.313728 -0.041018 
-0.085710 0.885178 -0.160610 -0.499123 0.413275 -0.743277 
0.890395 -0.051197 2.004848 0.904316 -0.401371 0.025946 
1.055326 0.533767 2.362837 -0.953964 0.046077 0.222191 
0.297516 0.893658 0.209425 0.900337 0.220031 0.282432 
0.744458 0.367819 1.283909 0.964080 -0.237676 -0.096880 
0.635623 0.263595 0.789063 0.979056 -0.132882 -0.130287 
-0.846262 0.912319 1.377752 0.915561 -0.151623 0.364498 
-0.060202 1.348444 0.116110 -0.630066 0.672184 -0.074723 
0.559614 -0.056958 0.630450 -0.898389 -0.083752 0.347740 
-0.382126 -0.124845 0.117945 0.036283 -0.133672 0.908173 
-0.128181 -0.499418 -0.158145 -0.187263 -0.498496 -0.844002 
-0.074993 -1.176036 -0.061076 -0.024931 -0.415359 0.606147 
0.952841 0.020212 2.588235 0.854269 -0.498508 -0.097483 
-0.055391 -1.077057 -0.032248 -0.121130 -0.293888 0.866229 
-0.598765 -0.494351 1.206773 0.942169 0.157296 -0.173672 
-0.300780 -0.760783 -0.012366 -0.673851 -0.202594 -0.691808 
0.359076 -0.788639 0.189889 0.716558 -0.153049 -0.621863 
-0.722962 0.572665 1.028050 0.908241 -0.105266 0.386397 
-0.429696 0.497173 0.358338 0.862509 0.194089 0.443274 
0.533389 0.196596 0.324828 0.925881 -0.087416 -0.327586 
-0.394611 -0.577068 0.094955 0.352774 -0.023889 0.886389 
0.689456 0.692832 1.248811 -0.863578 -0.270437 0.395388 
-0.501255 -0.893387 0.593606 -0.843847 -0.079988 -0.345617 
0.264235 0.848236 0.282576 0.742177 0.146151 0.599691 
0.446233 0.084884 0.011858 0.876149 -0.083391 -0.467224 
0.746764 0.162418 1.300719 0.963491 -0.239482 -0.099497 
-0.599893 -0.715673 1.206640 -0.946496 -0.112105 0.220691 
0.321202 -0.933208 0.152461 0.659878 -0.165643 -0.694931 
-1.097820 0.494346 2.724794 -0.928611 -0.351165 0.083431 
-1.143634 0.914963 2.267600 -0.964801 -0.232950 -0.100861 
-0.700474 -0.089661 1.720737 -0.831592 -0.438996 -0.228711 
-0.543240 -0.908558 0.712314 0.823723 -0.028659 0.328423 
-0.487214 0.479516 0.026657 -0.850280 0.172040 -0.395743 
-0.955405 0.163981 2.497540 -0.840732 -0.516334 -0.116885 
-0.741780 -0.132367 2.005516 -0.900657 -0.427553 0.006667 
0.897383 0.138647 1.912931 -0.825655 0.242734 0.460220 
-0.598100 -0.442144 2.275409 0.834695 0.494309 0.164612 
-1.125172 0.804555 3.318593 0.856711 0.480645 -0.091177 
0.764452 -0.288364 2.764842 0.867995 -0.468022 0.094801 
0.640016 -0.682807 1.192942 -0.969468 0.082812 -0.158830 
-0.056446 0.072808 -0.323703 -0.465124 -0.053454 -0.868845 
-0.546299 -0.353163 1.874449 0.867145 0.447780 -0.068947 
0.263843 -0.780382 -0.028561 0.327994 -0.256779 -0.823024 
-0.555525 -0.454864 2.160950 0.790050 0.501289 0.262112 
-0.649539 -0.258922 1.335275 0.947954 0.220246 -0.036183 
0.116495 0.046305 0.305982 0.239973 -0.213249 0.942285 
-0.282982 0.473415 -0.216053 -0.558722 0.052705 -0.822394 
-0.751125 0.509704 0.924328 -0.957654 -0.281162 -0.012000 
0.613341 0.194169 0.661558 0.980750 -0.102987 -0.161702 
0.673190 0.820062 1.122956 -0.849868 0.311376 -0.026887 
0.531905 -0.461332 1.721270 0.752545 -0.590241 0.009003 
-0.716842 -0.139983 2.930451 -0.866378 -0.474189 0.123293 
-0.867401 0.353720 1.734766 -0.793063 -0.342085 -0.469496 
-0.558577 -0.482121 0.528921 -0.877956 -0.133431 -0.343567 
-1.058886 0.575589 2.206534 -0.878981 -0.380926 -0.270908 
0.553995 -0.497983 1.451512 0.847015 -0.413978 0.168997 
1.014303 0.193427 2.208262 -0.946350 0.236341 0.189988 
-0.769617 0.751790 1.159760 0.924593 0.009504 0.316068 
-0.482363 -0.416451 1.760219 -0.787212 -0.533523 -0.072587 
-0.169897 0.549167 0.373054 -0.317777 -0.079279 0.941963 
-0.562282 -0.645660 1.305877 0.927926 0.172013 -0.320508 
-0.204037 0.301502 -0.252762 -0.536453 -0.005023 -0.838390 
0.541008 -0.684697 0.607199 -0.803410 -0.052908 0.427127 
-0.974362 0.316064 2.927655 -0.909420 -0.376205 0.159381 
-0.139729 -1.060672 -0.005265 0.444787 -0.208087 0.844575 
-0.472719 -0.343845 0.224146 0.450083 -0.036482 0.750199 
-0.448112 -0.381569 0.153549 0.372555 -0.041928 0.826775 
-0.927800 0.611352 1.848655 0.878807 0.082311 0.397186 
-1.025069 0.376081 2.810537 -0.919419 -0.360481 0.137262 
0.991718 0.098432 2.382206 -0.936578 0.266408 0.004582 
-0.413993 0.002446 -0.066850 -0.823999 -0.097617 -0.538937 
0.288121 -1.163843 0.121866 0.538272 -0.088470 -0.752118 
-0.440874 -0.024697 0.004530 -0.861625 -0.091976 -0.486198 
0.078628 0.425467 0.391942 0.193878 -0.100851 0.960641 
0.294917 0.663497 0.316648 0.554250 0.219801 0.781572 
-0.050965 -0.482707 0.192422 -0.136511 -0.197512 0.963967 
0.781698 0.194705 3.356844 0.893321 -0.240766 0.374267 
-0.155611 -0.377089 0.206873 -0.200153 -0.200732 0.956843 
0.566649 0.609779 0.686559 -0.973007 0.017390 0.226557 
0.368587 0.678769 -0.108262 0.625959 0.408124 -0.585932 
0.362739 -0.248817 -0.090088 0.774035 -0.160322 -0.571728 
0.201162 0.779664 -0.161283 0.521384 0.485440 -0.678742 
-0.264684 -0.790327 0.105617 -0.044794 -0.052510 0.903497 
-0.907453 0.736997 1.725340 0.851325 -0.011681 0.445525 
-0.263780 -0.409683 0.164696 -0.448913 -0.201006 0.851211 
-0.354833 0.512687 0.233787 -0.024398 0.048378 0.857686 
0.665957 0.770946 1.060070 0.728587 0.366203 -0.446196 
0.154367 -1.155631 0.085220 -0.736182 -0.054650 0.493917 
1.027932 0.278631 2.194168 0.936636 -0.201729 -0.238687 
0.049553 0.670332 -0.264013 0.338222 0.274302 -0.893156 
1.063037 0.333105 2.601466 -0.941706 0.269238 0.044930 
0.053422 0.773586 0.370718 0.106124 -0.139994 0.973533 
-0.939350 0.398383 3.396970 0.886519 0.435906 -0.150903 
0.847093 0.006896 3.026138 0.908951 -0.283594 0.277660 
-0.708124 0.064557 0.803511 -0.970192 -0.175657 -0.112513 
0.617320 -0.244486 0.830282 -0.967628 0.026295 0.219507 
-0.954272 0.379779 3.282750 -0.883696 -0.441939 0.145566 
0.749294 -0.029013 1.311502 0.958432 -0.225739 -0.140099 
0.384797 -0.639098 0.107198 -0.396807 -0.028690 0.872592 
-0.700925 -0.090487 3.087485 0.871274 0.460962 -0.168013 
-0.186245 -0.618100 0.126436 -0.232199 -0.218306 0.923627 
-0.524761 -0.029118 0.232791 -0.899103 -0.087186 -0.389411 
0.700084 0.450235 1.086021 0.975308 -0.202443 -0.067515 
0.510418 0.382060 0.107234 0.915444 0.052541 -0.337549 
0.310039 -0.454104 -0.114217 0.651672 -0.215124 -0.687493 
0.138772 0.626895 0.385972 0.121247 0.222931 0.959608 
-1.065449 0.601524 2.291825 0.881742 0.321936 0.288884 
-1.012777 0.639808 2.081383 0.923137 0.102721 0.272631 
0.475430 -1.096595 0.261743 0.687091 0.383020 -0.577020 
0.004684 0.292292 -0.362411 0.465568 0.055309 -0.881397 
-0.055027 -0.799049 -0.069652 -0.183888 -0.150791 -0.943584 
-1.043378 0.736984 2.175991 0.870804 0.260855 0.323105 
-0.130617 -0.061997 -0.275540 -0.489656 -0.107041 -0.850958 
0.811376 0.351908 3.366141 -0.904127 0.151128 -0.380269 
-0.319986 0.419455 0.252677 -0.208718 -0.146457 0.960594 
1.029455 0.649603 2.223082 0.994835 0.067761 -0.018438 
-0.150687 0.883645 0.378718 -0.307568 -0.170284 0.919719 
-0.489532 0.214890 0.328039 0.664391 -0.219012 0.648317 
0.636718 -0.474516 0.873461 -0.969035 -0.033529 0.157241 
0.165892 -1.065305 0.043717 -0.658003 -0.081841 0.697596 
-1.160157 0.670113 2.519164 -0.948090 -0.280424 -0.112650 
-1.041815 0.367595 2.648369 -0.933147 -0.325253 0.135879 
0.228956 1.081952 0.440908 0.188348 -0.627919 0.667476 
-1.001997 0.681185 2.023335 0.915375 0.067416 0.293594 
0.191605 1.142236 0.071613 0.747548 0.484036 -0.370136 
0.086910 -0.990702 -0.059449 0.334670 0.013837 -0.922290 
-0.058378 0.931856 0.409905 -0.203148 -0.083062 0.967615 
-0.010951 -0.339619 0.222331 -0.028124 -0.164381 0.985208 
0.123852 0.119665 0.322478 0.258208 -0.208510 0.938356 
-0.045829 -0.398620 -0.257652 -0.317950 -0.354800 -0.873038 
0.311912 0.071885 -0.178738 0.572195 -0.117588 -0.803939 
0.608686 -0.844209 0.742036 0.889000 0.052440 -0.307111 
0.832801 0.982898 1.671351 0.920527 -0.348211 -0.121579 
0.509560 0.281785 0.170382 0.911012 -0.042781 -0.365935 
0.690219 -0.729776 0.979865 -0.969346 -0.106821 0.123551 
-0.301598 -0.129326 0.194350 -0.521619 -0.191187 0.816834 
-0.174299 0.397961 -0.249623 -0.500235 0.054796 -0.851298 
0.672407 -0.284619 1.749688 -0.843658 0.456566 -0.254459 
0.782409 -0.235340 2.853816 0.877241 -0.443475 0.118937 
-0.425120 -0.355870 0.082286 -0.872051 -0.146468 -0.444812 
-0.903402 0.224547 3.027840 -0.894308 -0.409056 0.163962 
0.205702 -0.119413 0.246702 0.384625 -0.197593 0.879597 
0.568623 0.144440 0.483272 0.948525 -0.093491 -0.263830 
-1.157805 0.779772 2.380173 -0.955455 -0.256627 -0.135509 
0.655104 0.394177 0.781469 0.965482 0.008706 -0.197881 
-0.403497 0.659947 -0.058970 -0.685672 0.409483 -0.488722 
-0.432222 -0.430839 1.594453 0.852207 0.473834 -0.153083 
0.804518 -0.183038 2.074670 -0.706976 0.486646 0.433819 
0.924522 0.859735 1.886627 0.987943 -0.044710 -0.118733 
-0.739456 0.361899 1.140901 -0.950672 -0.307532 -0.019867 
0.393187 0.726984 0.048944 0.813540 0.543031 -0.121870 
-0.730067 0.439439 0.779616 -0.947440 0.002687 -0.301533 
-0.055745 1.168576 -0.012516 -0.435252 0.398585 -0.792977 
-1.079572 0.523427 2.982781 -0.908192 -0.404425 0.088550 
-0.135615 0.328830 -0.284329 -0.503069 0.031230 -0.855774 
0.523990 -0.439192 1.529641 -0.814209 0.489198 -0.160581 
0.182707 -0.055190 0.269136 0.342623 -0.201784 0.902932 
0.312379 -0.790962 0.025534 0.704627 -0.172404 -0.660881 
-1.068504 1.070675 1.962366 -0.925382 0.272210 -0.097180 
-0.721466 0.409951 1.200878 0.920538 0.015132 0.290296 
0.700945 0.486360 1.270148 -0.886358 -0.145904 0.342429 
-0.014201 -0.458070 -0.212062 -0.152712 -0.550539 -0.797939 
0.252529 -0.530293 0.135120 0.394835 -0.195479 0.894921 
-0.677674 -0.410584 0.822045 -0.984370 -0.066601 -0.128618 
0.692796 -0.243151 1.685341 -0.870330 0.407043 -0.151262 
0.890033 0.800056 1.867316 -0.848074 -0.272605 0.352488 
-0.062163 0.787815 -0.208937 -0.432669 0.371575 -0.807071 
-0.933987 0.856888 1.620577 -0.904195 -0.367363 0.053264 
0.827114 0.251633 1.640426 -0.951384 0.020230 0.102874 
-0.093937 0.147168 0.332156 -0.204893 -0.207162 0.949305 
0.504786 0.200539 0.482379 -0.791972 -0.194363 0.497868 
-0.535977 0.317182 0.174537 -0.899295 0.007633 -0.390060 
-0.648546 -0.138578 1.632764 -0.871961 -0.413572 -0.096509 
-0.075728 0.023597 0.304447 -0.174856 -0.219204 0.954783 
0.418994 0.177714 -0.072133 0.805326 -0.094089 -0.549831 
0.102995 1.193610 0.348921 -0.230418 0.711209 0.626373 
-0.263612 -0.187876 0.208509 -0.505461 -0.197928 0.817534 
-0.848729 0.488786 1.725479 0.932624 0.111093 0.111207 
-0.467352 -0.536303 2.032446 -0.793755 -0.544835 -0.229430 
1.028841 0.588340 2.300558 -0.940724 0.026887 0.246631 
0.723798 0.682213 1.182771 0.969283 -0.221198 -0.081972 
-0.058961 -0.770615 0.104381 -0.168949 -0.288676 0.890609 
0.872254 0.702251 1.679326 0.990542 -0.073543 0.086759 
-0.478409 -0.545380 0.361015 0.648268 0.024949 0.595886 
-0.100906 -0.869587 0.048939 0.038312 -0.298505 0.913526 
0.472012 -0.388038 0.266447 -0.519544 -0.038802 0.709406 
-0.496317 -0.137554 0.195335 -0.892178 -0.106556 -0.402506 
0.608824 0.622311 1.019663 -0.948920 0.122044 0.115651 
0.800998 0.903036 1.515163 0.949718 -0.282399 -0.131431 
-0.679458 -0.316856 0.772675 -0.981613 -0.086208 -0.153391 
-0.574619 0.494373 0.267156 -0.914953 0.283843 -0.239112 
-1.005499 0.311532 2.626562 0.811335 0.572954 0.092137 
-1.015307 1.058369 1.758636 -0.960219 -0.271155 -0.028585 
0.429101 -0.466617 0.138936 -0.401726 -0.044163 0.837529 
0.835501 -0.186104 2.228200 0.872519 -0.470505 -0.001116 
-0.612171 -0.680382 0.784031 -0.936186 -0.050636 -0.187370 
-0.063156 -0.325972 -0.261968 -0.354398 -0.301423 -0.868502 
0.958705 0.262881 2.954140 -0.936482 0.235563 -0.194349 
1.061725 0.281237 2.512302 0.870471 -0.416278 -0.219408 
0.838579 0.040121 1.863566 -0.850552 0.284645 0.291389 
-0.486185 -0.044180 0.291520 0.578935 -0.129765 0.679917 
-0.618815 0.377132 0.490547 -0.867122 0.335280 -0.297738 
0.060987 1.087521 0.400659 -0.137653 0.211466 0.934722 
0.495326 0.311793 0.097411 0.902573 -0.019018 -0.386792 
-0.409888 -0.885294 0.337346 -0.759488 -0.145982 -0.524566 
-0.056101 -0.126011 -0.294303 -0.406681 -0.178716 -0.869589 
0.621741 0.529834 0.814441 0.832068 0.348106 -0.403484 
-0.992850 1.147913 1.679105 -0.893899 0.419008 -0.071729 
0.591011 0.522276 0.882032 -0.962238 0.186655 0.123923 
0.867377 0.792794 1.792606 -0.839392 -0.290514 0.373186 
0.046303 1.371368 0.081016 0.581427 0.668334 -0.400733 
0.343126 -0.180943 -0.117833 0.666434 -0.185868 -0.672781 
-0.617186 -0.224726 1.778754 -0.770905 -0.514294 -0.224488 
-0.345656 -0.465488 0.077716 -0.182908 -0.121988 0.889138 
-0.651071 0.481089 0.851003 0.930962 0.002722 0.307229 
0.645941 -0.427202 2.277887 0.812972 -0.572788 -0.044149 
-0.383162 -0.602127 1.509480 -0.838804 -0.454804 0.244486 
1.092751 0.790125 2.494180 0.996329 0.038306 -0.067699 
1.050034 0.338547 2.736000 -0.947494 0.260547 -0.068518 
-1.091849 0.506001 2.565743 -0.949903 -0.281256 0.014650 
-0.029845 -0.107442 0.276985 -0.089846 -0.209434 0.971662 
0.041240 1.379141 0.154782 0.523242 0.719291 0.429859 
-0.165151 -0.836897 0.093997 0.241134 -0.141695 0.856894 
0.497982 -0.500677 1.498943 -0.808939 0.489165 -0.192594 
-0.638939 -0.457427 0.737087 -0.950716 -0.082633 -0.194595 
0.534603 -0.009315 0.343548 0.921191 -0.059327 -0.359891 
-0.516759 0.600294 0.185858 -0.898933 0.381314 -0.153270 
0.589191 -0.601997 1.343197 -0.911194 0.254612 -0.196502 
