-0.494747 0.161457 -0.005835 0.126944 0.155583 -0.822342 
0.767720 0.763130 0.219184 0.814967 -0.344356 0.463908 
0.122568 1.261379 0.330522 0.679205 0.658267 0.092429 
-0.522774 3.195348 0.539804 -0.764813 0.496812 0.398879 
0.883852 0.611694 -0.024186 0.767987 -0.277273 0.574394 
1.548654 2.303152 0.217284 0.885705 -0.406180 0.212289 
0.214146 0.310938 0.554177 0.369219 -0.103381 0.901631 
0.824691 1.564359 0.695141 -0.623230 0.556465 -0.487506 
-0.735967 1.524694 0.612833 -0.945047 -0.090084 0.312630 
-1.170335 1.478750 -0.281190 -0.923235 -0.186124 0.318427 
0.469482 1.303293 0.930486 -0.706214 0.454560 -0.506805 
1.025684 2.239887 1.402707 0.775849 -0.470468 0.401682 
1.395566 2.408769 0.967209 -0.862069 0.475830 -0.152224 
-0.127249 0.200687 0.559680 -0.258597 -0.179533 0.940490 
-0.245701 -0.200954 -0.009414 -0.564266 -0.073004 -0.820964 
-0.866891 0.734146 -0.294862 0.744471 0.274247 -0.561353 
1.102458 1.833928 0.819899 0.748964 -0.471326 0.455730 
1.013775 1.473265 0.367570 -0.741757 0.487056 -0.438505 
0.693032 1.167715 0.630406 0.877128 -0.220815 0.407769 
-1.234255 1.265771 -0.662965 -0.830436 -0.336923 0.417920 
0.105695 -0.754621 0.021343 -0.007273 -0.064354 -0.996096 
-0.561421 2.776706 0.838159 -0.794814 0.309536 0.503505 
-0.106893 0.684971 -0.058400 -0.419263 0.190023 -0.853765 
-0.724982 0.792757 -0.146222 0.581195 0.265422 -0.632792 
-0.496745 1.584224 1.076808 -0.737223 -0.369023 0.534438 
0.255465 -0.726053 0.176418 0.377140 -0.344325 0.818612 
-0.813247 2.093284 0.657813 0.816383 0.104673 -0.510329 
0.098796 0.891739 0.027584 0.524176 0.391600 -0.732974 
-0.777014 2.188870 0.713588 0.782141 -0.009960 -0.593014 
0.690431 0.641829 0.027332 -0.282936 0.293461 -0.774248 
-0.524896 2.066699 0.990433 0.710237 0.091101 -0.665188 
1.324404 1.760110 -0.155900 0.914428 -0.194754 0.235021 
0.977899 1.948667 1.137708 -0.570627 0.563732 -0.550161 
-0.068807 -0.754678 0.212189 -0.230250 -0.387055 0.878810 
-0.355681 -0.329907 0.235143 -0.767250 -0.241895 0.583891 
1.026196 1.302729 0.214291 -0.733910 0.429339 -0.498601 
1.429427 3.081532 1.334993 -0.844628 0.250778 -0.454337 
0.901945 1.584141 0.673864 0.797110 -0.469096 0.299910 
0.827551 0.787818 0.014787 -0.493923 0.356224 -0.682283 
0.411454 -0.600324 0.058898 0.672983 -0.190285 0.703735 
0.874916 -0.019395 -0.202974 -0.478319 0.101594 -0.853364 
-1.143762 1.800340 -0.272452 -0.928957 0.277311 0.045207 
-0.941575 2.481575 0.041991 0.981064 -0.111344 -0.086497 
-0.308976 0.524469 0.046958 -0.625097 0.123533 -0.730514 
0.175052 -0.972296 0.003261 -0.064920 0.005766 -0.987225 
0.789172 1.432769 0.695957 0.858350 -0.343670 0.352993 
-0.660017 1.715759 0.796963 0.648032 0.238955 -0.634824 
0.823950 1.992779 1.351076 -0.569600 0.639635 -0.476518 
0.986628 0.432865 -0.201986 -0.542216 0.158384 -0.790342 
-0.637358 2.097063 0.890228 -0.934054 0.052164 0.318161 
1.162606 1.675373 0.270954 -0.831345 0.374354 -0.374012 
0.317011 0.828060 0.218414 0.874410 0.336834 -0.283966 
0.363914 -0.454645 0.149128 0.710195 -0.250253 0.652767 
-0.468295 0.123689 0.222150 -0.845342 -0.265002 0.432547 
-0.384843 0.673684 0.401218 -0.851364 0.363557 0.298679 
0.488317 0.615820 0.490355 0.190623 -0.551948 0.799556 
0.270309 -1.212284 -0.016282 -0.433673 0.009380 -0.861204 
-0.745165 2.940897 0.436129 -0.717150 0.535117 0.435902 
-0.489041 -0.587975 -0.068367 0.477879 0.113667 -0.835655 
-0.429428 -0.204264 0.093241 -0.860159 -0.185029 0.467778 
0.218287 -0.160658 -0.029978 0.531374 -0.069825 -0.840177 
-0.443099 0.479159 0.431010 -0.525196 -0.156416 0.816640 
0.563774 0.449792 0.381197 0.574218 -0.458564 0.635561 
-1.046813 1.220823 -0.335051 0.860636 0.261535 -0.415301 
-0.039780 0.291523 0.590789 -0.133500 -0.117084 0.976824 
-0.927296 2.559450 0.054138 -0.948167 0.233187 0.098670 
1.495648 2.803888 0.989953 0.891442 -0.236212 0.370123 
0.838427 1.791970 1.117124 0.769097 -0.527054 0.290682 
0.290970 0.097195 0.453993 0.506308 -0.251353 0.793125 
-0.477950 0.561115 0.519539 -0.514870 -0.463752 0.717549 
-0.440732 3.304173 0.517481 -0.758088 0.527819 0.375492 
1.391169 2.084729 0.372499 0.888178 -0.219529 0.344869 
0.867050 1.255792 0.387624 -0.666416 0.511541 -0.510400 
1.249102 1.797941 0.238409 -0.885073 0.253805 -0.364961 
-0.669033 0.157157 -0.130072 -0.792957 -0.190966 0.552655 
-0.427424 1.766513 1.098190 0.693946 0.136003 -0.695827 
-0.388826 0.606982 0.300212 -0.593291 0.195097 -0.367262 
0.715364 0.637008 0.216640 0.794111 -0.361272 0.485075 
-0.968130 0.387275 -0.449199 0.675338 0.180662 -0.631937 
-0.404808 -1.049857 -0.037883 -0.725051 0.053626 0.659730 
-0.723899 2.998493 0.392083 0.863419 -0.354889 -0.300728 
-0.626889 2.970927 0.696888 -0.758618 0.418123 0.498693 
0.573418 1.429806 1.002130 0.891477 -0.311727 0.311143 
-0.400795 0.354958 0.041823 -0.012006 0.162343 -0.944421 
0.896455 2.143541 1.444950 -0.676260 0.563907 -0.466410 
-0.838912 2.947292 0.059017 -0.922978 0.321603 0.153851 
0.807993 0.539872 0.037456 0.768638 -0.297479 0.560685 
-0.553193 3.138943 0.574449 -0.763411 0.476732 0.424270 
-0.816926 1.533975 0.491349 -0.944082 -0.084402 0.316846 
0.563168 0.957445 0.629651 0.524338 -0.615404 0.573096 
-0.873201 2.822683 0.005316 -0.951119 0.262930 0.096341 
1.514587 2.165135 -0.121104 -0.859461 0.479134 -0.175319 
-0.768779 3.016938 0.172738 0.888451 -0.362203 -0.227029 
1.513411 2.695469 0.792394 -0.904061 0.324246 -0.229869 
-0.300449 -0.049691 0.032238 -0.323834 0.030931 -0.902227 
-1.087804 1.947478 -0.105482 -0.957388 0.115796 0.044833 
0.814576 1.746836 1.061526 -0.481550 0.689120 -0.463759 
-1.119406 1.780442 0.185488 -0.940902 -0.038591 0.319900 
0.176906 0.619497 0.557804 0.192918 0.335999 0.896331 
-0.751711 0.509243 -0.189501 0.709450 0.243095 -0.609472 
0.291057 -0.627197 -0.003896 0.124566 -0.052938 -0.886332 
-0.608114 0.785669 0.298015 -0.581260 -0.320776 0.741286 
1.418444 1.218922 -0.399740 0.667716 -0.125257 0.730329 
1.411508 2.015032 0.022235 0.815592 -0.498632 0.130838 
0.641954 0.188911 0.067509 0.766199 -0.262629 0.579994 
0.798455 1.861227 1.231381 -0.556769 0.689070 -0.418790 
-0.499786 -0.832099 -0.097064 -0.653493 -0.030143 0.743902 
1.021947 1.054025 0.020402 -0.713479 0.358662 -0.585589 
1.498530 2.259640 0.348205 -0.842039 0.467586 -0.207150 
0.609536 0.696207 0.168307 -0.341070 0.479911 -0.656470 
1.358311 2.017555 0.241507 -0.753150 0.625486 -0.122740 
1.410316 2.142894 0.421145 -0.784010 0.558305 -0.166117 
-0.161343 0.743642 -0.017341 -0.473318 0.377810 -0.738699 
-0.124699 -0.116644 0.461083 -0.187379 -0.276950 0.937943 
-0.831716 1.615947 0.533596 -0.944177 -0.079319 0.318069 
1.411249 2.718171 1.148198 -0.862534 0.301434 -0.393810 
0.843508 1.230872 0.462930 0.848052 -0.278814 0.421948 
0.361704 -0.357062 0.231478 0.719527 -0.262147 0.640649 
-0.863342 1.046381 -0.086980 -0.868957 -0.231955 0.424418 
-0.622975 -0.613254 -0.179936 0.502529 0.027519 -0.842993 
-0.828087 1.402104 0.296075 0.780880 0.306070 -0.464959 
-0.982667 2.269961 -0.232482 -0.886154 0.391266 0.053652 
0.595488 1.386258 0.937228 0.888756 -0.296935 0.327632 
0.761266 1.886430 1.288230 0.805091 -0.348567 0.476010 
-0.906439 1.090119 -0.123134 -0.866879 -0.229904 0.429390 
-1.161353 1.032950 -0.605011 -0.799064 -0.295947 0.465223 
0.537073 -0.556832 -0.038429 0.640805 -0.154260 0.741515 
-0.553093 3.355842 0.232734 -0.768084 0.552674 0.320365 
0.217595 -0.671816 0.225347 0.350811 -0.385647 0.834532 
1.042947 1.827145 0.899076 0.712516 -0.522243 0.450211 
0.882456 -0.202718 -0.222745 0.520876 -0.082878 0.842109 
-0.581160 1.253869 0.641973 -0.946037 -0.113702 0.303143 
-0.455693 3.205472 0.641084 0.649689 -0.519450 -0.527310 
-0.511654 0.983414 0.523880 0.957401 0.014255 -0.263381 
-0.758976 1.251199 0.334580 -0.929604 -0.126980 0.333346 
1.291265 1.860663 0.238075 0.733945 -0.580824 0.079513 
0.741130 1.606992 1.029477 0.791355 -0.351976 0.443607 
-0.295380 0.847250 0.189422 -0.815455 0.376091 -0.368899 
0.636707 1.460185 0.934919 0.881310 -0.333252 0.315203 
1.408902 2.320563 0.827215 -0.823330 0.258484 -0.454589 
-0.511989 3.020195 0.787943 0.677286 -0.442188 -0.571029 
-0.514213 0.814136 0.467396 0.927696 0.160021 -0.292188 
-1.084133 1.903501 0.046306 0.883549 -0.297022 -0.224747 
1.431063 2.537450 0.967408 -0.873733 0.428018 -0.185963 
0.049149 0.932049 0.581828 0.196745 -0.065491 0.970500 
-0.213408 0.388779 0.562763 -0.339488 -0.087515 0.928082 
1.382477 1.875037 -0.165776 0.909290 -0.257588 0.219927 
0.996982 1.841594 0.976860 0.699356 -0.560739 0.415807 
-0.651187 1.017789 0.215345 0.713644 0.446217 -0.524716 
0.646730 0.129473 0.029011 0.764883 -0.235254 0.597136 
-0.948269 2.046363 0.522147 -0.839952 0.204277 0.461999 
0.928605 1.809208 1.021808 0.719189 -0.547373 0.384598 
1.223670 1.660855 0.007444 -0.885379 0.242903 -0.334526 
-0.909530 2.377382 0.474985 -0.926746 0.139746 0.326811 
0.589020 0.661396 0.412110 0.303117 -0.496831 0.799284 
1.172320 2.392994 1.375231 0.786867 -0.449797 0.405015 
-0.308737 -0.079024 0.391186 -0.621036 -0.259547 0.705797 
-0.736354 1.228616 0.269679 0.732951 0.386308 -0.505260 
0.347825 0.636280 0.120842 0.722618 0.265520 -0.537256 
-0.686428 2.610495 0.744450 -0.730826 0.322019 0.587956 
-1.139205 1.490740 -0.191447 -0.920569 -0.169280 0.331664 
0.667494 1.676351 1.183095 0.829654 -0.460443 0.240192 
-0.285408 0.912277 0.419256 -0.884663 0.175798 0.403708 
0.614997 1.543608 1.120069 0.800797 -0.328049 0.418260 
0.951633 0.366051 -0.172283 0.677990 -0.176347 0.700185 
0.562289 1.687413 1.323365 0.803856 -0.361075 0.466161 
1.107217 0.564131 -0.282454 -0.538016 0.120451 -0.811352 
-0.590672 2.504732 0.882166 0.717590 -0.110761 -0.670389 
-0.548049 0.638124 0.412623 -0.557928 -0.408624 0.712380 
0.267265 1.010849 0.382762 0.916602 0.346168 0.132287 
0.493645 0.371826 0.035924 0.037521 0.179313 -0.911286 
0.719503 0.456700 0.109690 0.769410 -0.321296 0.544539 
-0.387003 0.555447 0.353294 -0.134084 0.560616 -0.613191 
-0.750325 0.635476 -0.118556 -0.852692 -0.256489 0.449281 
-0.343154 -0.874572 0.069225 -0.579158 -0.212838 0.779198 
-0.864979 2.587986 0.513485 -0.956177 0.070642 0.249044 
-1.074681 1.708540 0.216946 -0.938895 -0.063504 0.334942 
0.249833 -0.392723 0.000167 0.528498 -0.091113 -0.833610 
1.125842 1.806973 0.702492 0.788516 -0.344986 0.468229 
-0.542242 1.272703 0.755993 -0.597035 -0.462726 0.548653 
-0.698414 0.684771 0.043906 -0.873762 -0.302835 0.367518 
1.158993 1.634635 0.193803 -0.832305 0.365133 -0.367245 
-0.128621 0.979549 0.091536 -0.536520 0.454871 -0.689244 
-0.172321 1.191582 0.541727 -0.904533 -0.275589 -0.268070 
0.589556 1.385172 0.862994 -0.498982 0.622883 -0.570532 
0.171739 -0.212073 -0.056158 0.535650 -0.068224 -0.835606 
1.296340 1.287432 -0.257436 0.767115 -0.166442 0.601976 
-0.342592 -0.405104 0.221284 -0.758152 -0.251034 0.591570 
-0.507267 1.737419 1.005756 0.592549 0.363923 -0.663059 
0.803413 1.645651 0.986396 0.802175 -0.340732 0.465313 
1.100831 1.744177 0.553815 -0.776649 0.401909 -0.469114 
0.517233 -0.788326 -0.069682 -0.365989 0.081600 -0.920685 
-0.404755 0.137152 0.367565 -0.742714 -0.226919 0.623788 
0.886045 2.087868 1.394843 -0.608206 0.605767 -0.479852 
-0.817590 -0.117145 -0.327853 0.597255 0.083071 -0.739120 
-0.461716 0.395854 0.005622 0.093034 0.175896 -0.883460 
0.321340 -0.385824 0.306223 0.686571 -0.292332 0.659881 
1.269655 2.166135 0.955300 -0.763354 0.422361 -0.431657 
0.338822 -0.082815 0.086225 0.280188 0.095336 -0.947008 
-0.120656 0.715352 0.527018 -0.102660 0.080914 0.986376 
0.732281 0.198117 -0.017367 0.742590 -0.231389 0.618737 
0.915893 1.127187 0.219698 -0.676364 0.444197 -0.556870 
-0.177148 1.203827 0.384365 -0.669157 0.715053 -0.030979 
0.495160 0.432320 0.404746 0.533660 -0.314336 0.738528 
0.045570 -0.422539 0.355480 0.006079 -0.195506 0.978873 
0.472550 1.481464 1.221818 0.842464 -0.229691 0.438725 
-0.382856 -0.776605 0.046557 -0.673137 -0.166499 0.710388 
-0.178401 -0.918306 0.007938 0.090182 -0.003537 -0.986282 
-0.098409 -0.320666 0.385902 -0.074384 -0.291858 0.949645 
-0.756151 0.846215 0.000364 -0.893406 -0.239525 0.363043 
0.585513 0.082510 0.025190 -0.092854 0.156225 -0.825984 
0.847285 0.699104 0.071573 0.770735 -0.336814 0.536727 
1.384018 1.130931 -0.388113 0.659663 -0.123055 0.736518 
-0.285439 -0.194143 0.376491 -0.606112 -0.272288 0.711000 
0.879369 0.935063 0.179928 0.817248 -0.268096 0.499543 
-0.511459 0.898924 0.514208 -0.816880 -0.254871 0.491336 
-0.555756 2.306681 0.919656 -0.756989 0.356327 0.540380 
1.150062 1.694194 0.362790 -0.817721 0.408622 -0.387311 
0.318034 -0.510199 0.225203 0.683705 -0.290211 0.667932 
0.103478 -0.288202 -0.073032 0.429252 -0.160724 -0.869027 
0.183989 0.970894 0.539635 0.456686 -0.128257 0.824060 
-0.542035 1.678478 0.948993 0.579624 0.327617 -0.696654 
0.293792 0.332854 0.509344 0.425245 -0.131832 0.873933 
-0.625760 -0.284437 -0.174534 -0.732568 -0.146622 0.637567 
-0.514378 2.453343 0.961699 0.716197 -0.082779 -0.666664 
1.039774 1.549672 0.394398 -0.757958 0.493869 -0.412501 
-0.421410 -0.102804 0.177401 -0.829785 -0.201894 0.503298 
-0.836650 1.769943 0.617613 -0.930758 -0.131649 0.321879 
-0.015277 -0.336311 0.373095 0.050779 -0.304452 0.949251 
0.071384 0.794010 -0.022852 0.447719 0.339066 -0.807154 
-0.305644 0.109237 0.029485 -0.348581 0.033703 -0.896401 
-0.519835 1.231475 0.607847 0.673350 0.504216 -0.524019 
-0.984853 1.151648 -0.230125 -0.875422 -0.236335 0.406750 
0.504581 -0.030730 0.130654 0.765592 -0.262661 0.577968 
0.254517 -0.529572 0.274265 0.477001 -0.315741 0.793608 
0.847688 -0.262169 -0.208711 0.524965 -0.085259 0.839580 
1.499873 2.625720 0.766947 0.894297 -0.183082 0.385881 
-0.862284 2.128028 0.620412 -0.817275 0.173254 0.532488 
0.042170 0.550217 0.583158 0.098709 0.056589 0.987198 
-0.794077 1.410828 0.364511 0.762252 0.333588 -0.470319 
0.239423 0.810205 0.045489 0.607760 0.489968 -0.607598 
-1.114297 1.259240 -0.422231 -0.880741 -0.268136 0.374820 
-0.652330 2.698031 0.775099 0.746904 -0.230163 -0.606780 
0.751679 1.675700 1.072827 0.806863 -0.447626 0.322265 
-0.191525 3.649165 0.440737 -0.700736 0.592297 0.396229 
-0.347739 -0.837136 -0.006724 0.263271 0.008492 -0.909368 
-0.268688 -0.119389 0.005535 -0.497182 -0.042501 -0.843845 
0.229862 0.380671 0.555970 0.331066 -0.086445 0.934793 
0.439277 -1.362414 -0.064186 0.830529 -0.080588 -0.037870 
0.546639 1.046821 0.725311 0.371315 -0.677990 0.564913 
-0.034709 -0.458939 0.346281 -0.045215 -0.230208 0.964645 
-0.904248 2.598335 0.322809 -0.966953 0.154361 0.176457 
-0.888978 2.690171 0.428319 -0.973691 0.140639 0.174022 
0.715166 0.335742 -0.010467 -0.259149 0.199804 -0.769671 
-0.587510 2.026854 0.971616 -0.820137 0.161157 0.527171 
1.518366 3.200771 1.199257 0.899901 -0.255207 0.351469 
-0.337581 0.072019 0.081278 -0.150432 0.117101 -0.973740 
-0.266600 0.831327 0.452925 -0.727013 0.175266 0.594048 
-0.280634 -0.788250 0.014405 0.232900 -0.036228 -0.960113 
-0.864567 2.312823 0.549473 0.897907 -0.060230 -0.404891 
0.344881 0.358121 0.031756 0.347926 0.085723 -0.906456 
1.493541 2.545446 0.738692 0.899934 -0.346590 0.228487 
-1.043781 2.038404 -0.014971 0.863357 -0.463977 -0.160511 
-0.326035 -0.092954 0.097981 -0.177900 0.101977 -0.974485 
-0.494339 0.441305 0.395095 -0.630500 -0.323318 0.649266 
1.111770 1.618462 0.376869 0.805536 -0.466408 0.363159 
0.051998 -0.783419 0.197049 0.248738 -0.368861 0.877311 
-0.753662 1.942946 0.717763 0.748314 0.220873 -0.524725 
-0.604707 2.431266 0.851271 -0.747531 0.345213 0.556743 
-0.844229 0.545297 -0.279231 -0.803543 -0.237686 0.515601 
1.090090 1.348223 0.152058 -0.760981 0.392051 -0.490495 
0.569792 0.731701 0.436131 0.354194 -0.486604 0.753115 
0.334016 -1.021574 0.025745 0.326329 -0.231048 0.890897 
-0.717937 0.614468 -0.051803 -0.858335 -0.277001 0.421613 
-0.361203 0.751733 0.336103 -0.903405 0.352931 0.079421 
0.144009 1.155897 0.468423 0.972622 -0.168425 0.004050 
-0.277454 0.110089 0.457968 -0.520124 -0.245370 0.777451 
-1.075903 1.972103 0.012338 -0.966677 0.029331 0.073710 
-0.765538 2.265214 0.729265 -0.887355 0.018785 0.428840 
0.050873 -0.499750 0.329902 0.076400 -0.272641 0.946848 
0.725572 0.831318 0.299298 0.394519 -0.422687 0.810657 
1.445579 2.116664 0.104795 -0.811527 0.539712 -0.157770 
0.175411 -0.513766 0.016277 0.011588 -0.278998 -0.926812 
-0.680082 -0.155538 -0.231009 0.551389 0.171273 -0.744004 
1.364208 2.200480 0.778138 0.829362 -0.477447 0.274762 
-0.058811 0.213097 0.569653 -0.163522 -0.173642 0.960571 
-0.241330 0.181957 0.499417 -0.448553 -0.201020 0.832015 
-0.006276 -0.798249 0.010390 -0.565473 -0.021560 -0.795621 
-0.577822 0.176223 -0.010282 -0.856104 -0.214666 0.462856 
0.331525 0.554992 0.100393 0.590910 0.296887 -0.684960 
-0.904139 1.622277 0.423336 -0.943307 -0.074336 0.321829 
-0.298500 3.448105 0.554856 -0.728411 0.551029 0.400460 
-0.569270 0.479363 0.224456 -0.885418 -0.337779 0.313278 
-0.628890 3.282393 0.100048 -0.809967 0.511544 0.258441 
-1.018611 0.795509 -0.473126 -0.810447 -0.280636 0.478933 
-0.526658 1.701698 1.074266 -0.781684 0.250300 0.539422 
-0.436125 3.349499 0.456371 -0.754780 0.539005 0.366219 
-0.492555 3.413276 0.256269 0.756430 -0.559712 -0.332117 
-0.935012 2.549329 -0.174170 0.976030 -0.205058 -0.036900 
-0.761833 3.093402 0.010322 -0.840770 0.463946 0.222557 
-0.167800 1.222961 0.468532 -0.138018 0.865793 0.189020 
-0.982418 2.243813 0.253778 -0.799196 0.484127 0.209933 
-0.393082 0.414527 0.458768 -0.499229 -0.195448 0.836132 
0.070901 0.011396 -0.115224 0.486517 -0.023953 -0.861170 
1.294858 1.212044 -0.266133 0.734152 -0.197012 0.637287 
-1.011963 2.133940 -0.521450 0.951328 -0.302721 -0.009735 
1.461572 2.223692 0.471896 0.894792 -0.258248 0.321177 
-0.148646 1.148520 0.179531 -0.554149 0.470379 -0.665252 
0.068386 -1.165331 0.003849 0.118942 -0.091599 -0.984527 
0.333421 0.254697 0.469778 0.529280 -0.174497 0.799987 
-0.060608 1.061268 0.115977 -0.359216 0.462901 -0.791743 
-0.049576 0.401661 0.595233 -0.133067 -0.039047 0.981260 
0.487526 -0.919307 -0.064200 -0.402888 0.076838 -0.907020 
0.142273 0.836628 0.018256 0.518834 0.417400 -0.726152 
1.227037 1.363078 -0.161169 -0.796320 0.189545 -0.550379 
0.928010 1.044479 0.195767 0.812819 -0.266687 0.500513 
-0.086279 1.212070 0.482932 0.043422 0.766968 0.600578 
0.530058 1.580795 1.193170 -0.290917 0.704649 -0.602131 
-0.358278 3.530070 0.320825 0.733068 -0.576098 -0.356478 
1.583006 2.560104 0.496831 0.913636 -0.305341 0.254268 
-0.518982 0.276019 0.209201 -0.876940 -0.311931 0.348669 
-0.683397 3.123945 0.267098 0.845025 -0.416704 -0.277831 
0.595654 0.316727 0.018530 -0.088791 0.182600 -0.839923 
-0.696931 0.800339 -0.077285 0.601339 0.295033 -0.612011 
-0.403190 0.039354 0.308037 -0.765161 -0.211451 0.599293 
0.072592 1.262727 0.421727 0.207655 0.805395 0.540047 
-0.873332 1.537909 0.404675 -0.943401 -0.080571 0.319769 
-0.098212 -0.506955 -0.002312 -0.099636 -0.336905 -0.931501 
-1.143400 1.331616 -0.422366 0.877536 0.264650 -0.378234 
0.622379 0.497851 0.262394 0.782332 -0.385169 0.487794 
-0.827101 0.988004 -0.145662 0.785208 0.319521 -0.519469 
-0.981029 1.843792 0.387992 0.827642 -0.052648 -0.477876 
-1.113620 1.880979 -0.203378 -0.943359 0.203510 0.038478 
-0.449663 -0.632876 -0.025092 -0.743558 -0.110800 0.642957 
-0.868439 2.771103 0.398390 -0.763718 0.486919 0.405089 
-0.204512 -0.140104 -0.035807 -0.555320 -0.052199 -0.826795 
-0.165265 0.287464 -0.063008 -0.521795 0.016580 -0.851589 
-0.660188 -0.098104 -0.176153 -0.750463 -0.164983 0.610162 
0.382276 -0.025400 0.081275 0.212910 0.115527 -0.934267 
-0.354959 3.330094 0.633316 -0.743704 0.526197 0.405642 
-0.090992 -1.087318 -0.007885 -0.069875 -0.043620 -0.993152 
0.309091 1.495140 1.325037 -0.789986 0.283422 -0.526357 
1.371574 2.009685 0.170297 -0.864994 0.382677 -0.290777 
-0.908883 2.585663 0.155221 0.946271 -0.200847 -0.164021 
0.595901 -0.227037 -0.023547 -0.344033 0.156465 -0.838496 
1.054834 0.495434 -0.253195 -0.529831 0.129308 -0.810805 
-0.642199 1.186654 0.490553 -0.944893 -0.113443 0.306147 
-0.328067 -0.735182 -0.013016 0.023042 -0.002758 -0.876706 
-0.421501 2.209003 1.089860 0.893265 -0.043566 -0.330860 
-0.568540 1.330997 0.631413 0.628220 0.466321 -0.589017 
-0.724894 2.313795 0.766502 0.747253 -0.088914 -0.630373 
1.559200 2.886358 0.823844 0.918064 -0.224080 0.316752 
-0.936742 2.267003 0.367551 0.961271 0.002307 -0.227958 
0.563290 1.502693 0.993693 -0.468845 0.632550 -0.577771 
-0.261113 3.604771 0.382567 -0.713754 0.587619 0.377561 
1.540217 2.269927 0.137673 0.881816 -0.419479 0.200858 
-0.871907 1.211565 0.074047 -0.896553 -0.176179 0.385605 
-1.081815 1.202676 -0.451911 0.831366 0.313803 -0.447218 
-0.260179 0.181017 -0.002377 -0.540127 -0.026887 -0.839909 
1.289039 1.676554 -0.186323 -0.932748 0.121141 -0.312542 
0.095672 1.202850 0.191180 0.527678 0.333637 -0.769217 
-0.976762 2.281180 -0.162706 0.976452 -0.129990 -0.054291 
0.225880 1.050208 0.563511 0.577210 0.685209 -0.363533 
1.027262 0.986330 -0.040951 -0.710518 0.335519 -0.609455 
0.499857 0.471683 0.083072 -0.031969 0.260756 -0.867601 
-0.791789 1.842043 0.642063 0.703688 -0.020355 -0.601680 
0.666803 1.038551 0.478352 -0.569433 0.571322 -0.578759 
1.322151 1.934028 0.261436 0.717698 -0.645330 0.059393 
-0.469142 -0.716817 -0.061010 -0.708456 -0.096568 0.689990 
1.162963 1.553565 0.190507 0.815397 -0.356201 0.415120 
-0.568158 2.429712 0.911458 0.711462 -0.075206 -0.674459 
-1.047142 1.245560 -0.266614 -0.890203 -0.225495 0.377467 
-0.046366 0.758974 0.537174 -0.088591 -0.090647 0.978102 
1.489111 2.435912 0.710837 0.889100 -0.386473 0.225379 
-0.029606 1.322638 0.227553 -0.588304 0.424418 -0.632995 
1.308843 2.302695 1.058011 0.779172 -0.262381 0.543486 
-0.357556 -0.012612 0.377976 -0.693442 -0.248760 0.662004 
1.054908 2.315767 1.485631 0.752552 -0.546623 0.360243 
-0.792946 0.919587 -0.138136 0.769256 0.321027 -0.523925 
-0.969572 2.341568 0.041109 0.985802 -0.052125 -0.080960 
0.469760 -0.007719 0.195381 0.751760 -0.268352 0.590490 
-0.437476 0.379012 0.410406 -0.603615 -0.233358 0.733350 
-0.693734 1.160139 0.270401 0.710540 0.423217 -0.522393 
-0.739371 3.085357 0.125640 0.871562 -0.400715 -0.226840 
0.086197 0.096017 -0.113095 0.504752 0.010195 -0.858636 
0.489154 -0.265808 0.029419 -0.084727 0.122258 -0.876101 
-0.699682 0.680258 -0.139759 0.514531 0.242278 -0.658974 
-0.735759 0.167564 -0.218084 -0.772436 -0.194943 0.571116 
0.973551 1.366358 0.380482 0.823965 -0.357500 0.410777 
0.455278 -0.776657 -0.025504 -0.346058 0.101082 -0.918661 
-0.024864 0.733169 -0.065016 -0.282464 0.269599 -0.908542 
-0.701893 2.266969 0.822353 -0.850419 0.081975 0.504872 
-0.487612 0.737386 0.505904 0.910457 0.257602 -0.249940 
-1.082178 0.927644 -0.532849 -0.817904 -0.299246 0.459539 
-0.587970 1.124817 0.542953 -0.902627 -0.184999 0.351187 
0.356281 0.747216 0.344236 0.920739 0.312142 0.101859 
0.766412 0.889348 0.210907 -0.593284 0.565296 -0.570644 
-0.649630 3.153604 0.323851 -0.742185 0.547447 0.374630 
-0.629520 0.670736 -0.089893 0.408601 0.236543 -0.724164 
0.057273 -0.026333 0.500389 0.127134 -0.286988 0.946815 
-0.661680 0.922144 0.131375 0.758969 0.415377 -0.496958 
0.073113 1.072100 0.570365 -0.109010 0.151848 0.938780 
0.936087 1.890124 1.124427 0.757610 -0.567524 0.260022 
-0.313122 3.314872 0.714644 0.673882 -0.521488 -0.511182 
0.606065 -0.298308 -0.039017 -0.422782 0.158983 -0.838785 
-0.149312 0.285951 0.578282 -0.283994 -0.118140 0.945974 
1.489892 2.184141 0.121965 0.879620 -0.377138 0.229459 
-0.704670 -0.312451 -0.247342 0.545982 0.092730 -0.778808 
-1.105757 1.879270 -0.127911 0.879620 -0.416965 -0.140122 
-0.983286 0.854510 -0.423132 0.752104 0.295045 -0.534032 
-0.543755 2.642131 0.914369 0.726896 -0.170282 -0.660347 
0.694356 0.840481 0.231273 -0.639544 0.514171 -0.407136 
1.346186 2.016595 0.310966 -0.744280 0.634298 -0.122221 
1.072997 2.270670 1.348760 0.796448 -0.416398 0.423108 
0.995088 1.258869 0.265706 0.810705 -0.340583 0.449559 
1.513343 2.606085 0.700268 -0.882789 0.184998 -0.396225 
-0.451433 1.307006 0.850324 0.914582 -0.133236 -0.078834 
1.301135 2.078853 0.686464 -0.766939 0.582552 -0.217113 
-0.309424 0.761496 0.157399 -0.780897 0.389653 -0.409867 
-0.973801 2.113606 0.279836 0.965870 0.109873 -0.184587 
-0.559800 1.877205 0.991521 -0.920710 0.134829 0.325410 
-1.100827 1.016528 -0.544415 0.770319 0.320091 -0.498377 
0.490097 0.964137 0.722334 -0.849037 0.256402 -0.415068 
-0.539270 0.369105 -0.037954 0.219675 0.184653 -0.797235 
-0.490477 1.085171 0.611085 0.954248 0.001586 -0.237680 
-0.348643 0.772823 0.260167 -0.917036 0.330864 -0.175028 
1.241992 2.605181 1.444149 0.855606 -0.375111 0.343408 
-0.946987 2.481013 -0.046350 0.981853 -0.128583 -0.059839 
-0.603360 -0.233834 -0.127475 -0.741671 -0.147076 0.630092 
1.151885 1.070712 -0.179308 -0.712343 0.261676 -0.642561 
1.329575 0.974690 -0.371057 0.639830 -0.116897 0.751405 
0.324579 -0.709559 0.147267 0.609480 -0.264450 0.736735 
-0.411544 0.058951 0.045095 -0.020706 0.132042 -0.900497 
0.707647 0.265074 0.021687 0.765914 -0.250831 0.588311 
-0.070523 -0.005306 -0.113153 -0.495942 -0.027142 -0.854060 
-0.013794 -0.955759 0.088010 -0.477275 -0.262777 0.824905 
1.365069 1.950505 0.094120 0.789478 -0.517909 0.115865 
-0.276970 0.375333 0.525261 -0.406576 -0.131882 0.887873 
-0.119150 0.874894 0.024026 -0.524259 0.414819 -0.724453 
0.499072 0.211879 0.280306 0.743129 -0.317680 0.573427 
0.573033 0.565264 0.094706 -0.164792 0.320340 -0.802033 
-0.426058 -0.333630 0.014723 0.145256 0.108123 -0.875628 
1.075088 1.951188 1.019733 -0.655682 0.612997 -0.427247 
0.626626 0.976090 0.601161 0.576295 -0.549022 0.582883 
0.130742 0.040349 -0.085483 0.509394 -0.012143 -0.855308 
-0.708767 1.032025 0.110556 0.723874 0.412465 -0.532701 
-1.160521 1.554190 -0.165933 -0.928135 -0.153739 0.320901 
0.905171 1.736640 0.832540 -0.591546 0.732263 -0.307557 
0.356144 0.119516 0.423523 0.606905 -0.243821 0.736417 
0.466562 0.223115 0.049956 0.084444 0.156942 -0.910616 
-0.902049 2.526752 0.332108 0.925021 -0.199168 -0.249180 
-0.657278 1.171961 0.346402 0.690543 0.452638 -0.527813 
-1.028914 2.097087 -0.050947 -0.978079 0.022065 0.041591 
-1.139814 1.738779 -0.021055 0.923415 -0.063592 -0.266278 
0.543580 0.387223 0.306140 0.738706 -0.364762 0.543449 
1.242254 1.428306 -0.117815 0.828175 -0.179920 0.500405 
-0.351563 3.496658 0.384096 0.714955 -0.569839 -0.388869 
-0.939748 2.435154 0.134714 0.977564 -0.093744 -0.124698 
-0.682130 2.943845 0.603680 -0.740176 0.465038 0.478217 
1.555236 2.331791 0.290497 0.889247 -0.392864 0.223547 
1.474029 2.822075 1.058036 -0.886361 0.287965 -0.348013 
-0.922289 2.468531 0.294391 -0.945807 0.181584 0.210801 
0.990686 2.182571 1.358965 0.792236 -0.422515 0.423593 
-0.839719 2.831777 0.337086 0.930422 -0.256721 -0.238757 
-0.191061 -0.274157 0.389405 -0.309621 -0.280721 0.865144 
-0.626157 1.126559 0.456913 -0.937824 -0.129708 0.315440 
1.153825 1.225956 -0.108464 -0.766091 0.250146 -0.568341 
-1.226434 1.443282 -0.474380 0.899931 0.254928 -0.336702 
0.511988 0.079840 0.180682 0.767594 -0.302950 0.552949 
-0.731777 0.082234 -0.250396 0.602632 0.198926 -0.695139 
-0.596582 0.966680 0.260150 0.732551 0.478132 -0.473453 
-0.887889 2.728064 0.228875 0.842543 -0.391236 -0.281199 
-0.608180 0.853752 0.139970 0.725066 0.425050 -0.476558 
0.219279 1.089160 0.622855 -0.003268 -0.417279 0.767874 
0.980109 1.340179 0.305435 -0.718207 0.468176 -0.484139 
0.500857 1.692748 1.357722 -0.682931 0.642839 -0.205485 
0.332984 0.686446 0.475972 0.645778 0.330563 0.655049 
1.194366 1.914125 0.643937 -0.664022 0.720623 -0.132685 
0.762939 -0.542374 -0.185023 -0.487623 0.075637 -0.868702 
1.051162 1.695518 0.645185 0.594203 -0.737580 0.156048 
-0.289533 0.473435 -0.001606 -0.665049 -0.003732 -0.745533 
-0.154942 -0.022383 0.489741 -0.271947 -0.266099 0.918092 
-0.889133 2.719873 0.353854 -0.976480 0.151607 0.142408 
0.801391 1.946626 1.301707 0.813071 -0.351703 0.461149 
-0.779647 0.082007 -0.306649 -0.756243 -0.195034 0.583760 
-0.702443 -0.595895 -0.229719 -0.519064 0.040262 0.850252 
0.146090 1.023853 0.583501 0.125917 -0.189001 0.951690 
-1.202174 1.653415 -0.290433 0.922348 -0.034583 -0.223154 
-0.496037 0.398714 0.322108 -0.766313 -0.302869 0.487183 
0.532918 1.317631 0.974120 0.899395 -0.259760 0.334362 
-0.261606 -0.014290 0.436375 -0.520813 -0.258231 0.772321 
-0.260648 0.835125 0.104495 -0.674254 0.446173 -0.543299 
0.079237 -1.009813 -0.010610 0.147471 0.001578 -0.979763 
-0.598956 3.080567 0.577422 0.755041 -0.464217 -0.451790 
-0.594822 3.319201 0.152518 0.794819 -0.525934 -0.283324 
0.098348 -0.194104 -0.084445 0.453360 -0.113918 -0.864464 
-0.207897 0.347539 -0.026792 -0.512639 0.017152 -0.855243 
0.835831 1.191646 0.377552 -0.649039 0.511487 -0.531958 
0.872936 0.744470 -0.062035 -0.479467 0.267544 -0.715302 
-0.913596 0.900783 -0.287834 -0.837189 -0.273242 0.463322 
-1.168870 1.226369 -0.582568 -0.842383 -0.333179 0.415637 
-0.561117 0.467975 0.391784 -0.672079 -0.448965 0.551851 
-0.543304 1.332649 0.821144 -0.735301 -0.406542 0.538173 
0.901235 2.055486 1.294158 0.816354 -0.349361 0.458382 
0.673608 1.755103 1.212837 -0.589105 0.646727 -0.468083 
0.308529 0.499439 0.500626 0.376804 -0.071784 0.908979 
0.497023 1.057956 0.774162 -0.883640 0.066665 -0.312342 
0.310235 -0.396092 0.100029 0.306685 0.055588 -0.934283 
-0.254184 3.542925 0.489702 0.681422 -0.574792 -0.437058 
-0.571798 0.232083 -0.057817 0.290149 0.177389 -0.752757 
-0.478625 0.659135 0.192507 0.219821 0.442823 -0.635794 
0.806393 1.094063 0.410077 0.847924 -0.233735 0.455829 
-0.033932 -0.891659 0.010315 -0.265159 -0.007787 -0.956077 
-0.527842 1.382558 0.873069 -0.655387 -0.439253 0.556120 
-0.684310 0.809845 0.142403 -0.927703 -0.205600 0.300727 
1.185290 0.841920 -0.281268 -0.598063 0.162843 -0.759565 
-0.086802 0.253786 -0.112455 -0.514871 0.036396 -0.854911 
1.155051 2.012662 0.981618 0.710261 -0.605792 0.338994 
1.140432 1.293375 -0.016657 -0.768679 0.295359 -0.535841 
0.854226 1.060648 0.248073 -0.646570 0.461810 -0.578378 
0.631227 -0.375851 -0.083854 -0.411131 0.120170 -0.876054 
-0.217738 0.244316 0.530867 -0.402486 -0.153680 0.870302 
-0.563692 2.704670 0.836687 -0.781521 0.347031 0.505053 
1.382973 2.653572 1.188384 0.852637 -0.323588 0.400647 
0.653403 1.082396 0.621718 0.884504 -0.180033 0.423684 
-0.660227 0.865449 0.079475 0.717727 0.382183 -0.524305 
0.622270 1.534866 0.951295 -0.501235 0.609072 -0.567305 
0.673316 -0.232579 -0.066700 0.658314 -0.177984 0.715763 
0.825829 0.834859 0.181564 0.817792 -0.330526 0.468471 
-0.055801 0.961150 0.585133 -0.183503 -0.075757 0.972893 
-0.815255 1.683829 0.563236 0.753140 0.230296 -0.524145 
0.425010 1.313560 1.089213 -0.876263 -0.276658 -0.070808 
-0.291532 -1.120902 0.000903 0.269501 -0.410758 0.617963 
-0.495947 0.682301 0.387336 0.707574 0.358803 -0.157004 
0.539428 -0.313603 -0.004714 -0.254486 0.137718 -0.861800 
0.329698 0.636486 0.047398 0.658115 0.262504 -0.670728 
1.443614 2.245719 0.563016 -0.828466 0.479842 -0.234126 
1.101571 2.411382 1.500966 0.748804 -0.467674 0.438159 
-0.244903 0.932227 0.479832 -0.762167 -0.000424 0.608616 
-0.768708 1.316045 0.385503 -0.938973 -0.107068 0.320489 
-0.614516 1.866806 0.896690 0.609192 0.178018 -0.693831 
-0.675609 0.821710 -0.006062 0.642111 0.331229 -0.579102 
0.892542 1.765609 0.973593 -0.507492 0.729475 -0.355619 
1.606891 2.785200 0.513187 -0.935653 0.221179 -0.268714 
-0.399077 -0.332267 0.086593 -0.844894 -0.169157 0.502182 
-0.501071 2.005362 1.019558 0.702882 0.120645 -0.670905 
-0.479858 2.699852 1.001941 -0.707574 0.206554 0.671118 
-0.937385 2.538890 -0.103920 0.979241 -0.170084 -0.047921 
0.680432 1.571828 1.071487 0.783180 -0.378117 0.400436 
-0.450626 1.394238 0.817478 0.883976 0.185132 -0.322686 
1.346950 2.624462 1.245747 -0.834004 0.312182 -0.442739 
1.295422 2.013488 0.617534 0.855520 -0.261400 0.379964 
1.389851 2.822246 1.252959 0.897805 -0.305313 0.312893 
-0.065081 -0.892728 0.118654 -0.202058 -0.338792 0.899357 
0.222950 0.419877 -0.025841 0.501432 0.030946 -0.856135 
0.410470 -0.131804 0.081722 0.185471 0.104435 -0.903593 
0.576505 0.947906 0.552870 -0.916811 0.134357 -0.340471 
0.643491 1.076384 0.540079 -0.563060 0.593596 -0.566721 
1.442694 1.303046 -0.405212 -0.642506 0.141547 -0.747137 
-0.168684 -0.514129 0.014967 -0.022452 -0.285275 -0.929900 
-1.172166 1.671399 -0.051822 -0.938881 -0.114062 0.313063 
-0.613503 1.488524 0.778832 -0.946433 -0.099795 0.306128 
-0.535537 -0.312159 -0.064210 -0.765831 -0.143768 0.603515 
0.343203 -0.552719 0.161687 0.679125 -0.261193 0.679832 
-0.523763 0.443017 -0.031425 0.200511 0.190294 -0.821975 
0.281686 0.351464 0.001635 0.484149 -0.007812 -0.871022 
0.461852 -0.182175 0.105303 0.763745 -0.228746 0.598495 
0.650815 0.925404 0.372881 -0.800508 0.370925 -0.377100 
1.150343 0.955159 -0.185534 0.734144 -0.232169 0.626489 
0.750505 0.633439 -0.030948 -0.313348 0.240282 -0.779675 
0.531337 0.648096 0.208132 -0.065128 0.536784 -0.635358 
-0.796400 0.812380 -0.199373 0.687327 0.271040 -0.569544 
0.332678 -0.435122 0.250960 0.699522 -0.283832 0.654152 
0.005374 0.029258 0.524549 0.079509 -0.294018 0.951824 
0.042514 0.863339 -0.021146 0.441505 0.380655 -0.803318 
-0.472279 0.552876 0.421553 -0.531205 -0.092728 0.789180 
1.235909 0.827138 -0.332266 0.656085 -0.125285 0.740830 
0.228149 1.029686 0.479020 0.788436 0.175970 0.459494 
-0.762421 -0.359814 -0.280064 0.566336 0.021136 -0.791257 
-0.223892 0.428801 -0.020876 -0.567153 0.018290 -0.813476 
1.261505 1.908637 0.503109 0.885259 -0.089290 0.445051 
-1.107537 1.310236 -0.362721 0.879609 0.249640 -0.382019 
-0.003421 0.029594 -0.141269 -0.424225 -0.062730 -0.880830 
-0.398140 3.272274 0.643611 -0.753529 0.515527 0.401563 
0.579069 0.185600 0.029432 -0.056774 0.163629 -0.834702 
0.696893 -0.315329 -0.126923 0.625229 -0.130809 0.766087 
1.456967 2.032223 -0.155601 0.891911 -0.363001 0.190913 
1.004091 0.371749 -0.233346 0.653804 -0.138282 0.738705 
-0.370748 1.642303 1.226456 -0.525471 -0.657939 0.365102 
1.361309 1.391780 -0.303175 0.768193 -0.130876 0.609079 
0.599252 0.746456 0.321499 -0.656239 0.412541 -0.209482 
0.886307 1.109689 0.306774 0.828296 -0.266499 0.470115 
1.459444 2.375414 0.770673 0.879364 -0.419501 0.215893 
0.760894 1.929430 1.370043 0.787061 -0.421285 0.432805 
-0.428119 0.273296 0.388586 -0.695110 -0.242595 0.646954 
0.634334 1.530426 1.029676 0.813162 -0.437996 0.241336 
-0.826629 2.175125 0.659135 -0.819467 0.102752 0.552653 
0.213641 1.212967 0.602871 0.811983 -0.402489 -0.386161 
-0.597134 3.121608 0.515942 0.762400 -0.474897 -0.425576 
-0.515699 1.431050 0.923612 -0.612473 -0.456066 0.568089 
0.259157 -0.265205 0.369635 0.523015 -0.284612 0.758142 
0.138934 0.749340 -0.020711 0.516555 0.404847 -0.691743 
0.311994 0.570899 0.507758 0.481686 0.016800 0.851260 
0.853388 0.044691 -0.177294 0.642391 -0.138141 0.748267 
0.580875 0.358734 0.240350 0.771264 -0.371804 0.511015 
0.480601 -0.010460 0.060587 0.085583 0.127651 -0.873654 
0.279146 0.862003 0.168126 0.780706 0.383093 -0.425658 
-0.277660 -0.626406 0.207722 -0.589291 -0.313454 0.710784 
1.485133 2.688238 0.911673 0.886723 -0.199655 0.398160 
0.625456 -0.447883 -0.091715 0.625673 -0.138665 0.761921 
1.460740 2.924082 1.148809 0.904822 -0.281086 0.315431 
0.119109 -0.174886 0.441061 0.156297 -0.282462 0.943847 
0.438841 1.401464 1.185130 0.233684 -0.638617 0.547213 
0.786291 -0.242599 -0.174221 0.583937 -0.108964 0.797941 
-0.049807 -0.214616 0.426380 -0.046516 -0.295209 0.950328 
-0.555372 0.783181 0.159388 0.569931 0.431009 -0.520104 
-0.806422 1.225321 0.144405 0.771156 0.329167 -0.492292 
-1.087749 1.794010 0.255484 -0.935814 -0.079157 0.333366 
0.792525 -0.095184 -0.157649 0.635754 -0.135340 0.755142 
0.481986 0.650145 0.267286 0.126300 0.621806 -0.547494 
-0.657836 1.732272 0.870901 -0.932286 -0.147441 0.312577 
0.412076 0.265187 0.422654 0.591657 -0.208822 0.765655 
0.348374 -1.358302 -0.056706 -0.539873 -0.705046 -0.101059 
-0.785797 1.655688 0.638627 -0.944877 -0.080274 0.315931 
1.008576 1.238020 0.185739 -0.721957 0.420915 -0.520752 
0.280075 0.914862 0.223059 0.837601 0.369311 -0.306066 
0.679693 -0.154665 -0.065797 -0.473953 0.168971 -0.820173 
-0.602266 1.045422 0.501206 -0.757304 -0.367635 0.521305 
-0.146831 0.552480 0.578345 -0.259477 0.022485 0.963391 
-0.010633 1.125025 0.560569 -0.040562 0.430760 0.886733 
0.923112 1.493045 0.504434 -0.692572 0.527157 -0.453556 
-0.528342 1.358189 0.713486 0.600821 0.475251 -0.620981 
0.718413 1.302337 0.697223 0.871186 -0.279875 0.375310 
1.546925 2.443248 0.551491 -0.881596 0.320671 -0.309842 
1.386397 2.101834 0.474111 0.892685 -0.188196 0.369312 
1.117055 1.006856 -0.130230 0.767468 -0.261583 0.578789 
1.074598 1.147822 0.064397 0.782143 -0.344002 0.503363 
0.428928 1.526588 1.334281 0.650290 -0.522611 0.546141 
-0.567893 2.232301 0.932176 0.720865 0.013200 -0.659159 
-0.504845 0.603183 0.092869 0.333463 0.279790 -0.741257 
0.471123 1.090526 0.846298 -0.863994 0.054865 -0.288620 
1.497215 2.900895 1.050070 0.901455 -0.273302 0.327705 
0.182522 1.047000 0.148066 0.614120 0.395949 -0.679576 
-0.216376 0.841406 0.502179 -0.608099 0.023650 0.786999 
0.838423 0.622613 0.041917 0.769453 -0.311383 0.552458 
0.560494 1.116562 0.797445 0.370489 -0.619831 0.538623 
-0.579221 0.705758 0.059560 0.479675 0.308432 -0.663408 
1.169644 1.505439 0.132447 0.815041 -0.327485 0.434855 
-0.141135 0.808153 0.010838 -0.511844 0.391679 -0.739103 
-0.405719 -0.255661 0.040364 0.034022 0.105742 -0.889958 
1.201192 1.540200 0.057768 -0.805441 0.294145 -0.469469 
-0.566579 3.280217 0.328773 -0.766710 0.524977 0.356474 
0.199181 -0.661829 0.035380 -0.048734 -0.060368 -0.984015 
-0.386808 -0.668518 0.059946 -0.719841 -0.167148 0.658550 
1.549827 3.096427 1.048811 -0.909015 0.250150 -0.330462 
-0.520025 1.509466 0.944514 -0.947655 -0.104760 0.301439 
1.400642 2.029740 0.108726 0.776576 -0.578840 0.097890 
-0.899886 0.399056 -0.406505 0.650778 0.243251 -0.627186 
-0.821701 2.321058 0.659326 -0.860612 0.013592 0.488541 
-0.332370 0.569433 0.117314 -0.561950 0.281769 -0.717455 
0.786648 0.996511 0.362561 0.846040 -0.209715 0.478593 
0.785458 0.594743 0.097012 0.770352 -0.334581 0.537217 
1.315515 2.045319 0.556389 -0.742230 0.623436 -0.159307 
-0.576595 -0.130241 -0.077980 -0.783804 -0.163491 0.574448 
0.423870 0.185600 0.389274 0.686153 -0.254610 0.675294 
0.998324 2.295477 1.543410 0.538570 -0.462930 0.701631 
0.639893 0.798718 0.347720 -0.888638 0.343965 -0.186621 
-1.148182 1.791640 -0.359641 -0.922888 0.336824 0.027322 
-0.111176 0.133142 0.544780 -0.239959 -0.229078 0.935422 
-0.882600 2.798150 -0.094768 0.947603 -0.273622 -0.086819 
-0.621872 0.291280 -0.039509 -0.855063 -0.224382 0.460417 
1.259572 1.877558 0.429561 0.648855 -0.748724 0.009102 
0.831936 1.715523 0.973079 -0.452404 0.757347 -0.346427 
-0.037971 1.249728 0.202064 -0.550786 0.317948 -0.762606 
-0.158021 -1.096964 0.012495 -0.049843 -0.210781 0.969415 
0.158440 1.167438 0.221203 0.659300 0.506845 -0.474474 
-0.950383 1.329124 0.048972 -0.899556 -0.159029 0.385016 
0.224308 0.931617 0.119498 0.675137 0.426953 -0.599337 
0.531603 -0.656981 -0.066575 -0.354675 0.089414 -0.920023 
0.000917 -0.593926 0.317953 0.365148 -0.293657 0.846895 
0.395593 -0.211874 0.088072 0.205950 0.093143 -0.904523 
0.922115 0.204314 -0.205729 -0.485289 0.119315 -0.838477 
0.437531 1.338136 0.988007 -0.794001 0.356234 -0.475522 
-1.047393 1.112142 -0.454766 0.805985 0.325618 -0.480854 
-0.062737 -0.071751 0.483941 -0.120008 -0.287373 0.948193 
-0.736720 -0.469646 -0.257986 0.552060 -0.006260 -0.814829 
0.374472 0.426011 0.473758 0.424301 -0.139454 0.889823 
-0.200312 -0.794946 0.165386 -0.190185 -0.384125 0.898240 
1.092616 2.222759 1.256957 0.788362 -0.365113 0.484258 
0.569390 0.631304 0.151034 -0.243590 0.427599 -0.709597 
-0.434300 0.589535 0.214157 0.014228 0.454027 -0.700189 
-0.431800 1.555563 1.028869 0.890070 -0.245331 0.053042 
1.525625 3.145690 1.142793 -0.895431 0.250548 -0.359268 
1.182294 2.367716 1.286935 0.820292 -0.357517 0.444258 
-0.262185 -0.873073 0.017788 0.162993 0.027377 -0.975107 
-0.521908 2.848555 0.858696 0.721476 -0.312886 -0.596805 
-0.637121 1.785137 0.937622 -0.814117 0.190536 0.511865 
-0.983304 1.572844 0.209223 0.863422 0.174054 -0.412879 
-0.059963 -0.394249 0.361336 -0.016753 -0.189724 0.977205 
-0.640913 0.221156 -0.088088 -0.828979 -0.203589 0.505184 
-0.059268 -0.210659 -0.096305 -0.411884 -0.146681 -0.876494 
-0.824471 0.740180 -0.200446 -0.833914 -0.250988 0.480368 
-0.187540 0.908322 0.530464 -0.448509 -0.060836 0.852468 
0.452469 0.036475 0.251005 0.731260 -0.259788 0.619345 
-0.383163 0.620788 0.469439 -0.553088 0.073982 0.828332 
1.417878 2.448860 0.908917 -0.873106 0.425112 -0.189125 
0.155591 0.694734 0.532807 0.182463 0.187825 0.939700 
0.889268 1.825218 1.080796 -0.534654 0.642242 -0.490446 
1.070812 1.505692 0.317968 -0.767121 0.462190 -0.428810 
0.849956 0.844536 0.051172 -0.570812 0.421190 -0.632677 
-0.951109 0.688167 -0.400878 -0.806508 -0.263254 0.494671 
-0.364844 -0.207356 0.281019 -0.754123 -0.241419 0.603009 
-0.298785 0.575538 0.512130 -0.452417 -0.003927 0.869220 
-0.292484 3.545992 0.415640 0.703790 -0.576678 -0.401218 
0.235649 0.065280 -0.022563 0.498423 -0.041279 -0.862107 
-0.163095 -0.031309 -0.062611 -0.543103 -0.024973 -0.835137 
0.020765 -0.225428 -0.109232 0.350186 -0.189321 -0.898538 
1.217325 1.813203 0.444294 0.673507 -0.702678 0.082503 
0.242489 -1.128410 0.009533 -0.181348 -0.311038 0.751809 
0.268956 -0.977673 0.017819 -0.217772 0.043196 -0.972125 
1.240273 1.504818 -0.047450 0.830654 -0.211402 0.473763 
0.274855 -1.059375 0.022516 -0.092593 -0.350796 0.794057 
-0.067587 -1.012844 0.033514 -0.194996 -0.297372 0.915713 
-0.191944 -0.835891 0.020545 0.129101 -0.013880 -0.982997 
0.033802 0.650335 -0.080072 0.322061 0.165774 -0.921667 
0.421831 -0.038087 0.256542 0.717454 -0.226545 0.653941 
1.456507 2.338012 0.709764 -0.843095 0.311104 -0.382209 
-0.211908 -0.068001 0.453321 -0.443833 -0.267947 0.819518 
0.963782 2.124283 1.290889 0.817859 -0.349429 0.455988 
-0.617095 0.863613 0.288858 -0.652945 -0.262805 0.690333 
-0.840039 -0.048432 -0.346036 -0.632880 -0.088869 0.703228 
-0.416554 -0.404800 0.016064 0.155687 0.102015 -0.884256 
-0.540487 -0.462699 -0.095639 -0.723799 -0.122249 0.661629 
-0.788579 0.744567 -0.137409 -0.852491 -0.268916 0.442913 
1.525097 2.203746 -0.032105 0.873607 -0.450493 0.174660 
0.371617 -0.075277 0.361704 0.684701 -0.259905 0.679725 
1.293387 2.647296 1.385318 0.866621 -0.344265 0.354521 
-0.651668 1.216993 0.404376 0.686958 0.455846 -0.522979 
0.682479 1.869355 1.364585 -0.524392 0.693694 -0.447161 
1.054075 1.778906 0.694798 -0.729272 0.438035 -0.496468 
1.280330 1.876375 0.327244 0.693676 -0.663852 0.045456 
1.329768 1.991328 0.399349 0.887602 -0.155677 0.389463 
-0.957128 2.371137 0.199975 -0.865220 0.364781 0.176764 
-0.998023 0.639548 -0.483403 -0.793584 -0.265610 0.502670 
-0.983503 2.036632 0.294651 0.808166 -0.403424 -0.361179 
0.222035 0.016957 0.470891 0.415218 -0.264424 0.840846 
-0.981160 2.259376 -0.068230 0.980767 -0.080934 -0.069567 
1.318236 1.868811 0.127766 0.781492 -0.495141 0.117183 
-0.880716 1.459633 0.323699 -0.938928 -0.091154 0.325803 
1.228872 0.899037 -0.308709 -0.597094 0.151000 -0.765812 
-0.507322 1.882199 1.063970 -0.781656 0.291076 0.537033 
1.192229 1.122368 -0.206146 -0.712020 0.244188 -0.647576 
-0.960060 2.352969 0.120432 0.982816 -0.050426 -0.110680 
-0.865708 2.821405 0.169921 0.841348 -0.417931 -0.273791 
-0.898485 2.605707 0.419447 -0.966311 0.141922 0.203016 
-0.847467 2.927970 -0.052309 -0.931385 0.320989 0.114261 
0.550122 0.222705 0.207477 0.769396 -0.336363 0.532668 
0.673868 0.327355 0.100151 0.768084 -0.298297 0.558216 
1.124021 1.868259 0.737342 -0.615617 0.760013 -0.136548 
-0.451086 3.252205 0.578343 -0.762643 0.515485 0.383960 
-0.757005 0.005650 -0.293218 -0.750051 -0.186291 0.594982 
0.223444 0.718482 -0.011461 0.567690 0.321710 -0.704520 
1.577052 2.459625 0.476397 -0.894953 0.354636 -0.261392 
-0.606195 0.432657 -0.078317 0.336739 0.201550 -0.732304 
-0.127488 -0.251728 0.413420 -0.141720 -0.284093 0.946425 
1.429743 2.858963 1.179833 -0.848469 0.251740 -0.435257 
-1.125276 1.781433 0.091718 -0.937949 0.026957 0.266036 
1.405633 2.976347 1.321352 0.892165 -0.295728 0.336487 
1.008515 2.265372 1.468970 -0.679744 0.541456 -0.488773 
-0.819830 2.903244 0.244907 -0.756146 0.515152 0.354502 
-0.576554 1.084958 0.407706 0.662506 0.511482 -0.539826 
0.435338 1.618708 1.320747 -0.624465 0.677583 -0.384282 
-0.415281 1.648415 1.154059 -0.304704 -0.807249 0.462273 
0.228736 0.555722 0.538380 0.330833 0.000315 0.927512 
1.428069 2.674555 1.080872 0.866262 -0.267159 0.404551 
-0.224105 0.511949 -0.021168 -0.579996 0.029861 -0.791181 
0.228456 0.704980 0.517606 0.384580 0.286248 0.852348 
0.037933 -1.229485 0.017992 0.529729 -0.605723 0.556185 
0.766167 -0.175334 -0.156663 0.627782 -0.127227 0.765695 
-0.353843 3.156306 0.875529 0.839866 -0.412965 -0.347186 
-0.990889 1.254254 -0.120187 -0.884345 -0.199957 0.401695 
1.605376 2.844990 0.563283 0.939765 -0.204641 0.272342 
-0.656315 0.004391 -0.167195 0.597733 0.185462 -0.712814 
-0.154066 -0.717079 0.221405 -0.193899 -0.415001 0.885685 
0.327939 0.289801 0.027189 0.360339 0.040478 -0.915269 
-0.967266 2.363726 -0.198822 -0.908584 0.346390 0.047388 
0.384281 0.241985 0.065460 0.188423 0.150925 -0.965106 
-0.493313 -0.172045 -0.028589 0.269817 0.135469 -0.820712 
0.550167 1.263049 0.816393 -0.489050 0.632338 -0.586057 
-0.914594 0.646600 -0.357378 -0.806370 -0.255041 0.500755 
0.301229 -0.872541 0.007087 -0.263419 0.000052 -0.958186 
-0.472791 -0.902836 -0.074999 0.459569 0.038382 -0.881358 
-0.484593 0.060728 0.142704 -0.868129 -0.249779 0.408706 
0.296962 0.148233 0.012117 0.441543 -0.016585 -0.884012 
-0.015132 0.891190 0.576559 -0.143904 -0.138568 0.968259 
-1.028347 1.732491 0.313998 -0.942151 -0.060782 0.328838 
-1.006935 1.325083 -0.115601 0.865762 0.203961 -0.430625 
-0.706808 1.696003 0.730588 0.683629 0.269199 -0.595646 
-0.794320 0.493333 -0.248686 0.696674 0.244716 -0.611422 
0.120725 0.339025 0.594167 0.233143 -0.078635 0.963832 
1.413613 1.959208 -0.123309 -0.896021 0.313143 -0.239979 
1.561818 2.617744 0.576482 0.916094 -0.293857 0.249191 
1.499494 3.252725 1.283609 0.885550 -0.252270 0.385100 
1.543863 2.952106 0.966054 -0.910861 0.265983 -0.306214 
-0.915072 2.674179 -0.090519 -0.975263 0.214145 0.032544 
-0.753540 0.697861 -0.082259 -0.856757 -0.280678 0.424089 
-0.041563 0.555684 0.582789 -0.099735 0.058034 0.986950 
-0.293026 -0.278545 0.350594 -0.639653 -0.279235 0.686371 
0.189908 -1.179105 0.000298 -0.128355 -0.015721 -0.956713 
1.398107 2.274368 0.773452 -0.824219 0.355605 -0.375902 
0.290339 0.452644 -0.007015 0.604917 0.017093 -0.793838 
-0.555675 0.457707 0.308124 -0.802179 -0.382794 0.402465 
-0.684471 2.746098 0.716390 0.768278 -0.276982 -0.554184 
-0.236906 1.655343 1.369027 -0.550028 0.243248 0.745654 
-0.498854 2.603501 0.976908 -0.833747 0.188542 0.510131 
-0.814056 0.256033 -0.311535 -0.772654 -0.212504 0.558168 
0.005072 -0.747875 0.238695 0.492817 -0.315006 0.806406 
-1.057781 1.018782 -0.487441 0.779638 0.317072 -0.499161 
-0.547954 0.510998 -0.047449 0.246868 0.201255 -0.803428 
-0.151731 -0.754054 0.026495 0.087596 -0.044700 -0.988867 
-0.929035 2.413064 0.355213 -0.925339 0.208233 0.241632 
