-0.682427 1.013380 1.387964 0.322004 -0.858147 0.378878 
1.114572 1.773497 2.543215 0.344745 0.552723 -0.757416 
-0.594800 1.178765 1.794238 -0.685261 0.654478 -0.186355 
-0.726479 1.380632 2.492036 -0.602068 0.678737 -0.402762 
1.894475 1.238017 2.341734 -0.227325 -0.528917 0.814302 
0.884738 0.460987 0.721926 -0.360958 -0.641682 0.646223 
0.310676 1.273047 1.582782 0.626720 0.720540 -0.233239 
-0.972720 0.818570 1.451945 -0.448825 0.829028 -0.295668 
-1.412921 0.879032 2.249520 0.162225 -0.971264 0.049841 
1.461553 1.514375 2.451962 -0.271084 -0.598749 0.747938 
0.730248 0.180242 0.473133 -0.259707 -0.467258 0.798226 
-0.323111 1.283666 1.377504 0.265067 -0.840345 0.465424 
-0.177825 0.201067 0.522324 -0.295286 -0.159201 0.929969 
0.358887 -0.032652 0.366034 0.451308 -0.258123 0.849065 
-0.448863 1.454563 2.142738 0.643851 -0.662840 0.373977 
-1.232480 1.195132 2.704334 0.372594 -0.725536 0.567685 
0.699304 0.394393 0.512540 -0.318047 -0.530307 0.770878 
1.635489 0.377330 1.155808 -0.339271 -0.811056 0.341921 
0.994889 -0.059805 0.629999 -0.346376 -0.519983 0.706431 
-1.249413 1.132243 2.632849 -0.379538 0.735794 -0.540322 
1.658208 1.376915 2.393272 0.251645 0.659067 -0.692293 
0.501052 -0.044488 0.180279 0.725806 0.104935 -0.640839 
-0.436206 -0.602427 0.099931 -0.532028 0.103831 -0.784391 
-0.453708 1.162375 1.109613 -0.414581 0.774853 -0.468103 
0.800776 0.783088 1.325497 -0.356717 -0.767736 0.507122 
-1.297081 0.849274 1.768169 -0.202804 0.972957 -0.047696 
0.037182 0.522872 -0.134509 0.367611 0.082547 -0.923908 
-1.050460 0.656743 0.854833 -0.577157 0.633789 -0.487373 
-1.553415 0.495269 1.184991 -0.436759 0.484267 -0.742507 
-1.207238 -0.362297 0.600952 0.298215 -0.491032 0.773006 
-0.295648 -0.069397 -0.035041 -0.504106 -0.089717 -0.851874 
-0.268390 -0.309807 0.308942 -0.432235 -0.315167 0.825249 
-0.621475 1.316310 2.119260 0.465744 -0.714008 0.518753 
1.334101 -0.121094 0.777832 0.288265 0.621774 -0.583626 
-1.553003 0.759847 1.628460 0.136526 -0.920023 0.320852 
-0.734520 0.256207 0.365636 -0.664112 0.281319 -0.641113 
0.680238 -0.518079 0.299972 -0.228775 -0.362357 0.852802 
-0.907193 1.318127 2.661989 0.431099 -0.755032 0.481176 
0.565243 -0.446211 0.236699 0.520527 0.187797 -0.751354 
0.869801 1.277431 1.970510 0.404334 0.583922 -0.687549 
1.025799 0.484156 0.848705 -0.403508 -0.690064 0.581583 
-0.833910 1.085257 2.185363 -0.625272 0.702743 -0.330296 
-0.822481 -0.264800 0.428092 -0.462807 0.315550 -0.766808 
0.772194 1.383873 2.013397 0.397756 0.693061 -0.586333 
-1.236975 0.563437 0.962241 0.503185 -0.611448 0.585925 
-1.366457 0.566284 1.137518 -0.473451 0.584246 -0.603397 
1.418785 0.613582 1.730932 0.504517 0.467720 -0.639664 
0.441287 1.373324 1.801394 0.491336 0.700614 -0.492695 
-0.128448 0.811035 -0.041244 -0.498282 0.375392 -0.756190 
1.074504 0.623230 1.220590 0.544592 0.685557 -0.463428 
-1.430174 0.875723 2.399377 -0.307729 0.887713 -0.328599 
-0.510053 1.187071 1.363709 -0.715103 0.631716 -0.093450 
0.781181 0.978635 1.632889 -0.374725 -0.805882 0.413205 
0.347372 0.761721 0.166703 0.923015 0.341886 -0.159403 
0.257613 1.112573 1.387215 -0.371550 -0.788509 0.435953 
1.213163 0.857520 1.753481 0.544950 0.653422 -0.512057 
1.689492 1.945940 2.901374 0.260306 0.641623 -0.717794 
-0.174606 -0.816609 0.114951 0.023912 -0.416276 0.877932 
-0.480569 -0.535135 0.142600 -0.536287 0.130134 -0.771309 
0.259960 -1.262584 -0.034286 -0.808825 -0.416980 0.288827 
-0.480568 0.481308 0.128855 -0.592044 0.409704 -0.555278 
0.492068 1.261817 1.722832 0.570990 0.574983 -0.522109 
-1.482962 1.188999 2.815764 0.289773 -0.720013 0.628238 
0.141237 -0.058988 0.449983 0.202953 -0.299596 0.929730 
-1.684218 0.855852 2.350563 -0.170669 0.943323 -0.220457 
-0.010794 -0.498567 0.286495 -0.115218 -0.258984 0.936831 
0.357886 0.542187 0.372757 0.490397 0.181001 0.749982 
-0.209942 -0.875292 0.081713 0.115685 -0.393430 0.882082 
1.323670 0.425027 1.049594 0.497872 0.686896 -0.287433 
1.003621 1.696882 2.422223 0.339494 0.604046 -0.717899 
-0.385141 -0.844670 0.020154 -0.429186 0.092198 -0.870505 
-0.265877 0.427527 -0.051578 -0.441921 -0.007685 -0.892635 
-0.738085 0.588826 0.675618 0.211800 -0.669921 0.697898 
0.152865 1.303451 1.607571 -0.014113 -0.661696 0.721559 
0.524976 0.961846 1.227558 0.634813 0.728886 -0.209369 
1.179683 1.693805 2.505813 -0.254372 -0.673291 0.691146 
0.062961 -1.183662 -0.141191 0.284217 0.218971 -0.928876 
0.821743 0.507220 0.605863 0.603382 0.534132 -0.500756 
-1.149254 0.612879 0.863568 -0.588657 0.601173 -0.523638 
0.229219 1.243133 1.418912 0.416266 0.834138 -0.311913 
-0.052752 1.131689 0.088479 -0.383552 0.411763 -0.816392 
1.575301 0.893639 2.086851 -0.362213 -0.394873 0.837183 
-0.717358 -0.886811 0.118815 -0.154875 0.489021 -0.828036 
0.088668 0.475969 0.550036 0.196624 0.076660 0.964447 
-1.426268 -0.085232 0.856619 0.421006 -0.415381 0.764472 
-0.477715 0.240138 0.058214 -0.653742 0.134193 -0.732326 
-0.331592 -0.885332 -0.015204 -0.155843 0.021526 -0.949490 
-0.782815 0.827797 0.911064 -0.617560 0.687087 -0.316153 
-0.931859 1.119718 2.387280 0.544722 -0.680218 0.476052 
-0.079455 -0.069310 -0.143787 -0.445099 -0.066448 -0.876154 
1.249456 0.802663 1.781432 -0.336210 -0.360725 0.848602 
-1.413007 1.340219 2.928707 -0.326884 0.663587 -0.663875 
1.266291 1.788150 2.614913 -0.225821 -0.697064 0.678733 
0.836709 1.377849 2.047650 0.379162 0.694609 -0.601303 
0.407277 0.621827 0.373347 0.334692 0.874521 -0.182856 
-1.068907 1.060076 2.455182 0.456792 -0.672328 0.574463 
-0.217851 -0.668943 -0.012938 0.047405 -0.094055 -0.984429 
-0.573513 0.864244 0.915553 0.652176 -0.661926 0.345050 
-0.382162 1.436084 1.895770 0.461995 -0.726138 0.498580 
-0.968355 1.139398 2.470333 0.504549 -0.696374 0.500330 
-1.567666 0.879462 2.048572 0.080283 -0.968609 0.099686 
0.708558 1.103946 1.651385 0.437709 0.518791 -0.635598 
0.066046 -0.029917 0.471318 0.133485 -0.309432 0.939207 
-1.169059 0.869957 1.764293 -0.237628 0.969854 -0.033298 
0.700293 1.349204 1.931415 0.426704 0.665601 -0.589273 
-0.559285 0.664759 0.552232 -0.029942 0.859855 -0.387080 
-0.375780 -0.070013 0.341533 -0.465401 -0.261119 0.837539 
-0.446381 1.244914 1.375333 -0.751035 0.600704 -0.071129 
-1.105263 1.369182 2.843021 0.334528 -0.751035 0.561783 
0.894417 0.765856 1.351881 0.556297 0.738176 -0.348339 
0.460530 -0.023420 0.125133 0.733803 0.076838 -0.652969 
-0.883897 0.938520 1.701787 -0.428155 0.895351 0.059386 
-0.985827 -0.196187 0.559543 -0.483681 0.309845 -0.766831 
1.041493 0.595178 1.144460 -0.442127 -0.700953 0.542072 
-0.264695 -0.605141 -0.020400 -0.069435 -0.127262 -0.927351 
0.025453 0.037460 0.503771 0.109911 -0.308617 0.943477 
0.862825 1.166337 1.845304 0.379380 0.723965 -0.559099 
-1.414338 0.705173 1.451208 0.034820 0.570548 -0.689915 
0.444045 1.081331 1.428730 0.671763 0.670113 -0.272661 
-1.050460 -0.115027 0.619802 -0.497814 0.330322 -0.750375 
-1.773841 0.741846 1.625239 -0.136544 0.934627 -0.303323 
-0.830531 0.423291 0.556418 0.300991 -0.530212 0.757811 
-0.091821 -0.767566 0.136147 -0.133407 -0.461639 0.856955 
-0.459953 -0.339881 0.139676 -0.057071 -0.271274 0.958907 
0.561423 0.082120 0.214747 0.707408 0.149182 -0.647969 
-1.628814 0.476868 1.231445 -0.362860 0.437392 -0.798081 
0.321030 -0.450227 0.234670 0.505729 -0.318001 0.799162 
0.544255 0.416025 0.464807 -0.393706 -0.530469 0.724962 
-0.380893 0.664871 0.555742 0.613629 -0.592746 0.487271 
-1.410049 0.893376 2.173168 -0.201540 0.939916 -0.151995 
0.164484 1.301835 1.537231 0.740616 0.612595 -0.254266 
0.512185 0.640813 0.591069 0.067679 0.936218 -0.276152 
-0.265570 1.435105 1.474090 -0.851049 0.503631 -0.003562 
1.677639 1.728195 2.709303 0.270151 0.623976 -0.731722 
0.449330 0.715366 0.664429 -0.585542 -0.660514 0.397805 
0.753635 -0.690925 0.268078 -0.147237 -0.401513 0.841165 
-1.337451 1.055317 2.579925 -0.340983 0.777776 -0.493019 
0.867657 -0.539415 0.400121 0.312297 0.363583 -0.754202 
0.241704 1.420975 1.722038 0.546641 0.689293 -0.455893 
-1.160194 -0.306314 0.643952 -0.438977 0.309723 -0.800219 
-0.380846 1.272170 1.246044 -0.535771 0.764757 -0.310961 
0.778116 0.697457 0.895609 0.580268 0.742621 -0.301223 
0.281226 0.780267 0.407364 0.675257 0.214145 0.639818 
-1.361923 0.685839 1.407066 -0.043264 -0.615632 0.419594 
-1.039615 0.960174 2.037000 -0.278836 0.951557 -0.069153 
0.986062 0.177758 0.670900 0.572289 0.456504 -0.606107 
1.503370 0.889315 2.020495 0.457984 0.524242 -0.673846 
0.271809 1.313039 1.643636 0.689972 0.490657 -0.487988 
-0.457559 -0.130889 0.157993 -0.732108 0.088070 -0.643438 
1.636420 0.298667 1.085268 -0.299870 -0.793055 0.474126 
1.741638 1.693617 2.703032 0.260381 0.633781 -0.727950 
0.389496 0.634286 0.079481 0.621487 0.440511 -0.540250 
1.498408 0.227955 1.468994 -0.755271 -0.618118 -0.081110 
0.424174 1.234586 1.684056 -0.097039 -0.675083 0.687580 
0.939535 1.782293 2.487967 -0.368078 -0.543735 0.752410 
1.577085 1.134230 2.199429 0.321437 0.377515 -0.859843 
1.813902 1.217069 2.295958 0.236587 0.574464 -0.766632 
0.178504 0.576660 -0.086502 0.400487 0.072798 -0.896025 
0.325174 0.831855 0.191255 0.918174 0.321689 -0.193963 
0.860650 0.428146 0.525052 0.619926 0.416081 -0.596432 
0.082841 1.323330 1.615796 -0.359328 -0.741595 0.519723 
1.620758 0.123885 0.999930 -0.228546 -0.800448 0.491916 
0.342561 0.390099 0.422350 0.203553 0.004926 0.972024 
-0.441368 -0.997937 0.011015 -0.309101 0.171823 -0.911358 
0.515150 -0.050563 0.251289 -0.100820 -0.353236 0.905673 
0.949449 0.081726 0.628976 -0.331227 -0.506381 0.720917 
-0.382399 1.253012 1.410516 0.275050 -0.850031 0.438147 
-0.699757 -0.408650 0.311656 0.240211 -0.359917 0.847026 
-1.695839 0.765132 1.670987 -0.143770 0.943207 -0.252247 
0.321305 -0.761085 -0.029769 0.416390 0.005328 -0.893086 
0.753141 -0.554832 0.329278 -0.206786 -0.388666 0.831600 
-0.751253 1.246860 2.249743 0.489308 -0.705955 0.504016 
0.614815 0.453926 0.308996 0.645971 0.342049 -0.585196 
-0.430111 0.291622 0.032165 -0.565454 0.067376 -0.798557 
-1.372402 0.273323 0.917529 -0.566483 0.425622 -0.673262 
-0.522185 1.166296 1.528785 0.342327 -0.857592 0.217267 
0.762859 1.470085 2.083209 0.404129 0.660935 -0.618870 
0.771865 1.037271 1.678778 -0.374246 -0.835160 0.365760 
-0.369067 -0.031268 -0.000716 -0.590294 0.004625 -0.786471 
-0.024885 -0.129649 -0.158640 -0.363665 -0.130927 -0.901648 
0.475399 0.753125 0.742461 -0.482260 -0.774853 0.401644 
0.283061 -1.027350 0.013860 -0.205825 -0.304358 0.920336 
1.564446 0.399737 1.674320 -0.623414 -0.616008 0.291730 
-0.559486 0.475883 0.514909 0.296078 -0.683040 0.644328 
-1.479138 0.783597 1.626554 -0.165025 0.871178 -0.439978 
-0.169371 1.140166 0.510956 -0.883228 0.083070 -0.359890 
1.387370 0.481827 1.424488 0.441005 0.795550 0.072107 
-0.717106 0.315883 0.326261 -0.658533 0.279848 -0.656965 
0.211359 -0.860520 -0.008839 -0.020169 0.031573 -0.995352 
1.044918 0.685096 1.430798 -0.478989 -0.726233 0.484889 
1.560037 0.465118 1.723323 0.562961 0.519782 -0.511620 
0.654161 -0.414528 0.311450 0.466546 0.257654 -0.767321 
0.169535 0.067788 -0.103379 0.480447 -0.034767 -0.870284 
0.021086 0.431232 0.560562 0.097670 0.036461 0.986307 
-0.924831 0.804277 1.205053 -0.522463 0.779009 -0.272493 
-1.622675 0.804602 1.782953 -0.139383 0.958381 -0.175768 
0.299014 0.500935 -0.057612 0.495209 0.000393 -0.863131 
0.801052 0.298581 0.437911 0.646120 0.320490 -0.630638 
-0.575163 0.950425 0.911703 -0.192444 0.757437 -0.585946 
1.326188 -0.052063 0.803396 0.326282 0.607386 -0.579062 
-0.360844 0.119097 -0.002255 -0.529394 -0.014275 -0.829093 
-0.325940 0.729657 0.075526 -0.810839 0.418650 -0.309862 
-0.613138 0.784044 0.795211 0.639403 -0.600853 0.437071 
-0.958005 0.642788 0.764212 -0.535840 0.650046 -0.515761 
1.081609 -0.368257 0.555973 0.281121 0.503830 -0.678540 
-1.065180 0.716075 1.290043 0.410891 -0.814665 0.361221 
-0.667176 0.568716 0.654594 0.256534 -0.695979 0.657176 
-0.453852 0.830525 0.746743 0.430043 -0.672764 0.580627 
1.196372 1.094326 1.965991 0.426360 0.637473 -0.625709 
-0.436801 1.443433 1.987332 -0.727766 0.630795 -0.180222 
-0.928013 0.773213 0.992787 -0.607660 0.672750 -0.345775 
-1.395239 0.560434 1.209094 0.401358 -0.575973 0.643546 
0.015164 0.894937 -0.062605 0.412093 0.406682 -0.804573 
-0.771490 -0.019166 0.432674 0.194384 -0.400495 0.812943 
0.047844 -0.432154 -0.099656 0.184781 -0.362884 -0.903384 
0.411532 0.078724 0.369190 0.309406 -0.248668 0.889613 
1.175104 0.082481 0.762701 0.431261 0.557982 -0.609868 
-1.694148 0.683469 1.475929 0.010217 0.691965 -0.550056 
-0.126625 0.012592 -0.127207 -0.488560 -0.024237 -0.864957 
0.820051 0.349453 0.586146 -0.345979 -0.533006 0.743438 
1.480552 0.605286 1.775956 0.489258 0.468275 -0.702617 
-0.973145 0.068412 0.602058 0.401516 -0.482484 0.717922 
0.950341 -0.541050 0.403434 0.234324 0.489154 -0.733400 
1.409152 1.456479 2.380878 0.273818 0.696681 -0.652860 
-1.062047 0.305429 0.710378 0.426660 -0.524949 0.675875 
1.086379 1.142130 1.961125 -0.382169 -0.597586 0.701555 
0.972448 1.355696 2.111332 -0.370255 -0.511088 0.772956 
-0.969943 0.982993 2.212517 0.560514 -0.621275 0.525643 
-0.300224 -1.070513 -0.038178 0.070365 0.109203 -0.988655 
0.589710 1.418656 1.932055 0.451114 0.682049 -0.551204 
-0.592306 0.631714 0.412738 -0.503902 0.715771 -0.392785 
0.983171 0.822191 1.570123 0.479509 0.622961 -0.558890 
-0.649563 -0.238489 0.302046 0.124633 -0.345623 0.870526 
1.482609 1.668514 2.589180 -0.234072 -0.673840 0.698817 
0.461488 -0.799029 0.095884 0.378801 0.147530 -0.879854 
-0.244613 1.320879 1.380086 0.676171 -0.593095 0.163873 
0.280443 1.176454 1.365816 0.584226 0.740230 -0.247303 
-0.609908 0.573312 0.365231 -0.546166 0.552232 -0.515135 
-0.415121 -0.227484 0.137854 -0.746900 0.053719 -0.636825 
-0.453352 -0.817531 0.071557 -0.390368 0.141275 -0.883302 
0.365017 -1.097730 0.005394 0.303855 -0.071753 0.807818 
0.938301 1.260686 2.001590 -0.333341 -0.717993 0.605751 
0.909822 1.392354 2.105157 0.359012 0.688389 -0.626943 
-1.117304 1.458059 2.928006 -0.259778 0.818046 -0.466655 
1.020714 0.976937 1.785220 -0.314235 -0.415015 0.839236 
-1.276337 0.791704 1.660712 0.152781 -0.891281 0.381516 
1.484754 0.390036 1.115014 -0.396010 -0.763458 0.295198 
-0.099756 -0.276976 0.363243 -0.092099 -0.332969 0.935651 
-0.115348 0.676512 0.496234 -0.097576 0.172362 0.968727 
1.252523 0.169889 0.843597 -0.365123 -0.636414 0.604177 
0.483003 -0.133245 0.185339 0.733395 0.090937 -0.630588 
-0.366939 -0.535667 0.065282 -0.627506 0.043323 -0.730724 
-0.617255 1.124100 1.431401 -0.651920 0.671977 -0.125484 
-1.024173 0.815902 1.548144 0.353926 -0.901592 0.067079 
-0.810488 0.216093 0.468417 -0.662619 0.315731 -0.613129 
0.325630 0.619592 0.431868 0.730635 0.081820 0.660183 
-0.122121 0.148179 -0.129176 -0.466845 -0.001724 -0.878873 
0.728230 0.516771 0.530314 0.617696 0.506676 -0.491768 
-0.851569 0.822454 1.220723 0.355636 -0.816453 0.419374 
0.274403 -0.128187 0.373442 0.413447 -0.288295 0.850674 
-0.068241 0.232864 -0.158587 -0.456276 0.032822 -0.886245 
0.964829 0.543627 0.890657 -0.371593 -0.729641 0.557607 
-0.470339 0.579629 0.231228 -0.528325 0.721636 -0.324434 
-0.452897 -0.410877 0.146917 -0.632432 0.094920 -0.707789 
0.292245 -0.008772 0.406491 0.391773 -0.267430 0.870814 
0.573967 -0.374836 0.255616 0.559477 0.185735 -0.721120 
0.186450 1.137503 0.547185 0.821996 0.099869 -0.432553 
-0.647213 1.127342 1.620621 -0.589618 0.763864 -0.062153 
0.391656 0.941259 1.158275 -0.584602 -0.675608 0.131485 
0.751653 0.853938 1.342598 0.588372 0.728885 -0.305818 
0.048047 0.114247 0.524461 0.142250 -0.258031 0.947759 
-0.024901 0.167261 0.538924 -0.117595 -0.206216 0.961245 
0.961485 0.343993 0.696501 -0.385869 -0.562909 0.692325 
0.600778 -0.846963 0.128553 -0.127495 -0.341456 0.901859 
-0.923867 1.430156 2.820766 -0.357320 0.784420 -0.492351 
-0.378019 0.215082 0.422524 -0.394308 -0.161572 0.892057 
1.214870 -0.218812 0.689019 0.303368 0.546076 -0.626081 
-0.313077 -1.277632 -0.015531 0.157513 -0.213450 0.892178 
1.662325 0.742214 2.033454 -0.418823 -0.453863 0.773038 
-0.549243 1.327481 2.010186 0.478622 -0.705478 0.514277 
0.426162 -0.206651 0.139062 0.748838 0.049970 -0.631181 
-0.879118 0.737105 0.846241 -0.563083 0.687480 -0.418489 
-0.021967 0.672306 0.495005 -0.027637 0.158605 0.974360 
-1.272429 0.082206 0.814308 -0.537490 0.366344 -0.718705 
1.071560 0.187695 0.738837 0.507995 0.525567 -0.629797 
-1.110125 -0.356720 0.596518 -0.424908 0.307018 -0.807023 
-0.839771 0.294483 0.478636 -0.651036 0.340925 -0.619886 
0.592893 -0.783267 0.165717 -0.157777 -0.309492 0.904148 
0.288541 -0.687764 -0.023082 0.182133 -0.071383 -0.920028 
0.333414 1.000257 1.246639 -0.538474 -0.745046 0.245698 
0.462895 -1.002362 0.036198 0.090167 -0.191350 0.867104 
0.897407 0.629129 0.894022 0.571151 0.710234 -0.371895 
-0.013430 -0.816538 0.117407 -0.434493 -0.414158 0.794961 
-0.395852 -0.724904 0.113176 -0.104901 -0.279114 0.916913 
1.613465 0.344806 1.665663 0.631312 0.564639 -0.328424 
-1.517844 0.123676 1.001551 0.505646 -0.365281 0.755343 
-0.539366 0.446817 0.152501 -0.627233 0.317777 -0.640053 
0.636957 0.701341 0.875933 -0.685367 -0.634675 0.305418 
0.545860 0.012261 0.217096 0.713678 0.137213 -0.640195 
-1.010204 0.999203 2.290486 -0.474897 0.798975 -0.336042 
1.356339 0.547392 1.631143 -0.639261 -0.697565 0.155444 
-0.540497 0.902445 0.858991 -0.111062 0.726367 -0.662562 
-1.260321 0.905935 2.353831 -0.353797 0.872277 -0.323285 
-0.071410 0.689253 -0.108094 -0.330840 0.192743 -0.902951 
1.068127 0.531842 0.893031 0.558246 0.663632 -0.472784 
-0.243968 0.127165 0.475324 -0.326904 -0.243715 0.905556 
0.796090 1.716934 2.359012 -0.367876 -0.596421 0.708282 
-0.359681 1.093189 1.000834 0.629606 -0.594726 0.272321 
0.724315 0.135909 0.394625 0.669577 0.264221 -0.621298 
1.475111 0.486096 1.675921 -0.616890 -0.653516 0.267859 
-1.302570 0.626555 1.326206 0.375434 -0.673172 0.531454 
0.948021 -0.662133 0.301712 -0.098368 -0.618304 0.752057 
1.632231 0.439010 1.764957 -0.567571 -0.598941 0.467827 
-0.232833 0.926829 0.080570 -0.694844 0.424896 -0.567932 
-1.257154 0.956270 2.417412 0.401827 -0.653636 0.626085 
-0.662578 1.042544 1.669647 0.423418 -0.755953 0.473797 
1.672252 1.511545 2.522445 -0.254013 -0.607054 0.747959 
-0.073121 -0.693756 0.199169 -0.238049 -0.447076 0.849700 
0.733676 -0.804229 0.170155 0.178505 0.441739 -0.821206 
0.607011 -0.903420 0.079683 0.199043 0.356457 -0.865734 
-1.486134 0.660659 1.375849 0.118868 0.479774 -0.736996 
-0.977055 0.403931 0.607383 -0.626999 0.426238 -0.603325 
0.538553 0.198291 0.357943 -0.128885 -0.407535 0.859064 
-0.247820 -0.721170 0.142745 -0.158636 -0.360244 0.871869 
-0.889464 0.399418 0.504778 -0.634674 0.380109 -0.626101 
0.858774 -0.655345 0.303229 -0.129529 -0.502211 0.794375 
-1.295255 0.465223 0.910058 0.530839 -0.546867 0.631956 
-0.597792 -0.715750 0.180626 0.207730 -0.300151 0.904055 
-0.454312 0.541810 0.169183 -0.545928 0.571704 -0.432171 
0.304029 -1.074916 -0.034331 0.095790 0.108327 -0.932944 
1.300122 0.317099 0.903456 0.471739 0.637261 -0.552903 
-0.834671 -0.107382 0.462829 -0.505275 0.352451 -0.714049 
1.060271 1.494037 2.273474 0.327362 0.653338 -0.679501 
-1.623592 0.860556 2.004055 0.083318 -0.976068 0.106804 
0.645635 1.455326 1.998450 0.436804 0.667731 -0.581216 
-1.154963 0.776257 1.536695 0.230471 -0.887829 0.150104 
-1.300834 1.162733 2.697620 0.366867 -0.716907 0.581394 
1.518429 1.585661 2.532955 -0.261756 -0.642490 0.719109 
-0.059970 0.004267 -0.155869 -0.444125 -0.039378 -0.879821 
0.000383 -0.360439 -0.151021 0.264667 -0.269092 -0.924948 
-0.322299 1.307407 1.284936 0.039013 0.606992 -0.616520 
-1.678747 0.843948 2.422382 0.191894 -0.929902 0.266570 
1.672190 0.334135 1.706092 0.618811 0.566258 -0.382427 
-1.733320 0.715618 1.553210 -0.074870 0.819128 -0.455514 
-0.393725 -1.318317 -0.049596 -0.903866 0.232621 0.149087 
0.797919 0.631274 0.733678 0.545438 0.725580 -0.381765 
-0.212542 0.286034 0.526419 -0.337614 -0.070135 0.929036 
-0.371141 0.549484 0.340387 -0.644608 0.178298 0.587349 
-0.202865 1.456914 1.614551 0.548422 -0.705550 0.430472 
-0.486521 1.329334 1.877565 -0.728866 0.638219 -0.160722 
-0.935889 1.077834 2.323211 0.556454 -0.660766 0.485529 
1.564834 1.017351 2.171885 -0.358158 -0.503768 0.768367 
0.255287 0.213507 0.490146 0.352373 -0.147162 0.913006 
0.091327 0.294880 -0.143970 0.450671 0.032629 -0.889814 
-0.684670 -0.486850 0.292125 -0.427343 0.251263 -0.816831 
-1.238244 1.056902 2.532796 -0.372618 0.780728 -0.467361 
-1.316936 -0.130914 0.808268 0.427860 -0.325228 0.808676 
-0.397630 0.619290 0.302787 -0.349343 0.831789 -0.173950 
-0.097579 0.225921 0.544266 -0.204469 -0.140692 0.955608 
0.253651 -0.651197 0.173509 0.274866 -0.352859 0.865929 
1.330783 0.688430 1.733561 -0.569911 -0.720943 0.323986 
-0.718221 -0.694457 0.273398 -0.387504 0.192153 -0.874830 
1.511860 0.389405 1.389689 -0.405585 -0.832251 -0.243807 
-0.408116 0.019479 0.037802 -0.654762 0.059349 -0.732805 
1.612037 0.794179 2.032629 0.454474 0.491620 -0.717259 
-0.672679 -0.145544 0.335522 0.120727 -0.357662 0.859568 
1.550178 0.038538 0.924233 -0.213632 -0.783724 0.519006 
-0.597393 0.303146 0.188086 -0.669794 0.215968 -0.686866 
0.708492 0.569984 0.763526 -0.432530 -0.689733 0.522555 
-0.865627 -0.608001 0.362494 0.244495 -0.349593 0.867529 
0.840867 0.245980 0.501723 0.639571 0.347615 -0.613632 
-0.426351 0.055661 0.347793 -0.323231 -0.250080 0.886586 
0.305824 0.075124 -0.027718 0.477660 -0.091526 -0.871449 
1.064742 0.114608 0.728151 -0.400406 -0.560403 0.666984 
1.433541 0.737945 1.856365 -0.347968 -0.346493 0.844212 
-0.300201 1.245477 1.314546 0.578842 -0.714740 0.349516 
1.407960 1.076560 2.118460 -0.367647 -0.553909 0.730101 
-0.252789 0.227404 -0.056764 -0.446342 -0.042044 -0.890447 
-1.611118 0.693893 1.476950 0.008275 0.668407 -0.583071 
1.375336 0.359309 0.974098 -0.408946 -0.698226 0.547076 
-0.686036 0.462399 0.487084 0.210686 -0.556114 0.790043 
-0.046677 1.365401 0.234976 -0.606904 0.694384 -0.065958 
-0.407164 1.501453 2.097073 -0.343074 0.900273 -0.107981 
1.060582 -0.126076 0.639666 -0.296664 -0.539816 0.693409 
-1.253669 -0.204591 0.740251 0.397400 -0.337263 0.814314 
-0.099909 1.118342 0.511316 0.278116 0.256141 0.911603 
1.714452 1.444168 2.474554 -0.248277 -0.582928 0.767197 
-0.705414 0.185945 0.353082 -0.674727 0.257251 -0.635828 
0.658419 0.121806 0.319546 0.684567 0.217799 -0.633309 
0.305166 0.789246 0.103469 0.787661 0.401224 -0.354208 
-1.628503 0.637407 1.366830 -0.140799 -0.544501 0.588679 
-0.799520 0.841709 1.169304 0.348260 -0.800783 0.454388 
-0.285490 1.262055 1.225146 0.741811 -0.324695 -0.126245 
-0.082376 -0.620994 0.234662 -0.190859 -0.405565 0.882253 
0.999640 -0.126227 0.602473 0.418835 0.460097 -0.678847 
1.638893 1.236457 2.257058 0.246755 0.645587 -0.695306 
-1.359545 0.784338 1.657124 0.124268 -0.847428 0.491612 
1.639987 1.099994 2.206231 -0.308497 -0.544434 0.759681 
-0.733782 1.411940 2.583726 0.547753 -0.687124 0.440635 
-0.237342 -0.356326 -0.067513 -0.541873 -0.124990 -0.829638 
1.313878 1.278991 2.175180 0.294835 0.508258 -0.797406 
-1.200378 0.799767 1.593477 -0.142215 0.735342 -0.611079 
0.499468 0.797795 0.901706 -0.615444 -0.732759 0.228803 
-0.511412 -0.238800 0.218701 -0.687570 0.120187 -0.654607 
0.915806 1.330151 2.038676 0.369618 0.627997 -0.683084 
1.058388 1.314680 2.096082 0.343680 0.591412 -0.720412 
1.709683 0.367071 1.204846 -0.312985 -0.842796 0.277065 
0.529414 -0.564978 0.157533 -0.100580 -0.288447 0.929866 
-0.570973 -0.415266 0.211844 0.091483 -0.309127 0.907670 
-0.499766 1.096755 1.079607 -0.576500 0.739564 -0.272553 
-0.399327 -0.304640 0.130281 -0.738728 0.041947 -0.642739 
-0.442804 1.215744 1.293790 -0.755583 0.610221 -0.075100 
-0.730732 0.768429 0.877609 0.243534 -0.758652 0.601101 
1.148708 -0.126946 0.684224 -0.268401 -0.573372 0.666736 
-1.631069 0.765597 1.635059 -0.161719 0.942702 -0.240418 
-1.477336 0.895596 2.146654 -0.155462 0.963989 -0.092343 
0.374994 0.689107 0.170429 0.488934 0.706144 0.007803 
1.176344 0.594387 1.496599 0.563418 0.712602 -0.277161 
0.078475 0.748387 0.482663 0.095613 -0.028656 0.983030 
1.206094 1.575136 2.412800 0.302497 0.627462 -0.716463 
0.566718 0.025389 0.305457 -0.156704 -0.389039 0.878170 
-1.154121 0.223654 0.761945 0.464994 -0.496003 0.687775 
-0.421277 0.403432 0.019175 -0.560790 0.072813 -0.806787 
-1.463782 0.158797 0.967719 -0.561532 0.358067 -0.719886 
-0.805914 0.754673 0.904899 0.318442 -0.724839 0.593309 
-0.987299 0.426991 0.675320 0.384302 -0.542333 0.698461 
1.384027 0.340617 1.475577 -0.706673 -0.650821 0.008006 
-1.464506 1.079784 2.673961 0.318733 -0.699241 0.629542 
1.163978 1.638053 2.449832 0.316584 0.602648 -0.730976 
-0.377528 -0.421429 0.184730 -0.297315 -0.294339 0.877350 
0.144826 1.042799 0.537763 0.038694 -0.127819 0.939928 
0.551122 0.706412 0.743318 -0.588134 -0.683946 0.382165 
0.736504 0.208067 0.387520 0.663950 0.273859 -0.630170 
-0.540823 0.533802 0.565797 0.506066 -0.669757 0.507946 
1.508265 1.899452 2.794629 0.297420 0.598149 -0.741332 
-1.491058 0.902855 2.464446 0.314350 -0.770537 0.503801 
-0.087466 -0.164954 -0.134159 -0.426179 -0.112015 -0.878384 
0.826083 0.682259 1.056321 -0.335330 -0.740481 0.558135 
0.133947 -0.508711 -0.046848 0.141739 -0.327022 -0.926907 
-0.621316 0.715026 0.691559 0.063797 0.824904 -0.513031 
-1.136101 0.688149 1.249401 -0.458115 0.760876 -0.388676 
1.535174 0.537211 1.763908 0.519545 0.492590 -0.630701 
1.199641 1.859134 2.661278 -0.342327 -0.516891 0.775339 
-0.099158 -0.099037 0.439119 -0.148690 -0.311710 0.935967 
0.833341 -0.791070 0.186854 0.099235 0.577167 -0.794248 
0.253923 1.440891 1.805438 -0.316043 -0.587274 0.734197 
-1.857685 0.726784 1.615107 -0.122466 0.929435 -0.342070 
-1.530583 0.737491 1.548195 -0.071307 0.750400 -0.543754 
0.780737 0.366424 0.392975 0.647778 0.307269 -0.645856 
-0.344129 0.384276 -0.017332 -0.466430 -0.025816 -0.878429 
1.311869 0.066081 0.836563 -0.301034 -0.650863 0.597005 
1.237735 0.306557 0.866192 0.490757 0.609524 -0.571637 
-0.127283 0.151316 0.524537 -0.231489 -0.215515 0.939436 
-1.231779 0.908774 2.162059 -0.273732 0.915399 -0.196172 
-0.559017 -0.117839 0.254323 0.042498 -0.345998 0.903697 
1.300615 0.484393 1.217253 0.485516 0.721549 -0.216836 
-1.325206 0.593176 1.227562 0.404665 -0.628972 0.579808 
-1.146274 1.011234 2.431973 0.435725 -0.653638 0.610282 
1.401543 1.834755 2.699635 0.311543 0.581613 -0.748195 
-0.832990 -0.795243 0.198731 -0.142809 0.555208 -0.803802 
0.101804 0.046528 0.497738 0.190851 -0.294057 0.933220 
0.394699 1.047310 1.388423 -0.169084 -0.790334 0.568059 
0.596129 0.208311 0.218441 0.694639 0.175425 -0.660587 
0.277319 -0.346134 -0.031805 0.588924 -0.103730 -0.788704 
1.161497 0.223730 0.799006 0.488249 0.567865 -0.600894 
-0.317363 0.709284 -0.007218 -0.660135 0.427944 -0.561208 
0.697383 0.926284 1.454227 0.611193 0.695120 -0.338872 
0.384085 0.246766 0.410640 0.312167 -0.145877 0.914487 
-0.734239 1.039369 1.666245 -0.526231 0.825792 0.037024 
1.444251 0.671850 1.797792 0.554122 0.642978 -0.508538 
-0.239768 -0.656333 0.176268 -0.261003 -0.363120 0.868751 
-1.133580 0.504301 0.761823 -0.602457 0.520403 -0.579878 
0.414994 0.004421 0.331705 0.279444 -0.244439 0.902794 
-0.696583 -0.214238 0.349106 -0.553003 0.258972 -0.710526 
-0.057490 -0.268764 -0.137282 -0.360569 -0.184647 -0.896426 
0.003717 0.874576 0.526707 0.124919 -0.171441 0.966474 
0.846697 0.018603 0.535161 0.585926 0.361313 -0.632088 
0.634306 -0.474694 0.264947 -0.175615 -0.341201 0.876904 
0.793241 0.673163 0.982761 -0.310227 -0.750651 0.563047 
-1.622205 0.158109 1.081056 -0.567912 0.335818 -0.737264 
-0.983448 0.908755 1.705922 -0.360224 0.922637 0.024735 
-0.924635 0.689963 0.809058 -0.531474 0.690538 -0.472834 
-0.748175 0.685894 0.630856 -0.481291 0.677716 -0.501262 
-0.655392 0.311800 0.254252 -0.664047 0.247232 -0.672844 
-1.209865 0.452510 0.846690 0.514833 -0.564445 0.626681 
-0.024323 1.270780 0.376768 -0.139914 0.779382 0.605894 
1.199618 1.204374 2.075738 -0.358767 -0.665486 0.649823 
-1.677244 0.414628 1.228071 -0.478485 0.419550 -0.763288 
-0.465154 1.199102 1.431640 0.288516 -0.858168 0.410440 
-1.545680 0.822891 1.809719 -0.149488 0.964951 -0.132962 
-1.202988 0.628943 1.172907 0.438843 -0.696084 0.494593 
-0.081840 1.308401 0.282859 -0.644686 0.659336 0.293378 
-0.678338 -0.757100 0.219384 0.204406 -0.292076 0.913082 
-1.509583 0.271250 1.018809 -0.577522 0.395703 -0.691478 
0.608382 0.866202 1.245049 -0.257897 -0.786808 0.538701 
0.482020 -0.521853 0.121154 -0.046128 -0.266579 0.954719 
0.784687 -0.306365 0.429567 0.431420 0.348566 -0.756479 
-0.143602 0.415324 0.556639 -0.285097 0.036493 0.952640 
0.106987 0.076631 -0.138023 0.480176 -0.006865 -0.870784 
0.171238 0.062913 0.489833 0.275204 -0.280193 0.916150 
0.645509 0.671449 0.784132 -0.681140 -0.618874 0.347410 
-0.628167 0.685548 0.548791 -0.188931 0.813371 -0.430221 
0.376067 -0.820939 0.093543 0.078701 -0.276064 0.921969 
-0.165462 -0.256315 -0.100273 -0.490099 -0.113386 -0.852096 
1.110638 0.489989 0.933875 -0.446618 -0.668688 0.582511 
-0.255781 1.465074 1.689335 0.443734 -0.714481 0.538628 
0.754009 1.105940 1.706887 0.501160 0.763701 -0.350925 
-0.150242 -0.535424 -0.036766 -0.102657 -0.264549 -0.943775 
-1.185198 1.434628 2.930438 -0.402817 0.618729 -0.663357 
-0.277519 0.280765 0.489109 -0.358213 -0.082075 0.918500 
-0.277117 0.349664 -0.038157 -0.419147 -0.034087 -0.905290 
0.743052 0.425842 0.580546 -0.322499 -0.577388 0.724188 
-1.286945 0.536683 0.894449 -0.588106 0.554569 -0.582027 
-0.802104 -0.640501 0.327017 -0.372040 0.246981 -0.855618 
1.007754 -0.510803 0.432087 0.210704 0.543303 -0.715048 
0.783495 0.219030 0.440785 0.653224 0.306976 -0.621749 
-1.216591 0.836878 1.654794 -0.220011 0.896669 -0.372502 
0.790338 0.129352 0.476093 0.655407 0.310421 -0.605964 
0.078721 -0.719663 0.177412 0.198811 -0.451702 0.851705 
-0.014287 1.631615 1.545310 0.758801 -0.517108 0.165248 
0.297626 1.180410 1.442321 0.709152 0.648787 -0.245823 
1.373091 0.784482 1.830246 0.538804 0.645461 -0.506598 
-1.418477 0.512250 1.023080 -0.525247 0.515880 -0.658331 
0.558808 0.837808 0.941958 0.115753 0.816210 -0.548236 
0.689347 0.646864 0.715788 0.011490 0.879598 -0.434842 
0.589089 -0.568946 0.210627 -0.156817 -0.317162 0.899127 
-1.742692 0.835805 2.462215 -0.204657 0.919563 -0.315623 
-0.563936 -0.953766 0.058810 -0.240396 0.311693 -0.874112 
0.953857 1.633687 2.342700 0.333750 0.637262 -0.693624 
-0.773812 1.004432 1.732929 -0.519139 0.831909 0.010592 
-0.282084 1.529591 1.796761 -0.530976 0.794697 -0.164192 
-0.159424 1.049298 0.387685 -0.521281 0.749749 0.275118 
-0.250804 -0.946145 0.035903 0.210229 -0.369843 0.885342 
0.145990 -0.195228 0.394192 0.171119 -0.314902 0.931334 
-0.470263 -0.045610 0.146364 -0.721070 0.105517 -0.655954 
1.356440 0.004164 0.837037 -0.259905 -0.662981 0.589943 
-0.803438 0.909903 1.363555 0.340655 -0.858118 0.361335 
-0.950975 0.533078 0.599259 -0.597872 0.479717 -0.600304 
1.067958 1.195800 2.003565 -0.371530 -0.651516 0.656240 
-0.807176 0.921437 1.701890 0.446853 -0.796792 0.356211 
-0.338911 0.713549 0.340719 -0.896882 0.187247 0.318923 
-0.746605 1.013010 1.424060 -0.578424 0.732749 -0.169796 
-0.112738 1.161076 0.124168 -0.512484 0.418907 -0.741639 
-0.505474 -0.156770 0.206939 0.005999 -0.330360 0.927003 
-0.724463 0.188225 0.434146 0.194954 -0.451022 0.816710 
0.162169 -0.606885 0.225541 0.216431 -0.403887 0.884801 
0.656239 1.020853 1.562766 0.576713 0.603425 -0.457424 
-0.176800 1.471289 1.542229 0.275391 -0.823824 0.462048 
-1.394627 0.581592 1.294109 0.373644 -0.601221 0.617579 
1.548262 0.266024 1.543706 -0.708872 -0.606565 0.062251 
-1.160378 0.922099 2.134875 -0.287923 0.918410 -0.178249 
-0.288709 -0.016161 0.405399 -0.399363 -0.270387 0.865038 
-1.043007 0.543933 0.773043 0.414571 -0.607558 0.647802 
0.001263 0.216230 -0.191603 0.440743 0.038758 -0.889961 
0.084812 1.105178 0.513677 -0.232162 0.245615 0.921401 
-0.387192 -0.566267 0.140354 -0.175372 -0.284584 0.915097 
-0.518261 0.960281 1.026477 0.420309 -0.758186 0.458800 
0.121613 1.260859 0.275511 0.691534 0.643026 0.079812 
0.718808 0.655280 0.889686 -0.266534 -0.790470 0.549558 
-0.798730 1.370707 2.578955 -0.563976 0.658546 -0.472854 
1.137053 0.543034 1.141389 -0.484301 -0.679583 0.543372 
0.781222 -0.163093 0.453247 0.523031 0.330555 -0.694102 
-0.189722 0.020059 -0.092358 -0.483651 -0.048408 -0.867360 
-0.757163 0.911527 1.189154 -0.579635 0.769806 -0.188309 
0.114703 0.446680 -0.102805 0.389751 0.039412 -0.915462 
0.243739 0.040361 -0.062391 0.482921 -0.070442 -0.868258 
1.229006 0.556504 1.358736 -0.462128 -0.747403 0.272184 
-0.394307 -1.047421 -0.007832 -0.334148 0.111847 -0.924137 
0.077689 -0.072276 -0.144535 0.439898 -0.069772 -0.878091 
-0.118927 0.499421 0.546602 -0.248220 0.075894 0.957598 
1.468694 1.405782 2.357641 0.263837 0.726262 -0.624633 
-0.040280 1.396793 1.595339 -0.524366 -0.706994 0.423666 
0.525723 0.751775 0.817005 -0.583713 -0.720585 0.318588 
0.613809 0.831917 1.001076 0.604226 0.766891 -0.183633 
0.605944 -0.978526 0.077057 0.183383 -0.316074 0.775005 
-0.580830 0.301615 0.367756 0.099370 -0.457035 0.854627 
-1.503412 0.841303 1.877905 0.083488 -0.876651 0.318403 
1.207645 0.595850 1.417992 0.491847 0.742787 -0.248334 
-0.902263 0.337043 0.539516 -0.640946 0.378836 -0.610990 
-0.674169 1.324650 2.254754 0.479338 -0.729497 0.476917 
0.393012 -0.165674 0.086782 0.754407 0.027342 -0.644891 
-0.671038 1.239207 2.121569 -0.683590 0.658228 -0.278371 
-0.261902 0.832523 0.409725 -0.736504 0.113529 0.604990 
-1.369255 0.434182 0.939759 -0.583718 0.493997 -0.623823 
0.735272 -0.746270 0.218916 0.233403 0.383100 -0.813586 
1.095195 1.697129 2.474934 -0.262834 -0.674498 0.686748 
-0.651999 1.054848 1.592919 0.417916 -0.846955 -0.014311 
-0.099146 -0.971383 -0.086577 -0.192569 0.207057 -0.949649 
-0.063056 0.905370 0.527151 -0.210941 -0.098805 0.963468 
-0.503060 0.018454 0.165244 -0.710880 0.130718 -0.659086 
-1.690419 0.591444 1.282054 -0.243362 -0.410487 0.738370 
1.752437 1.115756 2.231011 0.289342 0.436115 -0.843790 
-0.697876 1.249684 2.200747 -0.678710 0.654123 -0.311160 
0.516428 -0.329664 0.218388 0.636975 0.131953 -0.680194 
-0.329999 -0.344289 0.270822 -0.530648 -0.310552 0.786402 
-0.386204 0.538088 0.083307 -0.516188 0.369027 -0.581687 
1.048838 -0.022977 0.670683 -0.345382 -0.543474 0.686197 
-0.254844 -0.245747 0.339332 -0.416197 -0.309050 0.836698 
-1.489074 0.879199 2.244904 -0.203966 0.934063 -0.194216 
-1.371486 0.504266 0.956410 -0.582790 0.522956 -0.609141 
-0.670369 1.365415 2.380218 0.530295 -0.751411 0.374620 
0.302230 0.294981 0.463957 0.317322 -0.073107 0.931223 
-0.169161 -1.051444 -0.058023 0.232165 -0.410941 0.874094 
0.301290 -0.071741 -0.031535 0.514084 -0.093656 -0.845784 
0.891106 0.916317 1.598459 0.461939 0.556838 -0.616625 
0.083775 -1.022396 -0.098036 0.251086 0.243924 -0.935649 
1.811301 1.149963 2.251834 -0.251535 -0.541263 0.789787 
-1.446141 1.020049 2.589096 -0.308936 0.796938 -0.482025 
-0.219487 -0.850633 -0.010696 0.021796 0.027639 -0.995248 
-0.344759 -1.377280 -0.048283 0.168374 -0.615260 0.474354 
-0.508154 0.787182 0.728374 0.465468 -0.648036 0.582316 
-0.327727 -0.606994 0.166663 -0.315969 -0.303449 0.877393 
1.265932 0.695888 1.672544 0.497012 0.450116 -0.615337 
-0.059531 -0.042520 0.467047 -0.123358 -0.311860 0.940330 
-1.355503 0.856919 1.868271 0.079306 -0.809041 0.429865 
-1.806886 0.710856 1.563245 0.068756 -0.870753 0.377256 
0.558372 -0.630883 0.174029 -0.143535 -0.300882 0.914247 
0.092537 0.713057 -0.097175 0.343832 0.236676 -0.887473 
-0.167065 0.725059 0.471261 -0.247752 0.145071 0.927592 
-1.162504 1.061441 2.502834 0.424808 -0.674136 0.593417 
-1.378999 0.910750 2.108683 0.147815 -0.982726 0.032218 
0.443308 0.593236 0.524913 -0.782807 -0.434247 0.415833 
-0.508950 0.194267 0.361840 -0.100054 -0.361100 0.868240 
0.226452 0.769978 0.454041 0.471421 0.134201 0.848801 
-0.512603 -0.785108 0.119153 -0.380779 0.162152 -0.885693 
0.652140 1.163596 1.710359 0.532133 0.688158 -0.416291 
-0.981004 0.908235 1.802704 0.279907 -0.786775 0.441912 
1.583878 0.561011 1.822536 0.545621 0.596784 -0.570321 
-0.220475 0.457259 0.504854 -0.274053 0.052320 0.957952 
-0.562862 -0.498209 0.191563 0.109640 -0.303300 0.911555 
0.136390 -0.023080 -0.122363 0.492442 -0.034495 -0.862458 
0.787967 0.052960 0.495168 0.657412 0.307952 -0.595788 
1.384742 0.430421 1.209807 0.459207 0.745757 -0.072462 
1.038617 -0.198940 0.602336 -0.271808 -0.525683 0.707697 
-0.309912 -0.101882 0.365207 -0.442507 -0.278948 0.841458 
0.728798 -0.010167 0.438292 0.666082 0.266957 -0.604749 
-1.453837 1.424186 3.021593 -0.309017 0.654770 -0.682635 
-1.570639 0.614609 1.305315 -0.206255 -0.442225 0.654055 
-0.165062 -0.753546 0.153976 -0.060390 -0.419061 0.877233 
0.524621 0.616697 0.320631 0.630467 0.714447 -0.284737 
0.359854 1.038220 1.310576 -0.145492 -0.798590 0.575332 
0.228779 0.857908 0.020676 0.595932 0.471365 -0.646037 
0.098713 1.267544 1.574990 -0.605020 -0.718551 0.311058 
0.328461 1.131118 1.284986 0.393220 0.834276 -0.333896 
1.387229 0.824037 1.889127 -0.316775 -0.314446 0.879683 
1.669469 0.807414 2.090027 0.430388 0.450553 -0.773632 
-1.017285 1.217385 2.623583 -0.460995 0.694712 -0.545566 
-1.551164 0.412592 1.071388 -0.595895 0.446390 -0.654024 
0.002923 -0.777603 -0.051113 0.628479 0.070156 -0.746322 
0.475224 -0.705799 0.088397 -0.084875 -0.258986 0.956193 
0.667848 1.040440 1.630201 -0.320557 -0.809926 0.436354 
-1.194905 -0.227597 0.702267 0.390963 -0.321899 0.824112 
-0.017218 0.742788 0.485822 -0.057086 -0.041132 0.984095 
-1.600452 0.438880 1.170420 0.450493 -0.436886 0.763480 
0.883143 0.170643 0.575363 0.633417 0.376123 -0.592467 
0.270241 0.964259 0.196588 0.846872 0.374762 -0.279718 
-0.964305 1.207075 2.574442 0.471709 -0.726826 0.495539 
-0.369896 1.341380 1.731208 0.499469 -0.781046 0.260873 
1.443296 0.928418 2.019044 -0.341519 -0.385935 0.842678 
0.750539 0.891698 1.532263 -0.351411 -0.755435 0.509774 
-0.552308 0.625634 0.619647 0.658046 -0.583284 0.453953 
1.728970 1.377535 2.416827 0.247891 0.631575 -0.720487 
0.916864 -0.610247 0.344215 -0.130839 -0.536788 0.770311 
0.421300 -0.894776 0.062882 -0.043412 -0.259702 0.944739 
-0.394881 -0.076800 0.063490 -0.717016 0.057537 -0.680873 
-0.769524 1.266048 2.367429 -0.639096 0.658410 -0.385417 
0.119436 -0.355422 0.327193 0.089012 -0.340254 0.932275 
1.769325 0.396327 1.841144 0.540582 0.537617 -0.639469 
0.396814 -0.222967 0.255177 0.306449 -0.270200 0.878193 
-0.051513 -0.559978 0.261933 -0.163850 -0.336693 0.906038 
-0.972489 0.628670 0.832638 0.338625 -0.692397 0.612580 
0.757895 0.493613 0.671131 -0.303431 -0.668850 0.645646 
0.915330 0.295109 0.576545 0.621270 0.400574 -0.605354 
-1.454763 1.286374 2.895342 0.288657 -0.708493 0.638969 
0.360545 0.378836 -0.008010 0.502635 -0.025343 -0.855141 
-0.463935 -0.913675 0.049659 0.127587 -0.253622 0.954826 
0.165451 -0.534175 0.255656 0.180210 -0.368382 0.905131 
-0.344228 0.539670 -0.001835 -0.534965 0.180621 -0.730619 
-0.107187 -0.361807 0.324479 -0.069676 -0.327896 0.936584 
-1.201409 0.298431 0.810359 0.485955 -0.510812 0.670876 
-0.763055 0.549600 0.484012 -0.582490 0.474527 -0.592979 
-0.252947 0.586784 0.474434 -0.500831 0.099415 0.808073 
-0.792234 0.942416 1.577114 0.437222 -0.851033 -0.031559 
0.417340 -0.017359 0.068189 0.724718 0.042286 -0.676894 
0.685363 0.416524 0.339312 0.655601 0.313713 -0.615729 
-1.673812 0.854598 2.492992 0.246213 -0.864090 0.403987 
-0.056421 0.089219 -0.163169 -0.465086 0.003232 -0.876399 
1.448039 0.049771 0.900041 -0.250831 -0.701531 0.557356 
-1.735791 0.653620 1.423766 0.068316 0.626698 -0.585948 
-0.190060 0.092190 -0.091897 -0.471938 -0.037529 -0.874834 
0.911458 -0.131239 0.552863 0.449356 0.421989 -0.704428 
0.855572 0.570527 0.830889 -0.310958 -0.782824 0.534046 
1.570714 0.356561 1.333975 0.383623 0.833780 0.299383 
-0.596661 0.930887 1.042095 0.306607 -0.773853 0.546668 
-0.821827 0.140616 0.500248 -0.663021 0.314575 -0.602498 
0.478806 1.031213 1.476630 -0.217057 -0.777973 0.552951 
-0.813954 0.854826 1.076515 -0.601984 0.724355 -0.252107 
0.640055 0.579844 0.697118 -0.723611 -0.536410 0.407486 
0.339904 0.933623 1.006198 0.185747 0.806163 -0.491094 
-0.634537 0.194998 0.367541 0.149065 -0.446784 0.850038 
0.004654 -0.993045 -0.104642 0.580493 0.226785 -0.769046 
-0.805489 1.031271 1.975152 0.517457 -0.825262 0.119371 
-0.200226 0.527290 0.505016 -0.273879 0.080991 0.956616 
-0.695162 0.653482 0.541036 -0.498695 0.656146 -0.488230 
0.076978 0.901665 -0.025217 0.491367 0.409565 -0.744301 
-1.173005 0.892044 2.218853 0.202014 -0.976045 -0.036814 
1.569528 0.322390 1.059723 -0.331389 -0.769406 0.491961 
-0.861035 0.579385 0.600011 -0.568720 0.536448 -0.567278 
0.583642 1.665501 2.183174 -0.538154 -0.364541 0.736419 
0.266649 -1.175136 -0.036167 -0.238371 0.078482 -0.945361 
1.182372 0.579879 1.300645 0.513877 0.705704 -0.371247 
0.105001 -0.164307 -0.128499 0.442957 -0.102657 -0.873184 
-0.410762 1.160587 1.251833 0.276544 -0.817030 0.497577 
-1.373865 0.876487 1.944376 0.095483 -0.864079 0.306193 
-1.720523 0.886746 2.556199 -0.231337 0.874826 -0.402804 
-0.637605 -0.413968 0.271862 -0.481802 0.236479 -0.775466 
0.564649 0.496970 0.607488 -0.452782 -0.632863 0.598251 
1.006249 1.164068 1.936731 -0.379043 -0.617062 0.687295 
-0.420947 0.634696 0.204050 -0.604232 0.738688 -0.183182 
-1.027396 0.616948 0.778027 -0.552721 0.621523 -0.533641 
0.342505 0.755821 0.255158 0.954366 0.221008 0.036854 
-0.394162 -0.423582 0.104639 -0.672195 0.051454 -0.692171 
-0.096699 0.613309 0.523582 -0.077598 0.302126 0.940401 
0.995214 1.100394 1.876890 -0.362003 -0.557571 0.740748 
0.114462 0.174834 0.531177 0.219539 -0.191876 0.945198 
-0.684484 1.116141 1.893315 0.479305 -0.831742 0.168973 
-1.630793 0.724452 1.553648 0.073117 -0.846617 0.317173 
-1.172372 0.363425 0.802444 0.492892 -0.541906 0.648799 
-0.672882 -0.307986 0.315555 -0.516376 0.251458 -0.742437 
0.555983 0.261817 0.153958 0.701223 0.148082 -0.677809 
0.589285 -0.694368 0.202977 0.360313 0.222289 -0.847452 
0.064875 1.332698 0.256531 0.635420 0.658639 0.124678 
0.829470 -0.593255 0.352745 0.295207 0.363077 -0.770606 
1.127112 -0.198389 0.649609 0.345486 0.506369 -0.649094 
1.388581 1.310327 2.247589 -0.268056 -0.470926 0.837166 
-0.126942 1.263035 0.342117 -0.577518 0.752956 0.220163 
0.401238 0.490239 0.445280 -0.563857 -0.442067 0.561925 
0.331305 -0.004106 -0.015031 0.535881 -0.064382 -0.828652 
0.408568 -0.146833 0.273974 0.274435 -0.256151 0.897165 
0.137431 0.762266 -0.060105 0.501264 0.385190 -0.726995 
0.548143 -0.114275 0.256052 -0.101920 -0.347096 0.903038 
0.564512 0.455892 0.539050 -0.409825 -0.583070 0.668033 
0.541417 0.362237 0.411149 -0.161869 -0.389186 0.852805 
-0.253954 0.074982 -0.056702 -0.470982 -0.065788 -0.874703 
-0.401036 1.382469 1.785596 -0.750664 0.625565 -0.113779 
1.109697 0.623572 1.296978 0.536129 0.686349 -0.483978 
-0.337051 0.793846 0.201506 -0.944884 0.276668 -0.142648 
0.621976 -0.323601 0.301767 0.552452 0.218996 -0.713843 
-1.038160 -0.390979 0.560718 -0.453578 0.240133 -0.826587 
0.746126 1.693370 2.313246 -0.365941 -0.616982 0.691899 
-0.711027 1.078757 1.834208 -0.606000 0.757727 -0.164492 
0.900738 0.676036 1.040527 0.574448 0.703038 -0.358215 
-0.506639 1.476785 2.285028 0.760368 -0.416733 0.451367 
0.051280 -0.185150 0.403216 0.061409 -0.332607 0.936975 
1.189653 0.482761 0.958436 0.547891 0.632572 -0.540409 
-0.954191 0.489366 0.662856 0.379303 -0.560004 0.705153 
-0.152149 -0.825452 -0.032723 -0.020499 0.048220 -0.984113 
-1.163110 1.108326 2.560115 -0.403547 0.753302 -0.494530 
-1.176767 1.238437 2.727895 -0.409894 0.676125 -0.599347 
-1.248907 0.894105 1.899771 -0.206369 0.974919 -0.030373 
0.112676 1.381847 1.587669 0.461936 0.674842 -0.539769 
1.272695 -0.003630 0.789234 0.363744 0.589982 -0.589897 
-0.108745 1.229668 0.403491 -0.188952 0.840733 0.443672 
-0.481433 0.623450 0.291435 -0.498956 0.817561 -0.263959 
1.171251 1.823826 2.605551 0.344298 0.546127 -0.762403 
0.048380 -0.865552 0.066846 0.227559 -0.460569 0.826975 
1.068418 1.435439 2.225181 0.322850 0.680857 -0.652354 
1.381419 1.584294 2.482026 0.289627 0.624441 -0.724428 
-0.765394 -0.238555 0.391343 -0.483119 0.314329 -0.745727 
-0.363698 -1.209580 -0.022067 -0.345115 0.047775 -0.926369 
0.308062 0.533489 0.438193 0.421056 0.063271 0.845676 
0.506154 1.545494 2.033469 -0.237315 -0.622343 0.732745 
-1.112196 0.830493 1.609851 -0.249382 0.786973 -0.536386 
-0.251494 0.631287 -0.070450 -0.529868 0.167522 -0.806171 
-0.665144 0.127623 0.378509 0.150786 -0.428364 0.843938 
-1.031918 -0.465963 0.497861 0.287227 -0.387225 0.831290 
-0.441842 -0.134963 0.247449 -0.196324 -0.259828 0.921546 
-1.269909 0.603296 1.178187 0.428187 -0.652137 0.548633 
0.962607 -0.177940 0.571171 -0.305024 -0.498340 0.728586 
0.337811 0.053850 0.406366 0.408876 -0.249536 0.872237 
0.197829 1.466108 1.758483 -0.019403 0.893522 -0.368040 
1.698979 0.965811 2.186166 0.367432 0.434329 -0.819218 
-0.301434 1.455869 1.636022 -0.708053 0.681386 -0.166532 
0.884201 0.514855 0.785237 -0.341351 -0.712828 0.587222 
-0.440122 1.444185 2.067052 0.504778 -0.743682 0.415434 
-0.232605 -0.487361 0.262065 -0.305174 -0.321533 0.894519 
0.207568 0.765597 -0.035560 0.564770 0.458835 -0.642085 
-0.884734 0.202262 0.557549 0.282316 -0.466545 0.755207 
1.638324 0.866444 2.113250 -0.387229 -0.427815 0.810705 
1.414243 0.429882 1.275512 0.441911 0.771276 0.023606 
0.152825 0.668091 0.498488 0.182210 0.230529 0.930618 
-1.264341 0.709633 1.418299 0.084231 -0.701107 0.368732 
-1.269040 1.357845 2.892918 0.311574 -0.726571 0.603088 
0.506863 -0.206716 0.200458 -0.057090 -0.312904 0.930119 
0.481434 0.502799 0.160134 0.657908 0.426872 -0.481555 
1.696327 0.679913 2.009556 0.465917 0.481497 -0.729634 
-0.511472 1.231042 1.736963 0.437558 -0.821696 0.305575 
0.873054 0.757473 1.275946 0.563223 0.734486 -0.336428 
0.630717 1.686462 2.231780 -0.517608 -0.403121 0.736252 
-1.125932 0.949369 2.052139 -0.250380 0.957497 -0.063917 
-0.002670 -1.068440 -0.063702 -0.663393 -0.431298 0.572219 
0.068546 0.219199 -0.158417 0.462589 0.031114 -0.882702 
-1.022287 -0.560475 0.415534 -0.252584 0.492520 -0.789406 
0.974820 1.412616 2.158826 0.343443 0.681494 -0.643855 
1.420011 -0.012578 0.863397 -0.232483 -0.685915 0.572386 
-0.196205 0.982957 0.484934 -0.542759 -0.136376 0.770005 
-0.234031 -1.138659 -0.046967 0.489180 -0.390901 0.655197 
-1.016631 1.326715 2.761741 0.367360 -0.759521 0.532125 
-0.065138 0.106161 0.520874 -0.160661 -0.265180 0.943520 
0.390600 0.479342 0.024520 0.575684 0.129919 -0.728781 
0.712722 0.956633 1.580179 -0.337602 -0.776255 0.481862 
-0.927867 -0.214211 0.513866 -0.476962 0.314530 -0.764896 
-0.548193 0.657102 0.469858 -0.186085 0.839927 -0.363087 
1.089727 -0.260429 0.606294 -0.228798 -0.540330 0.698603 
0.460250 0.171437 0.055847 0.666396 0.065415 -0.728390 
0.213158 1.149996 1.434852 -0.462908 -0.784014 0.377361 
0.746348 0.812132 1.203071 0.581458 0.753574 -0.258597 
0.820350 1.643512 2.297693 -0.301223 -0.662929 0.682217 
-1.550651 0.897483 2.121520 0.085381 -0.995366 0.023396 
0.154928 -0.696462 -0.009740 -0.005933 -0.049354 -0.995682 
-0.657434 0.506399 0.342815 -0.603628 0.390671 -0.629212 
0.026886 -0.206440 -0.152712 0.341503 -0.171336 -0.905567 
