-1.228976 0.285662 -0.289959 -0.658375 -0.143910 0.734630 
1.385171 1.136238 -0.125802 0.303044 -0.224838 0.896576 
-1.363004 2.736050 -1.330276 -0.676153 0.318649 0.610887 
1.179144 0.379241 -0.168362 -0.457529 0.194213 -0.862029 
-0.784393 0.008408 -0.035041 -0.637570 -0.171333 0.745847 
-0.338762 -0.810363 0.182628 -0.421956 -0.066125 0.886554 
0.497246 -0.284270 0.081246 0.596063 -0.137466 0.788762 
1.479639 1.968321 0.077929 0.350509 -0.153901 0.884135 
-0.450896 -0.144748 0.024683 -0.235871 0.052455 -0.889904 
1.428208 1.486565 -0.052295 0.010090 0.383784 -0.908254 
0.042284 0.568468 0.553633 0.077868 -0.259840 0.960516 
-0.217572 -0.001652 -0.097722 -0.654083 -0.054878 -0.732413 
-1.645903 0.949139 -0.683526 0.782983 -0.291742 -0.526536 
0.442866 -0.194840 0.030923 0.285776 0.030289 -0.895549 
-1.407654 1.459406 -0.759286 0.825685 -0.150945 -0.527589 
-0.696208 0.305953 -0.004889 0.085841 0.174807 -0.854176 
-1.532331 2.123180 -1.383042 0.809345 -0.130867 -0.565693 
-0.278441 0.855196 0.167910 -0.767610 0.399677 -0.437850 
-1.156096 2.355395 -0.943489 0.838074 -0.250278 -0.478096 
0.127828 0.663324 -0.086863 0.498793 0.350889 -0.766180 
0.505313 -0.457082 0.035049 0.052926 -0.022436 -0.920919 
-0.324197 -0.958754 0.104941 0.133501 -0.189014 -0.961778 
0.092962 -0.016492 -0.180193 0.535887 -0.058941 -0.827134 
-1.056039 0.724362 -0.079469 -0.786238 -0.078358 0.578058 
-1.012491 -0.104757 -0.228902 0.482630 0.107650 -0.832706 
0.572677 0.696256 0.332642 -0.412642 0.456769 -0.643753 
-1.450883 0.985228 -0.478959 0.754841 -0.181786 -0.605709 
-1.489809 0.923617 -0.494548 -0.780133 0.150934 0.582911 
0.250197 0.929101 0.173859 0.754228 0.366568 -0.478648 
0.166072 0.779915 0.006347 0.523785 0.477721 -0.676667 
0.496539 -0.002208 0.037206 0.240781 0.090376 -0.891991 
-1.693566 1.735736 -1.444987 -0.805469 0.286736 0.511959 
-1.817740 1.072881 -1.165190 0.798253 -0.405011 -0.444347 
-0.998844 2.073615 -0.325035 0.841406 -0.232106 -0.474780 
-1.147151 2.167620 -0.693111 -0.845963 0.322672 0.364709 
1.818254 1.870920 -0.087575 -0.222342 0.063557 -0.964295 
-0.291832 0.309503 -0.067433 -0.762237 0.045052 -0.638928 
0.151627 1.238137 0.394930 0.500142 0.811347 0.140025 
0.460706 -0.837440 0.090189 0.473721 0.017559 0.873596 
-0.329806 -0.061607 0.315041 -0.461194 -0.244269 0.828526 
1.287036 -0.068789 -0.360570 -0.449039 0.160437 -0.843466 
1.553428 0.858365 -0.218272 -0.089224 0.201605 -0.948978 
1.563505 1.474291 -0.062690 0.377438 -0.059310 0.914665 
-0.501179 -1.052668 0.082246 0.276522 -0.183175 -0.935025 
-0.982162 0.174211 -0.123352 -0.642374 -0.180707 0.741219 
0.332942 0.134351 0.039749 0.519120 0.065774 -0.821677 
1.087738 1.869801 0.110950 -0.167888 0.126246 -0.966640 
-1.777354 0.424471 -0.713196 0.663637 0.018250 -0.732360 
-1.654248 2.174023 -1.561558 -0.777856 0.233559 0.573073 
1.338007 1.919036 0.064744 -0.085213 0.315051 -0.940235 
0.358902 0.416290 0.113138 0.560344 0.263433 -0.750073 
-0.602372 0.189445 0.210333 -0.554931 -0.325445 0.753002 
-0.215697 0.367655 -0.106068 -0.706742 0.106467 -0.674191 
1.447785 0.647811 -0.259536 0.308043 -0.265205 0.891032 
0.838329 1.695222 0.147550 -0.644951 0.105980 -0.749524 
-1.543621 1.333259 -0.813873 -0.811832 0.501538 0.292565 
-0.987906 1.710239 0.046570 0.654002 -0.126813 -0.686691 
-0.532879 -0.381605 0.045237 -0.619862 -0.093163 0.771573 
0.881365 -0.338877 -0.105888 -0.329468 0.046559 -0.902398 
-1.606833 1.615304 -1.257368 -0.816948 0.337489 0.465289 
0.713728 -0.072574 0.015479 0.585769 -0.165037 0.790365 
-1.408943 1.985402 -1.161845 0.699440 -0.535923 -0.456761 
2.279248 1.534044 -0.202675 -0.099393 0.002054 -0.984430 
-0.887254 0.303272 -0.090270 0.355166 0.171995 -0.833203 
0.771343 1.002536 0.149057 -0.772609 0.076303 -0.617948 
1.469182 1.756842 0.011388 0.389584 -0.238545 0.853660 
-1.640557 2.329187 -1.597153 0.775091 -0.178639 -0.605420 
0.639405 -1.006484 0.036474 -0.286388 -0.216955 -0.931056 
-0.952017 1.881677 0.018158 0.809187 -0.195574 -0.548621 
-1.283893 1.992858 -0.930931 -0.873605 0.181343 0.428495 
1.036527 0.207537 -0.131014 -0.387584 0.161528 -0.860030 
1.288077 0.477696 -0.213353 -0.379770 0.222769 -0.880801 
-1.503720 1.638808 -1.087097 -0.817884 0.372572 0.415417 
-1.285903 1.391781 -0.251428 -0.875987 0.080172 0.437666 
-1.553969 2.402202 -1.506749 -0.778602 0.193432 0.589259 
-0.347046 0.434303 0.108155 -0.601934 0.239883 -0.729169 
-1.615008 1.461600 -1.127314 -0.750543 0.514266 0.289327 
2.556258 1.369849 -0.226118 0.026493 -0.176709 0.981162 
0.254622 -0.600181 0.243919 0.452446 -0.182661 0.854850 
-1.297378 2.637465 -1.236586 -0.842010 0.031075 0.530620 
-1.022816 1.151642 -0.034991 0.559951 -0.029413 -0.791325 
-0.578653 -0.302151 0.025600 -0.629886 -0.108058 0.763456 
1.251509 1.884508 0.076899 -0.101082 0.243701 -0.958598 
-1.587970 2.625555 -1.590716 -0.776398 0.129346 0.615307 
0.197813 1.161125 0.324225 0.849018 0.500396 -0.094374 
1.136631 1.673805 0.111157 0.587660 -0.132629 0.759524 
2.019647 2.327386 0.004925 -0.132122 0.515105 -0.822077 
-0.069238 0.707376 -0.078317 -0.387319 0.443159 -0.780402 
1.586162 1.201075 -0.141690 -0.017130 -0.417519 0.886647 
-0.043380 -0.420342 0.345887 -0.062607 -0.213089 0.974321 
-1.536146 1.758861 -1.237097 0.757205 -0.426792 -0.474499 
2.325566 2.114131 -0.067447 0.025961 -0.282851 0.953427 
1.075467 1.123268 0.010708 -0.225494 0.117336 -0.961795 
1.822244 0.704186 -0.214253 -0.263567 -0.308776 0.900186 
-1.211916 1.526198 -0.429714 0.822438 -0.202241 -0.498435 
-1.184431 0.381824 -0.258230 -0.679213 -0.102693 0.706007 
-1.910055 0.806591 -1.063758 -0.805870 0.330932 0.482588 
-1.133631 1.590629 -0.255740 0.746472 -0.237192 -0.514537 
-0.117777 -0.133336 -0.146141 -0.537263 -0.111739 -0.817070 
2.813807 1.853882 -0.100391 -0.063175 -0.247937 0.966298 
-1.157702 1.151240 -0.166510 0.623942 -0.091780 -0.730625 
-1.278558 1.922807 -0.896789 0.763395 -0.491896 -0.401358 
-0.971776 0.336957 -0.055389 -0.676174 -0.203164 0.700075 
-1.188343 2.152345 -0.843396 -0.834995 0.350845 0.396031 
0.729660 -0.595316 -0.045522 -0.257959 -0.019832 -0.928929 
0.599136 0.415008 0.347985 0.464099 -0.229217 0.821288 
0.995330 -0.447883 -0.207875 0.502825 -0.089327 0.839423 
-0.284024 0.005146 0.336176 -0.364799 -0.250073 0.870962 
0.393499 -0.520368 0.129022 0.567373 -0.098624 0.811699 
1.645680 1.159140 -0.175361 -0.291419 -0.016892 -0.947864 
1.903682 2.006563 -0.068449 -0.142916 0.300753 -0.937606 
1.262644 1.028965 -0.064125 0.421352 -0.164382 0.831682 
0.606635 -0.380353 0.009191 -0.062664 0.002760 -0.915161 
0.405518 0.506999 0.431881 0.341998 -0.067667 0.885980 
2.856998 2.319893 0.042934 0.098464 0.304537 -0.946235 
-1.695762 1.158266 -0.995717 -0.807302 0.204204 0.524131 
0.267935 0.842142 0.452081 0.736917 0.197006 0.577968 
1.825071 2.188819 0.010002 0.201754 -0.194927 0.950383 
-1.065499 2.210012 -0.677159 0.866645 -0.285846 -0.404042 
1.022887 1.237336 0.089768 0.620148 -0.163090 0.712528 
-0.868093 0.689504 0.136695 -0.773914 -0.160772 0.596901 
1.929870 2.201199 -0.024829 -0.136260 0.260138 -0.953249 
-0.208079 0.089054 -0.113306 -0.666703 -0.023505 -0.722546 
-0.744503 1.061911 0.252943 -0.541629 -0.072705 0.812749 
2.426428 1.531030 -0.193441 0.013450 -0.261197 0.956577 
0.576157 0.163558 0.240548 0.526392 -0.309817 0.782407 
-0.308705 -0.481604 0.044196 -0.353775 -0.076570 -0.893077 
-0.058183 0.854478 -0.009867 -0.447955 0.433466 -0.771841 
-0.777862 -0.627317 -0.136756 0.317186 -0.001468 -0.899042 
-1.211656 -0.113544 -0.402138 -0.606380 -0.187459 0.754342 
1.600344 1.783527 -0.023298 0.330099 -0.230563 0.890039 
1.333309 1.623985 0.032342 0.473855 -0.178360 0.821173 
1.095309 1.555110 0.083382 0.509012 -0.291214 0.742980 
-0.793040 0.643805 0.069415 0.541812 0.288709 -0.743684 
2.250849 1.617098 -0.185841 -0.112393 -0.042120 -0.983413 
2.421123 2.000377 -0.089794 0.023099 0.279724 -0.955291 
0.913982 -0.566151 -0.165782 -0.305896 -0.008782 -0.903781 
-1.136243 1.798181 -0.358192 -0.921053 0.261888 0.183670 
-0.875852 0.599957 0.099097 -0.783055 -0.181640 0.588865 
-1.208660 1.870858 -0.658935 -0.890721 0.309066 0.311803 
0.352314 -0.592186 0.174722 0.550792 -0.105538 0.821876 
-0.588406 0.412358 0.350971 -0.476680 -0.236521 0.809617 
0.847811 0.922320 0.198668 0.593075 -0.081001 0.786335 
-0.622892 0.436722 0.079487 0.069992 0.270898 -0.856256 
-1.135803 2.566919 -1.022320 0.860281 -0.056872 -0.485065 
-1.506537 0.994357 -0.524643 0.770572 -0.198692 -0.591996 
-1.175260 1.513518 -0.230089 0.676349 -0.365818 -0.516502 
1.962463 1.710886 -0.141569 -0.184136 0.015418 -0.972347 
1.324056 0.167640 -0.336293 -0.496457 0.203264 -0.831967 
0.247584 0.147585 0.377093 0.232778 -0.279285 0.925123 
-0.134812 0.247191 0.445742 -0.129959 -0.288871 0.945797 
-1.261932 1.484972 -0.349648 -0.885044 0.031546 0.445802 
0.353059 0.283367 0.062241 0.502371 0.138680 -0.831703 
-0.367440 0.740422 0.303356 -0.911855 0.363245 -0.042093 
-0.135723 0.422547 0.510189 -0.132349 -0.297730 0.943965 
0.444796 -1.059525 0.112116 0.524682 0.152991 0.807310 
-0.073773 -0.265143 -0.138885 -0.453857 -0.231210 -0.834092 
2.254280 1.206197 -0.247995 -0.024071 0.171026 -0.981854 
-0.968436 1.883939 0.122533 -0.859260 0.417386 0.294742 
1.439171 1.071281 -0.172661 -0.196027 0.157583 -0.963484 
1.250786 0.852961 -0.113458 -0.280692 0.164462 -0.937020 
-0.968583 1.520007 0.152045 -0.931594 -0.068738 0.344728 
-0.973400 -0.375279 -0.242621 -0.568883 -0.105355 0.791341 
-1.243923 0.155832 -0.357901 -0.642960 -0.209982 0.732656 
-1.197493 1.607497 -0.378698 0.780278 -0.154308 -0.555299 
0.691854 0.269800 0.001280 0.036283 0.176048 -0.879378 
0.344353 0.735341 0.435987 0.742468 0.358899 0.481204 
-0.670059 -0.871259 -0.029384 0.279710 -0.182093 -0.917791 
-1.334464 1.532243 -0.678441 0.848324 -0.110091 -0.498327 
-0.628209 -0.646959 -0.003521 0.287554 -0.046540 -0.923068 
1.021150 -0.053685 -0.125888 0.536418 -0.137317 0.820173 
0.620115 0.241115 0.024236 0.118161 0.166660 -0.883955 
2.528864 2.307671 -0.001176 0.050791 0.272372 -0.959149 
-1.707265 1.320311 -1.182405 0.796920 -0.307327 -0.507793 
1.220732 0.141223 -0.261918 -0.473306 0.180749 -0.845753 
-0.141032 1.122213 0.145006 -0.508921 0.394333 -0.761903 
-0.325588 -0.553583 0.057033 -0.273803 -0.078653 -0.909359 
-1.468505 1.289775 -0.658969 -0.825617 0.098191 0.548681 
-0.405356 -0.711425 0.077867 -0.021007 -0.076227 -0.946383 
1.267897 0.631023 -0.164286 -0.355286 0.184209 -0.903393 
0.935580 0.202070 -0.023391 0.564958 -0.218555 0.790926 
-1.217387 2.663094 -1.142913 -0.592615 0.496263 0.601991 
-1.084961 0.501201 -0.141333 -0.723385 -0.115591 0.653286 
1.082684 0.545810 -0.087710 -0.417986 0.167175 -0.884741 
-0.096048 -0.625301 0.280498 -0.223335 -0.233837 0.943568 
2.077494 1.590494 -0.168406 0.106212 -0.240480 0.952701 
0.736507 0.101837 -0.038474 -0.032336 0.124287 -0.876674 
-1.093571 1.841879 -0.320937 0.708809 -0.414918 -0.515192 
-1.451016 1.719358 -1.074112 0.805241 -0.374250 -0.446850 
-1.454919 2.027591 -1.231781 -0.841105 0.096802 0.525057 
-1.594834 0.243002 -0.626613 0.622738 0.157422 -0.759574 
-1.458061 1.958224 -1.208180 -0.841666 0.119948 0.513708 
0.429268 0.385150 0.411860 0.284688 -0.250742 0.915671 
-1.614116 0.557132 -0.581555 -0.702065 -0.007896 0.688879 
0.684348 -0.269738 0.012151 0.556615 -0.108878 0.814416 
-1.310141 1.691159 -0.776025 0.858118 -0.293601 -0.401629 
-1.172637 -0.354702 -0.402199 0.468892 0.068350 -0.816700 
0.968567 0.823958 0.022425 -0.340957 0.130531 -0.924112 
-1.033969 1.324472 -0.012912 0.580469 -0.090601 -0.778369 
0.807462 0.363420 0.139388 0.563043 -0.278461 0.765787 
-0.258586 -0.281457 -0.030301 -0.595605 -0.141521 -0.776891 
-1.378266 -0.111172 -0.566823 0.542275 0.212279 -0.777039 
0.378881 0.700552 0.367483 0.920918 0.326119 0.154250 
0.333290 0.396699 0.040525 0.598271 0.172581 -0.752430 
-0.036654 -0.230440 0.358152 -0.109894 -0.066487 0.986583 
0.908761 1.678489 0.133889 -0.096741 0.037870 -0.991791 
1.465105 0.744197 -0.245205 0.279225 -0.249456 0.909740 
-0.193518 -0.353727 0.321616 -0.354540 -0.074635 0.899608 
2.165433 1.934775 -0.115913 -0.002299 0.353584 -0.929175 
-1.580936 2.322457 -1.513089 -0.771026 0.224421 0.581710 
-1.148167 0.279194 -0.229567 -0.659456 -0.149907 0.730805 
-1.294783 1.244739 -0.244768 -0.858421 0.097392 0.465633 
-0.430512 -1.333774 0.166440 -0.209126 -0.240644 0.755249 
1.751922 0.382450 -0.314169 -0.179133 -0.321934 0.883565 
-1.279994 1.693265 -0.694395 0.871367 -0.283642 -0.376771 
-0.345879 0.773959 0.239477 -0.901892 0.360901 -0.230876 
-0.063115 -0.569425 -0.004008 -0.150356 -0.397446 -0.897453 
2.174955 0.990130 -0.244401 0.231143 0.012452 0.937021 
-0.454842 -0.236490 0.127553 -0.622208 -0.171023 0.753830 
-0.334333 0.497618 0.075975 -0.678216 0.234882 -0.669489 
0.291291 0.387227 0.460688 0.193954 -0.267201 0.940701 
-0.956419 1.967312 -0.081698 0.822266 -0.198658 -0.524702 
0.441770 0.203627 0.085941 0.324927 0.153807 -0.895308 
0.181644 1.096007 0.171998 0.638398 0.389039 -0.618257 
-0.087701 1.252773 0.207395 -0.649604 0.422930 -0.583034 
-1.523767 1.566863 -1.056224 -0.787020 0.447470 0.342831 
-0.093423 -0.177500 0.360661 -0.160011 -0.104448 0.975659 
-0.834350 1.928616 0.336885 0.657505 -0.475698 0.316990 
1.749788 0.687506 -0.218515 0.093293 0.145282 -0.922665 
0.002623 -1.153473 0.217990 0.422832 -0.389717 -0.781879 
-1.305505 -0.247573 -0.489706 0.522583 0.096640 -0.788420 
0.432532 -0.079923 0.050545 0.308882 0.065842 -0.896116 
0.122509 -0.951161 0.135936 -0.083746 -0.382315 -0.916961 
1.966297 0.475220 -0.246587 -0.200208 -0.198799 0.922440 
-1.210807 2.593932 -1.124393 -0.862817 0.009518 0.502062 
-0.392542 -0.457142 0.115092 -0.624110 -0.106754 0.770146 
1.599512 2.001309 0.057223 0.298012 -0.176674 0.895626 
-1.065123 2.124132 -0.579714 0.860605 -0.261108 -0.425726 
0.562645 -1.010949 0.063943 0.450296 0.195448 0.840797 
-0.272041 -0.210654 -0.008099 -0.570825 -0.099061 -0.794061 
-1.624694 1.971352 -1.444471 -0.813372 0.184226 0.541562 
-1.546915 0.876075 -0.536410 -0.768791 0.131907 0.599469 
0.403316 0.630923 0.293093 0.525952 0.476004 -0.442301 
-0.613904 0.306838 0.031759 -0.030377 0.175949 -0.863171 
2.199152 1.688565 -0.162824 0.021792 -0.344716 0.930080 
-1.370080 1.624153 -0.800074 -0.817769 0.447369 0.315779 
1.129126 1.509624 0.022515 -0.153320 0.055511 -0.976738 
-1.144109 2.057906 -0.637268 -0.844983 0.392899 0.319595 
-0.305558 0.550704 -0.028074 -0.717530 0.169337 -0.667160 
-0.082974 0.710640 0.532364 -0.091100 0.012560 0.990690 
1.958310 1.487017 -0.172541 0.201223 -0.125683 0.960771 
-0.316940 -0.404234 0.063400 -0.359099 -0.015477 -0.919434 
-0.583129 -0.871069 0.003359 -0.494185 0.040612 0.857991 
-1.529812 0.200855 -0.595362 0.615260 0.183841 -0.759991 
0.466955 -1.338882 0.161419 0.901216 0.239725 0.203471 
0.213280 0.295495 -0.132459 0.690532 0.050926 -0.708825 
1.962035 0.903186 -0.227323 -0.189811 -0.029140 -0.967049 
-1.621189 2.272150 -1.550627 -0.776057 0.216451 0.582330 
0.008294 0.729262 -0.083356 0.299158 0.511576 -0.798196 
0.089646 -0.038474 0.373076 0.138701 -0.167335 0.970524 
-0.975958 1.854905 -0.063393 0.828101 -0.317706 -0.455333 
1.165302 -0.023836 -0.255873 -0.434877 0.145562 -0.857509 
0.666058 0.468568 0.309128 0.514584 -0.175940 0.797484 
-0.047077 0.947119 0.577158 -0.194451 -0.008806 0.973005 
0.511972 -0.092495 0.164477 0.563818 -0.217009 0.785551 
-0.997459 1.360420 0.091032 -0.908410 -0.052510 0.390173 
0.697903 0.522999 0.090767 -0.162328 0.280981 -0.864709 
-1.406978 0.219344 -0.471355 -0.649003 -0.185874 0.732933 
-0.274421 -1.102384 0.158070 0.320554 -0.272815 -0.894798 
-1.286157 1.484571 -0.567878 0.859949 -0.160671 -0.467253 
1.260977 1.578022 0.001059 -0.002119 0.369125 -0.923156 
-1.911602 0.866293 -1.126627 0.794177 -0.369923 -0.471915 
-1.235916 -0.200944 -0.457611 0.496501 0.165125 -0.804154 
-0.001694 0.453333 0.518366 -0.019447 -0.303652 0.951372 
0.993218 0.680512 0.026658 0.685629 -0.127912 0.700848 
-0.718719 0.166579 -0.055438 0.086941 0.136825 -0.846049 
-1.052053 -0.168364 -0.261362 -0.597490 -0.138334 0.770536 
-0.831862 0.932152 0.189525 -0.461217 -0.080043 0.873176 
1.878771 1.267975 -0.198516 -0.021508 0.236089 -0.964673 
1.376549 1.681492 0.025800 0.432418 -0.214961 0.837345 
-0.290406 -0.611106 0.023449 -0.208105 -0.214890 -0.874278 
-1.319880 0.750451 -0.380504 0.692190 -0.070345 -0.673661 
1.204330 1.522730 0.045727 0.354653 -0.368105 0.763229 
1.008962 1.306286 0.102862 0.628019 -0.178150 0.707129 
2.278582 0.628021 -0.277846 0.138987 -0.051789 0.985926 
2.787965 2.287646 0.024164 0.087425 0.293796 -0.950318 
1.049671 1.635273 0.120976 0.532710 -0.313231 0.714536 
0.877254 1.872076 0.163868 -0.300097 0.155880 -0.916733 
0.722753 1.999575 0.279383 -0.653309 -0.453818 0.556474 
-0.642403 -0.930462 0.003576 -0.397346 0.199111 0.884301 
-1.199018 1.682057 -0.455471 0.820129 -0.251457 -0.451168 
-0.044024 0.095542 0.392788 -0.088506 -0.221657 0.968866 
-0.790766 0.857707 0.100891 0.697424 0.169077 -0.661206 
1.529918 2.003498 0.022879 -0.126035 0.268413 -0.949961 
-0.845546 -0.432064 -0.133471 -0.560028 -0.065375 0.805231 
-1.256045 1.569510 -0.359265 -0.884486 0.266225 0.343477 
1.288865 1.706133 0.057722 0.477964 -0.238012 0.802258 
0.355984 0.666116 0.123235 0.847356 0.280327 -0.376835 
0.233121 1.094967 0.336933 0.888210 0.425424 -0.034208 
-1.013236 0.819078 -0.076911 0.541889 0.063026 -0.809504 
0.685305 1.038223 0.279242 -0.724655 0.101803 -0.680766 
1.770037 1.161710 -0.148724 0.265356 -0.068811 0.945355 
0.324062 -0.738764 0.055185 0.082006 -0.202385 -0.914840 
-1.787114 1.183642 -1.203332 0.797597 -0.340879 -0.483880 
-0.524311 0.626772 0.372712 0.153591 0.743518 -0.556780 
1.252574 0.387318 -0.190849 0.492782 -0.231471 0.819796 
-0.244008 -0.369442 -0.042917 -0.593058 -0.180528 -0.781228 
-1.842639 0.674892 -0.826240 0.777310 -0.249444 -0.565667 
0.309041 0.718085 0.030984 0.689888 0.480102 -0.518381 
0.260642 -0.870450 0.097066 -0.109603 -0.235386 -0.939603 
1.692784 0.474408 -0.330830 -0.040853 -0.327534 0.892640 
1.708409 0.401980 -0.367229 0.052524 0.355565 -0.887584 
2.097497 1.909967 -0.112794 -0.030245 0.372311 -0.920765 
-0.903313 -0.004382 -0.108744 -0.633643 -0.135188 0.755336 
-1.332738 1.780352 -0.882950 -0.850392 0.335541 0.398517 
-0.095666 0.589704 -0.107821 -0.495465 0.286042 -0.784234 
-0.892541 1.158053 0.192778 -0.532799 -0.091801 0.818033 
-0.392292 -0.403533 0.044207 -0.228463 -0.012020 -0.914562 
0.565632 0.306764 0.066348 0.149273 0.174050 -0.893078 
-1.171111 1.048189 -0.151931 -0.848985 0.037794 0.497110 
-0.047043 0.304832 0.468002 -0.042037 -0.324036 0.941702 
-1.541548 1.256325 -0.786800 -0.805497 0.095243 0.582256 
0.271851 0.661013 0.518711 0.399646 0.292875 0.837409 
2.188678 1.231615 -0.232236 0.215446 -0.020051 0.935781 
-0.191452 1.238815 0.519083 -0.856771 -0.447640 -0.210965 
-0.193215 0.158202 0.397563 -0.194151 -0.267860 0.939004 
-1.200135 1.919960 -0.713439 0.791758 -0.475854 -0.360335 
2.159066 0.570598 -0.265760 0.004505 -0.116651 0.963315 
0.028689 0.222410 -0.251525 0.540281 0.043262 -0.835529 
-1.073939 -0.522120 -0.304171 -0.456802 0.052853 0.821857 
0.647909 0.462260 0.087109 -0.086282 0.244513 -0.884534 
-1.523335 2.332940 -1.441869 0.792278 -0.133868 -0.591119 
1.480261 0.820366 -0.245809 -0.222098 0.223766 -0.939321 
2.243296 2.367325 -0.014192 -0.018040 0.522117 -0.849814 
-1.064790 1.612203 -0.033082 0.625179 -0.255959 -0.677460 
-0.438802 -1.085281 0.112956 0.262466 -0.152726 -0.945565 
1.298269 0.984218 -0.112259 -0.226346 0.160177 -0.958632 
-1.058510 2.396729 -0.784398 0.871388 -0.243362 -0.418477 
0.618385 0.131964 0.191680 0.537346 -0.283280 0.784084 
0.387861 -1.110315 0.132103 0.234989 -0.006272 -0.867589 
-1.120556 0.954734 -0.164273 0.593549 -0.016581 -0.755965 
0.971169 1.661727 0.103248 -0.099139 0.042474 -0.990472 
0.815465 0.221083 0.080579 0.546400 -0.263014 0.787482 
1.562120 0.671587 -0.341474 -0.190671 0.310328 -0.919937 
0.097575 1.233710 0.444784 0.041693 0.854320 0.485108 
-1.322667 1.841572 -0.931939 0.787795 -0.435451 -0.415087 
0.255565 0.434793 -0.076123 0.702072 0.117866 -0.692017 
0.193568 0.210122 0.420005 0.181947 -0.282640 0.937900 
-0.793472 -0.849021 -0.081643 0.339232 -0.255361 -0.887443 
2.038251 0.487811 -0.255124 -0.130664 -0.164412 0.937062 
-1.124090 0.840908 -0.134167 -0.807075 -0.020767 0.552408 
0.203456 0.365590 -0.116299 0.672938 0.119445 -0.706081 
-0.314951 0.157988 0.359814 -0.307137 -0.299106 0.896646 
-1.585597 2.237399 -1.489687 -0.768355 0.256488 0.568163 
1.494734 0.072792 -0.484841 0.567848 -0.231136 0.782602 
-0.287557 -0.510687 0.251199 -0.591864 -0.150934 0.788175 
0.378018 -1.030567 0.146417 0.320086 0.037796 0.922953 
-1.020684 1.860011 -0.141416 0.659699 -0.425370 -0.583679 
2.112263 1.977257 -0.095770 0.114735 -0.129326 0.974375 
-1.448894 -0.022273 -0.611445 0.575139 0.241054 -0.761175 
-0.895138 1.532696 0.128157 0.656839 0.171407 -0.721666 
-0.293681 0.479303 -0.040541 -0.730807 0.103455 -0.669906 
0.954757 -0.018935 -0.091140 -0.397827 0.108677 -0.883902 
1.366578 1.845675 0.060675 0.448805 -0.292027 0.798697 
0.645441 -0.152433 0.029756 0.591342 -0.150612 0.790104 
0.779290 1.083390 0.143961 -0.755819 0.064866 -0.612579 
0.457589 -0.689036 0.088577 0.512905 -0.025099 0.847715 
2.166018 1.619610 -0.179645 -0.129451 -0.001970 -0.979968 
-0.349631 -0.649056 0.076560 -0.162307 -0.077104 -0.934198 
-0.763224 1.130676 0.245449 -0.468006 -0.062428 0.830687 
1.292892 1.188033 -0.095233 -0.169291 0.138122 -0.971143 
-1.468182 2.192182 -1.312969 -0.745796 0.359659 0.533361 
0.526565 -0.665891 0.067133 0.499260 -0.020916 0.855422 
-0.791529 0.709069 0.125085 0.829691 0.353047 -0.389089 
-1.370488 0.847668 -0.391018 -0.773333 0.093794 0.590685 
-0.870910 0.591469 0.022163 0.461367 0.189684 -0.864194 
0.840475 0.776882 0.179909 0.489693 0.004935 0.840502 
-0.877254 0.795774 0.118063 -0.831177 -0.142206 0.527784 
0.071050 -1.183827 0.244573 0.040383 -0.449789 -0.878756 
1.329570 1.783867 0.045929 -0.097352 0.022993 -0.970973 
-1.280563 2.461325 -1.175996 -0.835971 0.127081 0.518838 
0.449915 -0.912606 0.106292 0.453870 0.029692 0.886371 
0.165272 0.210759 -0.157775 0.638862 0.023893 -0.751662 
0.531405 0.192094 0.289892 0.515662 -0.335775 0.780722 
0.102152 -0.150205 -0.150029 0.506248 -0.139996 -0.827666 
1.381207 0.214141 -0.353779 0.574444 -0.227649 0.783984 
0.849468 0.354581 -0.026903 -0.201318 0.184314 -0.877980 
0.307000 0.156981 -0.022197 0.630640 0.028191 -0.744083 
1.831432 1.384413 -0.176437 -0.072194 0.244489 -0.956392 
-0.961322 0.938288 0.049930 -0.856147 -0.073397 0.494956 
0.370776 -1.276459 0.183577 -0.096227 0.010601 0.961797 
-0.137951 1.241966 0.291295 -0.715613 0.628306 -0.056182 
-0.227034 1.068908 0.560065 -0.577640 0.642543 -0.442523 
0.645108 0.536046 0.339740 0.282021 0.036460 0.947858 
-0.106035 0.163572 -0.191635 -0.600071 0.014453 -0.783286 
1.860262 0.774697 -0.214933 -0.207761 -0.300942 0.909675 
1.092777 0.409683 -0.117815 -0.461914 0.180680 -0.864757 
-1.239805 1.461244 -0.216905 -0.889069 0.049450 0.419661 
0.639037 -0.446153 0.029023 0.523977 -0.065814 0.836895 
0.809057 0.549351 0.063736 -0.331130 0.229685 -0.892759 
0.814755 1.371583 0.142102 -0.624124 0.090872 -0.753393 
2.273818 0.962065 -0.261764 -0.063050 0.117554 -0.986352 
2.319479 0.814867 -0.273739 -0.093145 0.076301 -0.990810 
-0.998145 -0.434305 -0.293916 0.400509 0.077707 -0.854111 
-0.362991 0.754382 0.374841 -0.891290 0.378963 0.225681 
0.111076 0.052541 -0.178147 0.566214 -0.026459 -0.809591 
-0.930551 0.234273 -0.141523 0.372596 0.153531 -0.819401 
1.415128 0.074869 -0.427888 -0.496857 0.205335 -0.823171 
-0.967055 1.311104 0.049746 0.547529 -0.055264 -0.809104 
-1.209298 1.204135 -0.162361 -0.863667 0.055124 0.462916 
-0.792367 0.218398 0.061391 -0.590101 -0.270877 0.747425 
2.364212 1.950179 -0.101921 0.041276 -0.129364 0.977928 
0.968122 -0.642601 -0.159690 -0.341117 -0.115506 -0.894898 
1.418606 0.898325 -0.174753 0.293345 -0.198115 0.913876 
-1.597772 2.452352 -1.578098 -0.778809 0.160989 0.605944 
-1.061661 2.279181 -0.635977 -0.864578 0.330587 0.349485 
-1.295083 1.425452 -0.483809 0.738119 -0.547224 -0.269418 
0.767992 0.546439 0.247533 0.595387 -0.101565 0.757823 
-1.266836 1.296420 -0.205392 -0.868161 0.082842 0.448055 
-1.520013 2.601741 -1.504119 -0.792454 0.110725 0.593621 
-0.162281 -0.206645 0.348337 -0.244815 -0.115039 0.944278 
2.225979 1.046160 -0.248414 0.196053 -0.021525 0.947937 
-0.366665 -0.395760 0.161066 -0.647798 -0.129805 0.749973 
-0.843823 -0.667898 -0.167584 0.342025 -0.063599 -0.884148 
0.220568 -0.193999 -0.078479 0.596399 -0.126525 -0.778265 
-0.005284 -0.611632 0.010254 -0.624993 -0.332482 -0.668966 
-1.445185 1.065804 -0.462940 0.752876 -0.197286 -0.605140 
2.429805 1.609348 -0.174299 -0.002005 -0.293902 0.948043 
0.083285 -0.937371 0.227345 0.230729 -0.003579 0.961030 
-1.362018 1.130026 -0.369653 0.719056 -0.179569 -0.639628 
-1.278923 0.115341 -0.422156 0.580178 0.202368 -0.779140 
0.558514 0.093658 0.219877 0.536593 -0.284518 0.783262 
-1.368469 2.313342 -1.237605 0.805288 -0.183598 -0.556412 
0.815438 -0.520886 -0.095488 -0.286228 0.006899 -0.915967 
-0.128836 -0.837339 0.231831 -0.180497 -0.101023 0.967473 
-1.247270 0.051661 -0.390497 -0.628963 -0.205878 0.739824 
-1.094376 1.797938 -0.230728 -0.938822 0.225255 0.126809 
-0.544208 0.233777 0.031126 -0.169279 0.157516 -0.862466 
0.374884 -0.294840 0.042699 0.356449 -0.001181 -0.899944 
1.664042 0.637160 -0.233136 0.104646 0.233753 -0.922091 
-0.601939 -0.106854 -0.038019 -0.030425 0.061460 -0.871370 
2.037448 1.202744 -0.213076 0.325804 0.079716 0.895543 
1.145255 -0.158208 -0.256052 0.533323 -0.146663 0.816442 
0.502129 0.465333 0.154136 0.263785 0.329386 -0.794171 
0.159513 -0.017688 0.367653 0.199604 -0.196989 0.948004 
0.705388 0.572258 0.267742 0.256465 0.087176 0.941938 
-0.455010 -0.654921 0.081210 -0.567803 -0.027015 0.811085 
-0.231277 -0.819077 0.082665 0.085644 -0.252366 -0.938622 
0.375466 0.638643 0.186256 0.844514 0.300004 -0.353445 
-1.168489 1.882416 -0.581001 0.772120 -0.446030 -0.406705 
0.938474 0.145290 -0.107385 -0.268148 0.139520 -0.864198 
1.407706 1.957293 0.095191 0.379007 -0.146757 0.875018 
-0.592985 0.136528 -0.003052 -0.084333 0.129748 -0.861410 
1.533454 0.725735 -0.299824 0.233142 -0.289318 0.916141 
-1.343308 0.216350 -0.435171 0.599128 0.170786 -0.777750 
-1.580263 1.736316 -1.288152 -0.824558 0.240035 0.494640 
-1.170082 0.232162 -0.285651 0.584200 0.157735 -0.794417 
-1.703275 0.550297 -0.647968 -0.698036 -0.007517 0.696814 
2.229300 1.291705 -0.237404 -0.058723 0.163877 -0.981338 
-0.496699 -0.743969 0.058612 0.157388 -0.079063 -0.944018 
-1.271855 1.755581 -0.734837 0.859485 -0.353793 -0.357920 
-0.293343 0.836884 0.426543 -0.790433 0.274288 0.475152 
0.272940 0.228045 0.403866 0.245589 -0.307628 0.912665 
-1.403927 1.072245 -0.392928 -0.824005 0.153883 0.526743 
-0.027888 0.453710 -0.200426 -0.534261 0.227118 -0.799780 
-1.127394 2.086078 -0.700437 0.887515 -0.209333 -0.400817 
-1.350929 1.900240 -0.997445 -0.851911 0.195657 0.457894 
1.448816 1.559393 -0.037585 -0.069631 0.275493 -0.926976 
-1.171274 2.400896 -0.996495 0.824050 -0.242469 -0.506262 
1.214522 1.261355 -0.019304 0.448932 -0.214860 0.812866 
1.426117 1.817144 0.023497 -0.116513 -0.017025 -0.973282 
-0.313165 0.292403 0.415413 -0.258743 -0.291512 0.913923 
0.173428 1.102661 0.511102 0.803959 0.378361 -0.301638 
-1.399971 1.577379 -0.869005 0.826749 -0.273659 -0.475526 
0.837692 -0.274956 -0.057603 -0.332625 0.048542 -0.906055 
1.255916 -0.215996 -0.369413 -0.418063 0.132329 -0.851643 
0.245598 0.190298 -0.101234 0.694036 0.007652 -0.704400 
0.888147 -0.117226 -0.052661 0.538009 -0.120426 0.822815 
-1.528484 2.472304 -1.499015 0.775670 -0.169302 -0.607224 
-0.256903 0.667127 0.520009 -0.366460 0.284512 0.855433 
-1.257130 1.848079 -0.794824 0.811830 -0.429804 -0.376948 
-0.219599 0.287422 0.444668 -0.204117 -0.310694 0.922409 
-1.077238 1.259976 -0.012358 -0.886422 -0.011507 0.428254 
-0.052144 0.360419 -0.214415 -0.569363 0.135688 -0.792243 
-1.223211 0.419406 -0.313291 0.624875 0.067084 -0.752385 
1.594248 0.161490 -0.543978 0.579566 -0.257727 0.771948 
-0.109777 0.312889 -0.191836 -0.625838 0.080721 -0.755016 
2.552831 2.240331 -0.013486 -0.031841 -0.389372 0.912740 
1.876877 2.049323 -0.006308 0.186246 -0.208304 0.929388 
1.100300 -0.115912 -0.207739 0.534809 -0.143768 0.817596 
0.299253 -0.014703 0.330295 0.378641 -0.249127 0.864885 
-0.548688 0.039027 0.004346 -0.129908 0.102902 -0.870735 
-0.199924 0.039082 0.361846 -0.250984 -0.237192 0.919175 
-0.639579 0.089122 -0.029913 -0.010918 0.115968 -0.858353 
-0.771357 0.549355 0.178726 -0.371578 0.121154 0.914371 
-1.325242 1.069186 -0.345414 0.696240 -0.142809 -0.658976 
-1.816753 0.760954 -0.831321 -0.802521 0.245124 0.540728 
-1.040932 1.808118 -0.079678 -0.961562 0.176143 0.058551 
-1.445610 2.667584 -1.428446 0.776284 -0.142496 -0.610277 
1.383163 2.036592 0.075199 -0.101257 0.268648 -0.953677 
-1.486982 1.759768 -1.157460 0.773107 -0.414196 -0.460386 
0.247236 0.728465 0.508278 0.414055 0.257257 0.856631 
-0.275949 -0.421915 0.005112 -0.481772 -0.123913 -0.842687 
-1.890860 0.730583 -0.951272 0.790382 -0.311061 -0.521242 
-1.498451 1.894382 -1.238442 -0.835862 0.156645 0.509026 
-1.379651 0.149096 -0.486287 -0.642425 -0.232381 0.726588 
0.175059 1.055500 0.451505 0.533307 0.773673 0.064463 
-0.658883 -0.342054 -0.005491 -0.602058 -0.081237 0.782565 
-1.386871 1.537852 -0.735420 -0.792962 0.525297 0.237676 
0.779285 -0.812800 -0.051880 0.364390 0.137976 0.901448 
-0.204377 -0.532993 0.288499 -0.337626 -0.201811 0.910628 
0.884241 1.388727 0.126246 -0.183325 0.065192 -0.973383 
-0.828051 0.759650 0.159708 -0.437864 0.030121 0.882824 
-1.279189 0.553544 -0.355525 0.658376 0.005361 -0.714949 
-1.295035 0.228654 -0.368543 -0.650542 -0.178502 0.735131 
1.900805 1.541039 -0.156953 0.200217 -0.148731 0.966439 
0.798329 1.494481 0.229061 -0.899161 0.079075 -0.141788 
-1.562845 1.313779 -0.921833 0.794529 -0.207782 -0.563608 
0.260315 0.528414 -0.056488 0.674891 0.179199 -0.695184 
0.274633 0.061914 0.347973 0.299343 -0.263193 0.899764 
0.915353 0.076552 -0.095530 -0.274091 0.123641 -0.871506 
-0.629940 0.539593 0.326866 -0.240012 0.002726 0.932697 
-0.279814 0.368893 0.457084 -0.201596 -0.279432 0.934704 
0.575561 -0.103800 0.108821 0.573864 -0.192929 0.787397 
1.421416 0.417902 -0.304535 0.366023 -0.310455 0.848489 
1.176106 1.852900 0.124967 0.505379 -0.292714 0.771754 
0.968177 1.725233 0.171844 0.614450 -0.272067 0.686735 
0.861373 1.767850 0.154240 -0.309999 0.058244 -0.895284 
-1.030340 1.398567 0.004750 0.585272 -0.112935 -0.776600 
1.261624 0.051405 -0.297439 0.555741 -0.189480 0.799280 
0.092197 -0.587400 0.290845 0.173268 -0.235442 0.953777 
1.241343 0.221713 -0.259877 -0.490890 0.196760 -0.840829 
2.182886 2.326123 -0.004465 0.045744 -0.386544 0.907282 
2.511211 2.073191 -0.067895 0.030247 0.245569 -0.967449 
1.290842 1.943496 0.125507 0.423894 -0.138215 0.859163 
-1.334531 0.682333 -0.397190 0.690618 -0.053945 -0.679008 
-0.211144 -0.234239 -0.079156 -0.596580 -0.131345 -0.780191 
1.688092 1.622818 -0.081774 0.274137 -0.157056 0.948009 
-0.102219 -0.765956 0.253503 -0.206121 -0.139872 0.956746 
-0.275423 0.455714 0.482639 -0.194638 -0.249324 0.946846 
-1.243031 -0.024237 -0.422219 0.540440 0.181013 -0.792764 
1.800445 1.130461 -0.209739 -0.124513 0.084759 -0.986588 
-0.874832 -0.490605 -0.193654 0.366386 0.037432 -0.876246 
-0.408772 0.183481 0.085272 -0.350722 0.144870 -0.879820 
1.653762 0.235064 -0.554233 0.440997 -0.333412 0.807246 
-1.052756 2.219410 -0.539377 -0.866875 0.345065 0.315068 
0.507790 -0.786025 0.074936 0.473598 0.010293 0.872772 
1.973778 1.172025 -0.206901 0.383573 0.137694 0.873251 
-0.792751 0.143443 -0.091476 0.194722 0.129553 -0.838842 
-1.327997 2.119205 -1.101193 -0.737887 0.453219 0.488653 
-1.876190 1.116378 -1.301468 0.798744 -0.391358 -0.452985 
-1.491421 0.813309 -0.494024 -0.757696 0.101750 0.612349 
-0.705508 -0.817471 -0.061029 -0.454485 0.095331 0.859074 
1.110330 1.052840 0.025708 0.554660 -0.134673 0.753082 
-1.109879 1.666565 -0.076068 -0.885956 0.262678 0.267058 
-0.543576 -0.454724 0.042352 -0.598973 -0.069560 0.786735 
-0.143167 -0.398182 -0.083250 -0.484832 -0.265403 -0.817273 
-0.902594 0.693666 0.074078 -0.799530 -0.154753 0.565549 
-1.625378 2.044495 -1.470691 -0.790759 0.260923 0.548516 
1.826604 1.972553 -0.032340 0.229824 -0.151941 0.940513 
2.382371 1.122882 -0.265857 -0.061003 0.120479 -0.989647 
1.037563 0.676397 -0.040239 -0.380321 0.151057 -0.903478 
1.660494 0.450065 -0.402553 -0.073788 0.377139 -0.891499 
-1.066894 0.117244 -0.195502 -0.636091 -0.156576 0.749034 
1.536483 0.407852 -0.390624 0.284875 -0.372184 0.862821 
1.639688 1.017307 -0.206071 -0.212145 0.061934 -0.958692 
1.513679 1.297447 -0.104842 -0.001388 -0.477722 0.860675 
0.375064 0.109364 0.331724 0.362721 -0.301397 0.875490 
-0.773516 0.876940 0.172844 0.873064 0.185285 -0.412766 
-0.717611 0.197892 0.115512 -0.578400 -0.287902 0.749540 
-1.561136 0.508235 -0.551551 0.661654 0.017780 -0.728106 
1.281843 0.720497 -0.132110 0.429431 -0.186464 0.847783 
-0.737907 -0.544673 -0.080320 0.330540 -0.006629 -0.900333 
0.200220 0.075341 0.367553 0.217280 -0.247787 0.933677 
0.264381 -0.668216 0.225945 0.404439 -0.154583 0.875349 
0.946972 1.556804 0.106042 -0.124668 0.055499 -0.985259 
0.821757 0.473792 0.142169 0.642689 -0.210687 0.721387 
1.665803 0.379130 -0.456240 0.149555 -0.420839 0.875234 
1.312429 -0.001761 -0.353446 0.553620 -0.192157 0.798214 
0.632029 0.771224 0.298271 0.477677 -0.057352 0.829439 
-0.752621 0.369949 0.002190 0.211602 0.190746 -0.857637 
0.975441 0.756235 0.050518 0.697971 -0.115258 0.688161 
2.621784 1.421324 -0.210516 0.005954 0.178690 -0.980851 
-1.437311 0.481107 -0.448453 -0.691872 -0.048640 0.696961 
-0.771240 0.291586 0.111424 -0.582805 -0.302341 0.740319 
-1.158590 0.865141 -0.211521 0.612670 -0.016402 -0.742161 
1.977554 2.150399 -0.044785 -0.119226 0.243135 -0.959471 
-0.289908 -0.698007 0.064801 0.128312 -0.284854 -0.944260 
0.755375 0.472905 0.210984 0.638971 -0.222314 0.714865 
-1.551975 2.204531 -1.432107 -0.761077 0.294325 0.554773 
1.855999 0.616935 -0.227150 0.129291 0.131640 -0.922538 
0.238169 0.887476 0.112528 0.674269 0.420327 -0.593724 
0.335032 0.800563 0.398539 0.848512 0.368502 0.346396 
-0.002518 -0.590578 0.319373 -0.428621 -0.163133 0.870359 
-1.687442 0.458927 -0.634725 -0.679959 -0.048918 0.720021 
1.672646 1.789860 -0.044110 0.296340 -0.222556 0.912116 
-0.233967 1.071988 0.393955 -0.867981 0.454789 0.132875 
-1.543212 0.741040 -0.544413 0.714214 -0.086119 -0.662936 
-1.355121 1.366155 -0.463421 -0.859450 0.081292 0.488823 
-1.178701 0.500018 -0.239582 -0.709561 -0.072857 0.669034 
-0.973460 1.960206 0.005137 -0.820063 0.438557 0.327276 
-1.156205 2.491040 -1.017520 0.814931 -0.227069 -0.527530 
-1.612857 0.381984 -0.577874 -0.666552 -0.086138 0.735360 
-1.388026 1.782189 -1.009752 0.794833 -0.404251 -0.433590 
0.330523 -0.359438 0.246684 0.634484 -0.156036 0.753314 
0.188978 -0.616482 0.266551 0.269308 -0.261078 0.922320 
-0.650615 0.501332 0.096921 0.081628 0.325255 -0.817334 
-0.756362 0.503805 0.233504 -0.627842 -0.162777 0.713181 
0.360238 -0.209461 0.253450 0.545126 -0.199446 0.796483 
0.109552 0.593444 -0.100695 0.497458 0.297910 -0.779369 
0.244258 -0.045359 -0.077788 0.644520 -0.076188 -0.740912 
0.352336 0.572851 0.103064 0.643921 0.347909 -0.664972 
0.397782 0.284835 0.385144 0.293196 -0.268253 0.913324 
-0.141820 0.384286 -0.147924 -0.642111 0.141321 -0.723465 
2.486396 2.163261 -0.044070 -0.017642 -0.365570 0.921508 
-1.497594 1.980744 -1.280016 0.722052 -0.456709 -0.486750 
-1.680826 1.032252 -0.841572 -0.803766 0.157602 0.564517 
-1.032820 2.104741 -0.466657 0.848211 -0.260989 -0.448374 
0.344634 -0.378931 0.052831 0.362301 -0.022883 -0.906666 
0.295135 0.361773 -0.063943 0.732758 0.070213 -0.672678 
0.962239 1.070485 0.112643 0.684631 -0.104306 0.676512 
-0.300181 -1.237482 0.161799 0.458448 -0.244738 -0.834585 
-0.584612 0.554425 0.169183 0.027501 0.448342 -0.569353 
0.576062 0.021387 0.010635 0.149238 0.098239 -0.886924 
0.370845 0.438113 0.452388 0.215939 -0.225047 0.949030 
1.186496 0.933273 -0.034826 0.496115 -0.143355 0.792747 
0.156321 -1.041598 0.188819 0.156717 0.043056 0.984674 
-1.429172 0.808553 -0.447506 -0.758575 0.097232 0.609343 
-1.583088 1.943373 -1.375516 -0.820825 0.175959 0.530394 
-1.435134 2.325889 -1.324717 -0.779920 0.262433 0.548924 
0.939154 1.806294 0.154254 0.077092 0.104684 -0.968842 
-1.258275 0.989108 -0.292909 0.660667 -0.089924 -0.692507 
-0.375947 0.485255 0.188910 -0.587918 0.351936 -0.705417 
2.099561 2.353510 0.007898 -0.111028 0.608466 -0.763015 
1.907378 1.921775 -0.084162 -0.129543 0.366842 -0.917277 
-0.221545 -0.590598 0.045851 0.038685 -0.315477 -0.938078 
-0.058685 0.115724 -0.219818 -0.550636 0.004674 -0.826738 
-0.314247 0.722735 0.055221 -0.694775 0.507298 -0.479981 
0.530551 0.610212 0.304706 -0.128862 0.604998 -0.592005 
1.410982 0.825533 -0.198946 -0.261836 0.187193 -0.937596 
-1.354403 1.694500 -0.847812 -0.838229 0.384742 0.376661 
0.706469 0.372279 0.037966 -0.058443 0.180041 -0.891030 
-1.468916 1.126975 -0.491709 0.771350 -0.250349 -0.563251 
-0.958662 0.403029 -0.027517 -0.713953 -0.194231 0.668617 
0.532602 0.374765 0.381690 0.409945 -0.274709 0.846432 
0.220783 0.466380 0.500588 0.176719 -0.256793 0.948356 
-0.630487 -0.176478 -0.043460 0.049587 0.046213 -0.875317 
0.806236 0.036502 -0.072631 -0.122745 0.104926 -0.872725 
0.934562 1.003055 0.123440 0.713535 -0.080610 0.660427 
0.604711 0.057606 0.165678 0.548842 -0.254834 0.785125 
0.109968 0.739580 -0.040065 0.467310 0.458601 -0.716708 
-1.533704 0.086358 -0.657766 0.611144 0.258480 -0.745754 
-0.303111 -0.099477 0.046838 -0.494803 -0.004874 -0.847811 
-0.184867 0.578844 -0.075994 -0.588886 0.235755 -0.734664 
1.301502 0.905884 -0.106178 0.396489 -0.171534 0.853032 
0.055837 -0.449509 0.336006 0.084640 -0.215008 0.971107 
-0.125762 0.888037 0.555597 -0.250499 -0.132082 0.955393 
0.038154 -0.724563 0.075255 0.235650 -0.363542 -0.893339 
-1.594009 1.243055 -0.922276 0.785095 -0.447447 -0.407309 
0.745437 0.235266 0.142727 0.535029 -0.290291 0.785416 
-1.614169 1.762854 -1.345850 -0.818426 0.245594 0.504379 
-0.406845 -0.362645 0.105757 -0.637893 -0.125274 0.756810 
0.941003 -0.158252 -0.111710 -0.371336 0.084882 -0.889662 
-1.182217 0.111413 -0.333979 0.563151 0.173929 -0.794155 
2.420138 1.373365 -0.233130 -0.051084 0.104533 -0.986032 
1.917166 0.843061 -0.218181 -0.135329 -0.283200 0.922852 
0.930288 0.446317 0.053323 0.636794 -0.194104 0.735423 
1.123353 1.409292 0.044238 0.520083 -0.232661 0.769395 
1.384301 1.356630 -0.053353 0.169042 -0.403365 0.830423 
0.577310 -0.813136 0.024009 -0.192992 -0.080424 -0.954424 
-0.962460 -0.602919 -0.233754 -0.463891 0.052456 0.830530 
0.751270 0.082362 0.062530 0.562958 -0.221584 0.788429 
2.604631 2.187721 -0.025202 -0.039535 -0.363659 0.922696 
-1.042049 0.438278 -0.149725 0.558222 0.127694 -0.810799 
-1.212926 2.134431 -0.907871 0.871490 -0.174954 -0.445907 
1.736856 2.076871 0.027897 0.240454 -0.190619 0.921379 
-0.786506 0.466462 0.166133 -0.707883 -0.245564 0.643321 
-0.945713 0.532229 0.005795 -0.750775 -0.171398 0.623951 
-1.305242 1.632705 -0.645791 -0.842859 0.445071 0.282473 
1.766870 0.618219 -0.218044 -0.259663 -0.286985 0.899717 
-1.731492 0.599325 -0.691865 0.707289 -0.075520 -0.672874 
0.716218 -0.936040 -0.000673 -0.277981 -0.237980 -0.929088 
0.389926 -0.259752 0.185589 0.555194 -0.171438 0.800495 
-0.715392 0.311961 0.165991 -0.577785 -0.322590 0.735228 
0.012582 -1.084117 0.231802 0.580866 0.000412 0.780568 
-0.392467 0.676148 0.276672 -0.718537 0.596295 -0.133619 
1.887821 1.847346 -0.097318 -0.222563 -0.079052 -0.970479 
1.607781 0.293039 -0.493045 -0.324658 0.364158 -0.846807 
-0.141821 0.091352 0.382638 -0.156128 -0.237098 0.958353 
-0.837679 1.387925 0.213992 -0.178550 -0.023774 0.904844 
1.918686 0.707810 -0.226489 -0.174310 -0.260541 0.919418 
1.353503 1.495134 -0.053302 -0.142270 0.221714 -0.941961 
2.248756 1.465993 -0.212827 -0.099411 0.064809 -0.983077 
1.353619 0.934704 -0.149419 -0.233836 0.171197 -0.952673 
1.768859 0.959171 -0.205081 -0.142813 -0.001243 -0.946168 
-1.734401 0.888117 -0.791823 -0.803689 0.213266 0.549423 
0.570963 0.576174 0.372492 0.050426 -0.042909 0.938982 
-0.298394 -0.254808 0.044342 -0.461627 -0.026499 -0.872577 
-0.558484 -0.184685 -0.024216 -0.070720 0.041324 -0.880772 
-0.709165 0.081578 0.065558 -0.603803 -0.234221 0.748790 
1.317875 0.414216 -0.250765 -0.369459 0.257003 -0.872343 
-1.095039 1.192424 -0.044069 -0.875938 -0.001850 0.448349 
0.722553 -0.432921 -0.004080 -0.283449 0.003836 -0.924996 
1.945826 1.293815 -0.190405 0.326548 0.046747 0.902453 
-1.415956 1.344684 -0.606042 -0.841935 0.079083 0.526591 
-0.958603 2.108297 -0.199472 0.960104 0.114892 -0.093156 
1.831239 1.793543 -0.101133 -0.229786 -0.012874 -0.967198 
-0.562402 -0.114344 0.095248 -0.617325 -0.191716 0.751591 
0.690828 0.094423 0.116081 0.553176 -0.245048 0.786649 
1.492663 0.345062 -0.387099 -0.279927 0.363820 -0.867125 
2.718909 1.635133 -0.154890 -0.024945 -0.187975 0.975638 
-0.369246 -1.299044 0.133080 0.398904 -0.151103 -0.868330 
-1.491339 2.521873 -1.462055 0.776817 -0.165406 -0.605920 
1.156923 -0.437579 -0.276511 -0.400919 -0.024573 -0.866230 
0.738647 -0.864695 -0.025634 -0.264811 -0.199422 -0.929875 
-0.080672 1.033849 0.572441 -0.103456 0.002861 0.966097 
-0.005546 1.035718 0.084842 -0.260678 0.412304 -0.870476 
0.938650 0.338353 0.033029 0.561662 -0.253730 0.779449 
-0.762128 -0.701573 -0.124336 -0.518953 -0.020237 0.832054 
1.014638 0.608134 0.002329 0.667941 -0.141568 0.716252 
-0.548294 -0.034022 0.146870 -0.595379 -0.235995 0.752721 
2.414941 2.075396 -0.071921 0.009884 -0.266293 0.959949 
-0.274596 -0.581457 0.238947 -0.542070 -0.160006 0.817591 
0.003184 -1.013244 0.236172 0.628820 0.052521 0.764085 
0.465150 -1.415692 0.136563 0.678983 -0.669233 -0.034073 
1.948838 2.088071 -0.021160 0.155802 -0.216472 0.942275 
-1.293223 2.202316 -1.093358 -0.771325 0.375086 0.495131 
-1.005829 1.257665 0.001774 0.561227 -0.055908 -0.794103 
2.316639 1.062249 -0.259980 0.130043 -0.081059 0.972021 
-1.520904 0.371780 -0.509109 -0.667205 -0.094231 0.731764 
0.768207 1.344261 0.243468 0.080667 -0.023771 0.860627 
-0.591846 0.630055 0.325310 -0.039729 -0.026224 0.925096 
1.604768 1.880134 -0.032090 -0.193557 0.193550 -0.960993 
-1.670090 1.940451 -1.494948 -0.806206 0.212600 0.543269 
-0.284579 0.947427 0.256835 -0.889076 0.358793 -0.226041 
1.113162 0.658591 -0.047934 0.584097 -0.155739 0.762078 
0.004143 0.254268 0.451165 0.018866 -0.300540 0.950500 
0.514675 0.695019 0.382202 -0.290339 0.530357 -0.664542 
2.135091 1.049066 -0.242573 -0.023517 0.171659 -0.977959 
-1.736969 1.153280 -1.088197 0.796637 -0.302013 -0.504651 
-1.156233 2.013806 -0.700509 0.886205 -0.211049 -0.399810 
-1.554021 1.024178 -0.569192 0.786767 -0.237361 -0.568104 
0.681621 -0.639116 -0.018015 -0.241763 -0.035127 -0.936249 
1.026047 0.296023 -0.120379 -0.355349 0.186484 -0.858139 
1.332730 1.286954 -0.088537 -0.211043 0.086875 -0.961644 
-0.538868 -0.807570 0.040675 0.233840 -0.085089 -0.946090 
-0.486209 0.073509 0.036664 -0.223412 0.113231 -0.876144 
-0.122562 -0.023235 -0.161643 -0.571609 -0.049767 -0.805815 
1.101475 1.629507 0.060848 -0.182457 0.010251 -0.968723 
1.704865 0.812067 -0.208348 -0.120761 -0.288068 0.914909 
-0.317954 -0.860561 0.086321 0.095557 -0.211667 -0.967499 
-0.068933 -0.885856 0.239590 -0.271367 -0.033728 0.947727 
2.138129 2.044581 -0.085312 -0.044627 0.275775 -0.955356 
-1.819176 0.895523 -0.981247 0.782336 -0.395788 -0.446398 
2.288157 2.180365 -0.056633 -0.002375 0.241749 -0.969605 
0.280736 -0.484128 0.001165 0.444692 -0.161696 -0.841916 
-0.028732 -0.462379 -0.087146 -0.255251 -0.467723 -0.833994 
-1.368301 0.314738 -0.394362 -0.660149 -0.125569 0.736459 
-1.165201 2.637360 -1.076131 -0.559165 0.564520 0.599408 
2.423552 1.908420 -0.107589 0.033571 -0.101502 0.980319 
-0.166228 0.732936 -0.025508 -0.484070 0.519605 -0.662123 
-0.115710 -0.003719 0.374872 -0.151803 -0.188301 0.965818 
-0.446040 0.610197 0.366718 -0.174894 0.679953 -0.612728 
0.941851 0.527039 0.054092 0.688121 -0.149172 0.706320 
-0.216260 -0.263633 0.321170 -0.399386 -0.132772 0.865199 
0.261259 1.025224 0.321155 0.900426 0.375249 -0.042955 
0.267928 0.981751 0.247625 0.865365 0.370388 -0.267118 
-1.117259 2.453776 -0.924767 0.837381 -0.233507 -0.484178 
-0.279557 0.780781 0.081725 -0.658675 0.507579 -0.521170 
-0.387751 0.622122 0.217451 -0.799548 0.339238 -0.413970 
0.469967 -0.199964 0.144409 0.577623 -0.182588 0.786483 
0.814743 0.116212 -0.065826 -0.123236 0.129283 -0.871695 
-0.940416 1.248409 0.129764 -0.901419 -0.079759 0.410179 
2.145476 0.785119 -0.251259 0.243837 0.033811 0.940413 
-0.707071 0.446508 0.243022 -0.618259 -0.241341 0.707227 
2.035675 1.721025 -0.148854 -0.167256 -0.017779 -0.975076 
0.780039 1.951489 0.227174 -0.445310 0.100832 -0.833802 
-1.745622 0.971631 -0.907519 -0.804437 0.207391 0.540570 
0.996736 1.449479 0.073322 -0.146506 0.073085 -0.979893 
-0.901666 -0.560756 -0.228404 0.357841 0.026664 -0.875031 
-1.074385 1.868394 -0.248272 -0.947699 0.191955 0.128749 
-0.306471 0.687946 -0.008142 -0.676498 0.360188 -0.621557 
2.104055 2.104805 -0.070183 -0.069331 0.229408 -0.968583 
1.751052 2.254957 0.034925 0.153902 -0.075150 0.974115 
1.121940 1.180696 -0.008913 -0.201098 0.117201 -0.966471 
-1.267029 2.290887 -1.098646 -0.804651 0.292017 0.504512 
-1.401247 1.289677 -0.483771 -0.846085 0.116022 0.504701 
2.646209 1.942318 -0.090373 0.066164 0.294721 -0.949841 
-0.677276 -0.751986 -0.073666 0.270299 -0.040478 -0.921688 
-0.827413 0.398134 -0.016664 0.337903 0.197212 -0.853783 
2.008873 0.842093 -0.235756 -0.163299 -0.010084 -0.968965 
-0.510119 -0.108027 0.143259 -0.604298 -0.213699 0.753250 
1.338838 1.413601 -0.023404 0.206707 -0.406675 0.808949 
-0.263123 0.542545 0.505691 -0.232609 -0.207347 0.940832 
0.777091 1.414756 0.239328 -0.865336 0.083737 -0.245380 
-1.092479 0.893779 -0.093605 -0.825535 -0.023303 0.530525 
2.078779 0.830869 -0.250478 -0.113350 0.068086 -0.990341 
-0.856024 1.230773 0.118865 0.618512 0.141760 -0.749942 
0.877357 0.546375 0.113933 0.702743 -0.149069 0.691500 
1.631271 1.288086 -0.098416 0.165921 -0.251782 0.927092 
-0.267132 0.091619 -0.072501 -0.715528 -0.030288 -0.678932 
0.266896 1.004027 0.408493 0.900375 0.277284 0.238055 
-0.831644 0.833772 0.172498 -0.455106 -0.018669 0.874654 
0.126650 1.249680 0.245300 0.753969 0.554222 -0.295653 
0.147732 -0.690773 0.253408 0.188659 -0.209994 0.955493 
-1.168188 1.567800 -0.160496 -0.909340 0.002498 0.391272 
-1.850044 1.182151 -1.312377 -0.807977 0.388683 0.434295 
-1.671429 0.994683 -0.773208 -0.804459 0.183153 0.557725 
0.365341 -0.666663 0.082811 0.147259 -0.077722 -0.940995 
-0.441132 0.047708 0.263537 -0.499814 -0.289493 0.798417 
-1.157501 0.642353 -0.236828 0.613453 0.030067 -0.751020 
-1.026657 1.655246 0.015983 0.610480 -0.247488 -0.698720 
-0.319313 0.073807 0.337702 -0.353424 -0.277482 0.878533 
0.602440 0.606071 0.244556 -0.278082 0.535756 -0.558602 
-0.142840 -0.949244 0.206817 -0.168940 -0.025795 0.977583 
