1.101439 0.837395 2.353930 0.955408 0.224972 -0.177994 
0.067165 -0.974836 0.005291 0.063176 -0.346184 0.881721 
0.997261 -0.679453 1.119133 0.927049 0.266006 -0.139220 
-0.800536 -0.181293 0.692884 -0.937228 0.016596 -0.308572 
-0.327024 -0.465232 -0.060612 -0.716055 -0.166455 -0.649804 
0.546130 -0.316558 0.313936 -0.483622 -0.115187 0.740933 
-0.149069 1.239586 0.229002 -0.643778 0.721872 0.056011 
0.629975 -0.686332 0.529308 0.759976 0.046073 -0.526004 
-0.106074 0.542827 -0.239282 -0.422141 0.138969 -0.884475 
0.629400 1.033332 1.436072 -0.951261 -0.151267 0.235799 
0.932894 0.950190 2.187110 -0.861908 -0.199274 0.328990 
-0.636095 -0.177771 0.449210 0.617461 -0.121839 0.603195 
0.716479 1.106209 1.455896 0.778235 0.380801 -0.369396 
-0.652786 0.605716 0.756167 0.936448 0.043408 0.267415 
1.019678 0.179058 1.945350 0.978145 -0.087165 -0.031727 
-0.039153 -0.280647 -0.251004 -0.343635 -0.268964 -0.881244 
0.908299 0.220971 1.624233 -0.966086 -0.082383 0.145856 
-0.865744 0.210782 1.622007 -0.938885 -0.088056 -0.247531 
-0.339730 0.576172 -0.145385 -0.589854 0.174215 -0.761191 
-0.267445 -0.117641 -0.164817 -0.523498 -0.154997 -0.830339 
0.627509 0.033957 0.386759 0.891100 0.032793 -0.431691 
-0.884943 1.059252 1.809526 0.924946 -0.003497 0.355652 
0.909138 0.610024 1.702880 0.843385 -0.037286 -0.479297 
0.306767 -0.403138 0.171827 0.527745 -0.212660 0.810243 
-0.290452 0.725631 0.327133 -0.630402 0.195716 0.727358 
-0.635363 -1.009446 0.413738 0.643431 -0.422870 0.557820 
-0.936464 0.649458 1.929466 0.919160 -0.030396 0.349769 
1.077894 0.510539 2.120671 0.928995 0.072959 -0.332326 
-0.857621 -0.347050 1.200258 -0.955393 0.035133 0.101597 
-0.239051 0.688964 -0.176582 -0.490942 0.293214 -0.805281 
-0.926847 0.411499 1.777327 -0.934510 -0.062590 -0.295905 
0.604634 0.369881 0.755061 -0.921187 -0.089508 0.271414 
-0.726297 -0.484116 0.661482 0.815710 -0.086117 0.433629 
-0.822728 0.996991 1.564430 0.891462 -0.286231 0.255319 
0.611198 0.435261 0.780594 -0.965387 0.109661 0.178247 
-1.006054 0.695967 2.135065 -0.930723 -0.184768 -0.279158 
0.457370 -0.377067 0.159177 0.837541 -0.080388 -0.508197 
0.546878 -0.165971 0.279429 0.875250 -0.024148 -0.457354 
0.814454 -0.557962 1.398722 -0.939338 0.054551 -0.239009 
1.166748 0.450962 2.443297 0.911098 -0.190993 -0.343894 
1.156183 0.868134 2.802609 0.984014 0.129873 -0.008765 
0.936555 -0.195678 2.145971 -0.831204 0.308896 0.378470 
0.765540 1.088494 1.687195 0.955634 -0.152290 -0.191931 
0.600295 -0.959635 0.414960 -0.580339 -0.247177 0.658524 
0.764673 1.009915 1.690164 -0.700807 -0.482100 0.462963 
-0.122184 -0.800076 0.090717 0.008740 -0.288374 0.907059 
-0.564090 0.025704 0.353670 0.567561 -0.220290 0.686290 
-0.161234 -1.190284 0.001239 0.701369 -0.184400 0.571768 
-0.369243 -0.455237 0.085622 -0.101708 -0.133531 0.922254 
1.180100 0.483920 2.666584 -0.975120 0.073303 0.141948 
-0.119528 -1.180576 -0.070404 0.358070 -0.279016 0.720943 
-0.489232 0.630576 0.145613 -0.807635 0.534741 -0.191651 
0.429606 -0.619271 0.138097 -0.359333 -0.073316 0.884044 
-0.550713 -0.631632 0.387020 0.646845 -0.048159 0.644743 
0.806013 -0.461961 0.785515 0.882577 0.137155 -0.361154 
-0.180275 0.672077 0.391646 -0.273522 0.227767 0.906186 
-1.007484 -0.136209 2.518356 0.989114 0.110004 0.068469 
-0.073613 -1.126072 -0.056474 -0.003520 -0.323820 0.774714 
-0.785156 0.748884 1.020937 -0.954801 0.047842 -0.172828 
0.062944 0.213794 0.390394 0.154455 -0.186343 0.962058 
0.031997 0.148326 0.377295 0.119667 -0.215104 0.963875 
-0.575782 0.189950 0.394808 0.641690 -0.279837 0.644810 
-0.821595 0.096606 0.806412 -0.969271 0.012271 -0.212224 
-0.143946 1.229411 0.331384 -0.036820 0.871914 0.325928 
-1.151749 0.818657 3.522903 -0.979145 -0.075562 -0.002373 
-0.206409 0.023256 -0.206946 -0.511241 -0.093387 -0.844522 
0.542610 -0.559819 0.403025 0.759901 -0.023937 -0.559255 
1.017981 0.354315 1.969788 -0.870223 0.025927 0.455184 
1.124111 0.921415 2.477912 0.956406 0.206276 -0.202438 
-0.134377 -0.090928 0.305679 -0.217596 -0.225849 0.947143 
0.462569 0.413453 0.002825 0.806572 0.097152 -0.503925 
-0.883499 1.291556 1.609792 -0.928117 0.181851 -0.149123 
1.120372 0.808762 3.119864 -0.968056 0.118762 0.027696 
1.073991 -0.056358 2.493142 -0.952863 0.202666 0.132783 
0.069208 -0.608856 0.177493 0.259771 -0.285362 0.914240 
0.919690 0.134937 1.624997 -0.979376 -0.025433 0.129194 
0.633706 0.629221 0.877456 0.724172 0.493372 -0.466258 
-0.910494 0.811464 1.786893 -0.941558 -0.154314 -0.126936 
1.089085 0.579060 3.374554 -0.975143 -0.098352 -0.165040 
-0.135985 -0.447842 -0.168715 -0.298219 -0.379057 -0.859610 
-0.829454 1.394037 1.513821 0.707366 -0.036866 -0.628799 
0.450638 0.391739 0.415119 -0.804323 -0.132179 0.517689 
-0.441637 0.387878 0.311837 0.687816 -0.222983 0.653496 
0.882210 -0.327411 1.272459 0.963868 0.062125 0.029385 
-0.745198 -0.701771 0.719236 -0.849783 0.041286 -0.377928 
-0.101849 0.411666 -0.252608 -0.451633 0.076118 -0.880776 
0.958969 1.117475 2.183975 0.936961 0.279543 -0.202023 
0.892900 -0.227941 2.018695 0.943557 -0.285359 -0.076028 
0.000252 -0.950004 -0.080157 0.651462 0.042330 -0.748258 
-0.851905 1.297558 1.524401 -0.462420 0.113736 -0.814118 
0.938389 0.215976 1.705617 -0.976902 -0.078672 0.051143 
-1.057266 0.426876 2.746077 -0.990963 -0.102514 0.040082 
1.127076 0.168859 3.159128 -0.992301 0.044634 -0.085404 
-0.601855 -0.009059 0.284562 -0.875469 -0.010165 -0.450175 
-0.995670 0.173919 2.744851 -0.951289 -0.252620 -0.102097 
-0.992103 0.370604 2.119891 0.958360 0.053441 0.257248 
-0.835669 -0.188233 0.882272 0.952517 -0.080125 0.201423 
0.534629 0.259421 0.435866 -0.687902 -0.313262 0.603897 
1.170984 0.521108 2.476196 0.973609 0.113759 -0.069159 
-1.064349 0.475564 2.634517 -0.993130 -0.087114 0.040405 
0.911807 0.056986 1.609838 -0.980214 0.040622 0.132534 
0.841737 0.493529 1.614451 -0.900926 -0.217567 0.218406 
-0.463959 -0.780056 0.262724 -0.687088 -0.091956 -0.648485 
-0.076393 -0.501013 -0.137905 -0.102400 -0.556142 -0.816744 
-0.849250 0.657912 1.650077 0.942704 -0.173768 0.073709 
0.802406 -0.412814 2.005575 0.879794 -0.376557 -0.250791 
0.873459 -0.031166 1.292382 0.968446 0.001531 -0.211791 
-0.789260 1.202902 1.488825 0.893001 0.189722 0.006417 
-1.150387 0.828801 3.438602 0.989732 0.105642 0.027837 
1.024816 -0.050798 2.237839 -0.847789 0.264996 0.373533 
-0.572891 0.025298 0.222168 -0.864114 -0.011688 -0.474303 
0.855643 -0.006074 1.221391 0.966622 0.009770 -0.232894 
-0.906239 1.008982 1.760354 -0.912669 -0.308838 -0.157277 
-0.827896 0.953986 1.199947 -0.917285 0.195220 -0.338251 
-0.742020 0.533551 1.097294 0.884122 -0.221356 0.360184 
1.113792 0.509249 3.249541 -0.977322 -0.085569 -0.145514 
0.995674 -0.039716 2.107395 -0.780824 0.283927 0.490664 
-0.854456 0.276175 1.576508 -0.961573 -0.104275 -0.160042 
0.831220 0.993962 1.884310 -0.854798 -0.180134 0.454744 
0.659379 0.853335 1.304987 -0.774180 -0.444495 0.431673 
-1.142602 0.803469 3.039725 -0.984812 -0.164398 -0.045356 
0.959289 0.537316 1.749100 0.933473 0.074102 -0.252349 
-0.309915 -0.497849 0.130063 -0.391342 -0.185032 0.867779 
-1.032175 0.299260 3.032415 0.958935 0.242388 0.075087 
-0.736231 -0.103117 0.554231 -0.923966 0.008249 -0.348291 
0.206800 -0.012210 0.302199 0.370959 -0.220819 0.890055 
-1.011730 0.243011 2.700877 -0.954169 -0.252834 -0.102408 
0.361111 -0.438714 -0.021662 0.807301 -0.130444 -0.561678 
1.165312 0.751275 2.947452 0.992772 0.081560 0.062096 
-0.390726 -0.121840 0.153177 -0.052407 -0.155352 0.922808 
0.377881 0.019411 -0.081719 0.685341 -0.108704 -0.679916 
-0.966119 0.060551 2.868470 0.985367 0.096198 -0.067314 
-0.339101 0.613184 0.294137 -0.512170 0.054462 0.767412 
-0.204515 1.039552 0.369330 -0.655485 0.720218 -0.151926 
-1.158686 0.964499 2.966749 0.999040 -0.021509 0.018273 
0.696323 0.783310 1.095999 0.883397 0.302198 -0.330860 
0.039879 -0.862557 0.066367 0.273320 -0.329927 0.871899 
1.138007 0.655119 3.083682 -0.965318 -0.167729 -0.143492 
0.564387 0.234453 0.501899 -0.730882 -0.310852 0.547035 
-0.722704 -0.862735 0.684004 -0.806331 0.114909 -0.411311 
-0.846211 0.712481 1.502859 -0.970383 -0.200313 -0.046420 
-0.824844 1.487475 1.511407 0.775445 0.221813 -0.423466 
-0.275666 0.764817 -0.118568 -0.584689 0.544847 -0.593754 
-0.803061 0.725925 1.207753 -0.982477 -0.149552 -0.024119 
-0.276393 0.467463 0.323914 -0.216460 -0.088059 0.967615 
0.327627 -0.019432 -0.125756 0.590165 -0.131670 -0.774267 
-0.464303 -0.226473 0.103617 -0.845910 -0.083502 -0.506202 
0.664599 0.443767 0.972502 -0.827736 -0.339181 0.423401 
0.306942 0.845752 0.063314 0.822844 0.443700 -0.275532 
-0.228543 1.088993 0.252257 -0.871434 0.454973 0.117483 
0.288037 0.392896 0.312425 0.241343 -0.116512 0.954628 
-0.819541 0.238113 1.337673 -0.992814 -0.066817 -0.076800 
-1.124246 0.676969 3.354525 -0.982925 -0.179123 -0.026918 
0.280200 0.201295 -0.172732 0.548536 -0.065464 -0.828926 
0.173341 1.223731 0.324044 0.168312 0.862005 0.161997 
0.228897 -0.185806 0.252819 0.401531 -0.216887 0.868509 
-0.866582 1.181673 1.458688 -0.948102 0.022321 -0.192787 
-0.063056 1.200109 0.034240 -0.498525 0.376996 -0.766665 
1.006536 1.014184 2.344598 -0.905145 -0.168020 0.315694 
-0.527640 -0.868142 0.385189 0.602298 -0.061778 0.680587 
-0.550360 -0.457357 0.325213 -0.811684 -0.067906 -0.503983 
-0.311234 -0.322986 -0.112761 -0.615355 -0.192072 -0.736550 
0.670952 0.082561 0.538660 0.924181 0.055443 -0.346691 
-0.180623 -0.565638 -0.095442 -0.075433 -0.373333 -0.907510 
-0.854579 0.360374 1.569382 -0.960322 -0.122942 -0.147719 
0.734268 -0.533735 0.682410 0.836993 0.097798 -0.425057 
-0.825333 0.169476 1.172580 -0.985387 -0.042144 -0.121538 
0.687988 0.245704 0.699633 0.975733 0.072648 -0.202155 
-0.504574 -0.178954 0.161483 -0.855597 -0.064834 -0.487317 
0.883475 -0.429348 1.014418 0.941486 0.153162 -0.131783 
1.074542 0.875622 2.503380 -0.938904 -0.141679 0.199634 
-1.000787 0.622816 2.146872 0.965554 -0.009579 0.231784 
1.130043 0.252001 3.210108 0.992099 -0.027861 0.121312 
-0.539470 0.467581 0.155783 -0.864378 0.264624 -0.344299 
-0.940695 0.828501 1.895860 -0.930477 -0.191708 -0.213878 
-0.081824 -0.407714 0.230643 -0.087609 -0.195680 0.974254 
-0.118826 0.826945 0.403998 -0.263895 -0.203533 0.939556 
0.628052 0.951479 1.185237 0.511664 0.534205 -0.504591 
0.199543 -0.591188 -0.078843 0.002042 -0.329958 -0.924897 
0.636732 -0.028427 0.424721 0.895584 0.031516 -0.420754 
0.093970 0.357338 0.424548 0.227927 -0.106970 0.954927 
-0.961127 0.451960 2.026674 0.936832 0.049107 0.323932 
-1.012393 0.268076 2.799765 0.939867 0.280959 0.123662 
0.064595 -0.794374 0.099328 0.133523 -0.326405 0.885247 
0.809191 0.524200 1.464110 0.985444 -0.059177 -0.146557 
-0.775428 0.155782 0.719094 -0.955646 0.066364 -0.285526 
-0.827954 0.184579 1.535899 0.981549 0.000348 0.125874 
0.837177 0.695524 1.735182 -0.827516 -0.190248 0.441310 
-1.007572 1.195672 2.111124 -0.890783 0.366047 -0.103949 
0.076770 0.323069 -0.282860 0.477439 0.045626 -0.872199 
-1.052255 1.038020 2.231537 -0.985298 -0.072499 -0.123474 
0.981623 -0.019244 2.030100 -0.747939 0.286209 0.551870 
-0.822351 0.292672 1.396154 -0.991877 -0.085305 -0.066084 
1.122813 0.397177 2.188005 0.954036 -0.034654 -0.281491 
0.687050 0.499148 0.851558 0.962104 0.135215 -0.163894 
0.974868 0.982750 2.126175 0.966712 0.188731 -0.149262 
-0.167252 0.247154 -0.240929 -0.505920 -0.013880 -0.858288 
0.032496 0.277082 0.408837 0.105585 -0.162944 0.975157 
-0.053283 -0.758572 0.120068 -0.204816 -0.320800 0.880797 
-0.359647 0.103299 -0.111505 -0.618964 -0.085430 -0.754390 
1.166704 0.724526 2.879899 -0.975689 -0.161204 -0.057897 
-0.710017 -0.166425 0.575899 0.742397 -0.105089 0.486646 
0.671190 1.290632 1.623571 -0.784127 0.131793 0.495181 
0.548328 -0.005605 0.234127 0.870625 -0.008798 -0.471606 
0.908616 0.514634 1.793827 -0.883191 -0.135738 0.368373 
0.772169 0.289415 1.249299 -0.895463 -0.179958 0.318777 
-0.846995 0.529312 1.634004 0.955319 -0.126649 0.071169 
0.105779 0.127499 0.365121 0.222892 -0.218154 0.943872 
-0.670557 -0.230362 0.500754 0.656334 -0.091870 0.557071 
-1.064878 1.148432 2.313763 0.871275 0.345494 0.271706 
0.258723 -1.161686 0.070630 0.478219 -0.207270 -0.839051 
0.048597 0.747849 0.386169 0.082107 -0.056180 0.985670 
-0.073537 -0.597112 -0.091517 -0.071848 -0.310216 -0.936100 
1.074777 -0.112878 2.599925 -0.958227 0.212731 0.123445 
0.132551 -0.084592 0.307830 0.218995 -0.224203 0.946658 
0.632869 0.512529 0.776900 0.737475 0.526950 -0.390447 
0.752879 0.073560 0.969840 -0.902620 -0.184830 0.346464 
0.949109 0.283026 1.670736 0.874582 -0.029103 -0.419120 
-0.866416 0.804270 1.720532 0.840599 -0.149093 0.453760 
-0.277325 -1.121812 0.064762 -0.539142 -0.201766 -0.812892 
0.055533 1.152046 0.396102 -0.166869 0.462928 0.837929 
-0.801319 0.027803 0.715233 -0.953548 0.049281 -0.288711 
0.516053 0.340071 0.118085 0.872908 0.068145 -0.431000 
-0.943669 -0.262758 2.275218 0.939987 0.143407 0.214067 
-0.828820 0.071141 1.403934 0.982956 0.005366 0.142015 
-0.871514 -0.453036 2.156581 -0.958186 -0.181069 -0.192990 
0.886415 0.733822 1.691721 0.952348 0.076583 -0.149895 
1.097435 -0.076938 2.709637 0.957745 -0.224462 -0.119820 
0.943251 0.093024 1.682216 0.914328 -0.133552 -0.313838 
0.725962 -0.006375 0.795288 -0.903887 -0.213397 0.352346 
-0.093807 1.108886 0.415206 0.227337 0.223847 0.921153 
0.328369 -0.810571 0.040587 0.642643 -0.129542 -0.725370 
0.743555 -0.585882 2.093168 -0.902942 0.382857 0.193850 
0.955415 0.696215 1.913414 0.928654 0.116410 -0.287091 
-0.507522 0.171617 0.060498 -0.834083 -0.003179 -0.539339 
-1.143881 0.858615 3.094221 0.994594 0.030092 0.020650 
0.864287 -0.248731 1.947328 0.866403 -0.352744 -0.310883 
-1.125487 0.961225 2.502186 -0.982975 -0.054514 -0.170782 
-0.645710 0.255543 0.591006 0.754994 -0.331446 0.522029 
-0.410034 0.602319 0.329388 0.781888 0.103868 0.498485 
0.053359 -0.311947 -0.241604 0.347594 -0.281890 -0.877865 
1.124549 0.145613 2.505701 0.921208 -0.278791 -0.257961 
-0.009719 1.179735 0.378532 0.018537 0.630223 0.769944 
-1.043801 0.837444 2.234796 -0.988644 -0.050632 -0.117215 
-0.606017 0.146832 0.244774 -0.866804 0.017988 -0.471454 
-0.546878 -0.931783 0.419956 -0.710938 -0.000083 -0.575462 
0.778588 -0.018354 0.984066 -0.923167 -0.141426 0.323476 
0.845394 0.682134 1.620475 0.915798 -0.062987 -0.311125 
-0.893554 -0.430172 0.933123 0.952200 -0.133511 0.243381 
-0.001369 -1.061039 -0.012412 -0.657868 -0.286975 0.690304 
-0.198739 1.167060 0.233876 -0.789882 0.576704 -0.003254 
-0.416421 0.656762 0.284166 0.376468 0.338213 0.559515 
-0.869780 -0.024409 1.842858 0.986445 0.061126 -0.109410 
1.109836 0.755292 2.546227 -0.949806 -0.126436 0.156826 
0.726592 1.239149 1.626849 0.930920 0.267471 -0.243638 
-0.788547 0.857127 1.382877 0.883617 -0.265045 0.335765 
-1.077098 0.714315 2.410221 -0.989436 -0.045864 -0.120359 
-0.854411 1.223482 1.560874 -0.894858 -0.430480 -0.076442 
1.088435 0.399014 2.095001 0.957983 0.036922 -0.230534 
-0.820835 0.214517 1.231819 -0.988777 -0.053754 -0.099467 
0.262788 1.024607 0.246044 0.916498 0.355662 0.146186 
-1.104237 0.587010 3.330245 0.983741 0.153472 0.029442 
0.622773 -0.248854 0.483772 -0.645185 -0.130065 0.598431 
0.581337 -0.609998 0.467754 0.756924 0.005179 -0.548466 
0.157038 1.090505 0.263380 0.614684 0.314483 0.516405 
0.859736 -0.086226 1.202007 0.963299 0.023649 -0.205223 
-1.025182 0.206370 2.567423 -0.946654 -0.254835 -0.154667 
0.641443 -1.028063 0.368804 0.611406 0.460616 -0.594227 
0.027725 0.465346 -0.281396 0.420168 0.126346 -0.894130 
0.456625 -1.039478 0.186018 0.568463 0.168572 -0.720841 
0.921320 0.016874 1.717126 -0.975394 0.096466 -0.007721 
-0.854591 -0.286609 1.307346 -0.961887 0.016079 0.102229 
-0.128090 -0.227134 -0.225274 -0.442052 -0.195032 -0.855877 
-0.636980 0.389644 0.395785 -0.903970 0.188940 -0.324206 
0.566535 -0.048678 0.408722 -0.623810 -0.194999 0.651191 
0.623656 0.903251 1.124604 0.576101 0.507333 -0.484817 
-0.203476 -0.112307 0.280065 -0.357664 -0.224138 0.889564 
0.875450 1.055400 1.925297 0.974135 0.179156 -0.108525 
0.945308 -0.590373 1.137305 0.939095 0.199613 -0.045821 
-0.667463 0.741268 0.828489 0.947601 0.004095 0.256271 
-0.871082 -0.803056 0.908576 -0.887963 0.207639 -0.272139 
-1.056271 0.640948 2.366257 0.934917 0.193575 0.285464 
0.173740 -0.006604 -0.223650 0.505732 -0.091364 -0.846634 
0.191779 -0.121515 0.282392 0.330022 -0.219754 0.902757 
-0.343138 -0.166283 0.192297 -0.454021 -0.195249 0.839540 
-1.147450 0.819701 3.153588 -0.985369 -0.162837 -0.039074 
-0.589791 0.351565 0.265938 -0.876596 0.120949 -0.411292 
-1.018471 0.136971 2.578295 -0.954707 -0.232606 -0.132124 
-0.280330 -0.112777 0.242599 -0.458654 -0.215104 0.848338 
-0.655757 0.111729 0.354176 -0.886742 0.024920 -0.429464 
-0.806530 1.118790 1.506084 0.869229 -0.325567 0.353629 
-0.261593 -1.046994 0.082529 0.200551 0.043627 0.936877 
-0.001647 -0.658094 0.190558 -0.497002 -0.260174 0.826922 
0.331113 -0.468020 0.126779 0.370146 -0.181679 0.854417 
0.734371 -0.233208 0.739818 -0.889296 -0.135102 0.384385 
1.142128 0.302932 2.417233 -0.975685 0.004263 0.075428 
0.709317 0.170972 0.725989 0.970802 0.076562 -0.220377 
-0.827070 -0.015542 1.645310 0.987231 0.065383 -0.015269 
-1.095162 0.552339 3.174900 0.983695 0.147166 0.034144 
0.861287 1.133066 2.042615 -0.892448 -0.173569 0.389365 
-0.754747 0.078760 0.614230 -0.935155 0.046053 -0.327728 
0.399813 -0.165662 -0.026289 0.834909 -0.094654 -0.538415 
-0.836157 0.251140 1.495496 -0.989297 -0.093970 -0.076007 
-0.728886 0.151000 0.584607 -0.930376 0.052586 -0.338424 
-0.720236 -0.378541 1.540503 -0.959684 -0.192110 0.114211 
-0.053192 -1.198517 -0.095899 -0.303566 0.129204 -0.935787 
-1.031325 0.940026 2.170085 -0.986419 -0.074362 -0.112717 
-0.959957 0.306910 1.974050 -0.990241 -0.012501 -0.045933 
-0.264033 -0.942060 0.089876 0.168880 -0.020993 0.942813 
-0.714804 -0.248092 0.558911 -0.904560 -0.012857 -0.365598 
-0.838574 -0.219747 0.951330 0.953259 -0.076241 0.142765 
0.377730 0.632438 0.240337 0.314877 0.339045 0.765787 
-0.777804 -0.605614 1.940338 -0.942561 -0.217875 -0.166206 
-0.213364 0.300328 -0.214978 -0.515265 -0.011205 -0.853637 
-1.053431 0.366449 3.110317 0.961481 0.240122 0.075019 
0.067549 0.749209 -0.198113 0.318329 0.390198 -0.847113 
-0.519298 -0.109517 0.166858 -0.855806 -0.048965 -0.488422 
0.638487 0.248296 0.533257 0.943406 0.051157 -0.283761 
-0.997155 0.156726 3.033371 -0.983025 -0.170495 0.024820 
-0.929057 0.411008 1.950589 0.903206 0.066775 0.397840 
0.247686 0.534549 -0.188353 0.502177 0.094612 -0.841723 
1.087235 0.541694 2.186624 -0.934826 -0.108632 0.319943 
-1.000278 0.047769 2.637329 0.987294 0.065193 -0.025378 
0.242729 -1.443326 0.084672 0.228238 -0.803068 0.172664 
-0.388403 -1.033942 0.137806 0.465109 -0.104967 0.844238 
-0.518182 0.511710 0.482604 0.897602 0.124295 0.397591 
-0.727909 0.665685 1.032292 0.860348 -0.281667 0.413618 
0.515049 0.033424 0.319944 -0.564897 -0.223736 0.720467 
0.312289 0.593736 0.319502 0.502108 -0.086912 0.814135 
-0.789487 0.490143 1.353584 0.922419 -0.146605 0.260611 
-0.853028 -0.418141 1.170660 0.949790 -0.077027 -0.121755 
-0.857804 -0.146795 1.860471 -0.879387 -0.219742 -0.361651 
0.959203 0.570454 1.842425 0.961739 0.136881 -0.100441 
-0.600850 -0.016007 0.410519 0.613841 -0.193830 0.635050 
1.067626 0.372377 2.020369 0.973664 0.059470 -0.124750 
-0.303845 -1.392582 0.104916 -0.904648 -0.055820 0.283713 
1.103385 0.105777 2.448653 -0.962313 0.115943 0.112705 
-0.630625 0.187304 0.328624 -0.882762 0.032286 -0.438518 
0.022778 1.412951 0.113429 0.534481 0.764507 -0.280899 
0.114957 0.437060 -0.239578 0.457783 0.083145 -0.874533 
-1.032361 0.288286 2.374084 -0.958884 -0.171056 -0.180705 
0.249371 -0.693777 0.109008 0.144813 -0.184133 0.878639 
-0.157138 -0.898937 0.067012 0.242126 -0.223223 0.877103 
0.852411 1.042479 1.835746 0.967787 0.141625 -0.181703 
0.242510 0.808687 -0.104452 0.561994 0.515389 -0.638754 
0.713178 0.984837 1.335419 0.913809 0.258898 -0.261824 
-0.855036 -0.244057 1.123211 -0.961284 0.024724 -0.015135 
0.703299 -0.007102 0.726406 -0.881839 -0.219295 0.377373 
0.880678 -0.395283 2.260566 0.916577 -0.351972 -0.179234 
-0.332957 -0.550581 -0.031942 -0.727628 -0.151658 -0.644513 
0.932586 -0.803635 0.906062 0.843514 0.332039 -0.330393 
0.862193 -0.375178 2.169438 -0.881574 0.339243 0.262813 
-0.798757 0.010600 0.794290 0.923522 -0.144800 0.330008 
0.481686 0.018741 0.248947 -0.500320 -0.221749 0.779432 
0.518357 -0.830244 0.366748 0.681872 -0.011491 -0.630803 
1.143398 0.732832 3.092131 0.989375 0.079920 0.100195 
0.642132 -0.620460 0.561530 -0.710235 -0.135442 0.556868 
1.005244 0.075321 1.932608 0.979434 -0.179156 -0.003594 
0.695874 0.342847 0.817550 0.981584 0.058549 -0.155898 
0.212208 0.839451 0.359154 0.585693 0.012899 0.797149 
0.723096 1.169835 1.542100 0.853419 0.238751 -0.318540 
0.917702 -0.344809 2.307459 0.921765 -0.339325 -0.177745 
-0.749502 0.730475 1.156818 0.868986 -0.274668 0.385218 
-0.292996 -0.434869 0.165874 -0.491283 -0.213139 0.832379 
0.829437 -0.144860 1.114042 -0.950872 -0.087950 0.215965 
-0.049674 1.364143 0.108696 -0.616649 0.670923 -0.377417 
0.705903 -0.612303 0.649529 -0.750269 -0.166416 0.500910 
-0.710093 -0.327574 0.573301 -0.874533 -0.013124 -0.395829 
1.120780 0.492757 2.276778 -0.953577 -0.065219 0.250463 
0.668335 1.239631 1.573085 -0.763277 -0.064522 -0.609501 
-1.039372 1.147189 2.169000 -0.982316 0.048644 -0.174241 
-1.008292 1.132340 2.080042 -0.989059 -0.069089 -0.083142 
0.545327 0.531686 0.529801 0.779088 0.567241 -0.162372 
-1.159440 0.893012 3.324488 -0.973514 0.038639 0.008889 
-0.273978 0.996750 0.225325 -0.919157 0.342875 0.104837 
1.057377 -0.159927 2.543887 -0.949503 0.255642 0.159826 
0.183145 0.147259 0.348374 0.323877 -0.199147 0.921670 
-0.504229 0.606685 0.215764 -0.826177 0.508372 -0.173731 
-0.507880 -0.993815 0.307103 0.560218 -0.183299 0.706552 
-0.843239 -0.279176 1.035871 0.952932 -0.074270 0.054366 
1.172948 0.573389 2.596169 -0.968866 0.005066 0.172478 
-0.756805 0.821939 1.205461 0.864680 -0.294519 0.389516 
0.106260 0.120263 -0.268810 0.492876 -0.031765 -0.860570 
-1.001263 0.154603 3.155338 -0.979817 -0.195161 0.009284 
0.458814 0.671741 0.146435 0.773207 0.593273 -0.157906 
1.123195 0.102702 2.576490 0.930665 -0.261925 -0.222285 
-1.034350 0.354026 2.346080 -0.956817 -0.165960 -0.195251 
-0.218518 -0.317466 -0.179985 -0.499843 -0.208248 -0.832209 
-0.858853 -0.471205 1.339439 0.953024 -0.064339 -0.246055 
0.797622 -0.052974 0.921113 0.953413 0.063468 -0.275161 
-0.813128 0.791356 1.267540 -0.977279 -0.175348 -0.024187 
-0.686538 0.658792 0.801442 -0.745880 0.378339 -0.531370 
0.806924 -0.252740 1.654741 -0.937968 0.229286 -0.147359 
0.538502 0.113799 0.177731 0.864190 -0.002600 -0.488227 
-0.962940 0.190209 2.003020 -0.990327 -0.064389 -0.070558 
0.616902 0.174066 0.607494 -0.800243 -0.296110 0.459195 
0.168600 -0.906843 0.073908 -0.318969 -0.181071 0.864159 
1.077093 0.689507 2.239206 -0.914888 -0.199625 0.318142 
-0.441050 0.525224 0.388132 0.864785 0.045081 0.473500 
-0.536327 -0.395070 0.282277 -0.833602 -0.074032 -0.487147 
0.546961 0.318231 0.216617 0.888511 0.064081 -0.397993 
-1.137443 0.912129 2.692206 -0.985442 -0.097831 -0.110630 
-0.685872 0.020295 0.426443 -0.900147 0.016661 -0.400038 
-0.934431 0.177860 1.918716 -0.993892 -0.049520 -0.012139 
0.973712 1.014020 2.274466 -0.886994 -0.181690 0.334531 
0.934799 0.008848 1.789450 -0.974756 0.123383 -0.087911 
-0.762528 -0.385254 1.712602 -0.918872 -0.227691 -0.076097 
0.652974 -0.230521 0.549040 -0.705603 -0.133394 0.544009 
-1.021635 0.183735 2.407491 0.984732 0.029601 0.038695 
-0.487632 0.086500 0.050605 -0.833246 -0.023107 -0.539182 
1.148566 0.191189 2.894887 0.988316 -0.006789 0.071571 
-0.449854 0.543817 0.020676 -0.749448 0.269641 -0.470110 
0.975923 0.890376 2.079817 0.963421 0.230509 -0.109617 
0.088168 -0.518399 0.196955 0.149820 -0.247171 0.952428 
0.481933 -1.004494 0.253047 -0.495847 -0.181648 0.771764 
0.866797 -0.781773 0.847460 0.836384 0.213779 -0.370536 
-0.891403 0.884590 1.711926 -0.935424 -0.208597 -0.070020 
-0.830360 0.957831 1.638348 0.806090 -0.078444 0.567232 
1.144793 0.138369 2.840000 -0.980444 0.128164 0.081214 
-0.829712 -0.737052 0.870906 0.854202 -0.144011 0.334784 
-0.747941 0.377940 0.761465 -0.963848 0.042455 -0.218782 
-0.999836 0.149308 2.181828 -0.986886 -0.075625 -0.113485 
0.855224 0.173047 1.464807 -0.947062 -0.058793 0.238352 
-0.219303 0.887989 -0.062886 -0.619392 0.460881 -0.626954 
-0.799796 -0.221017 1.494260 0.972646 0.057478 -0.072400 
0.076688 1.205286 0.352912 -0.116779 0.715922 0.656166 
-0.699813 0.317271 0.557516 -0.929224 0.112226 -0.324997 
1.126066 0.561732 2.334194 -0.952003 -0.124908 0.223641 
-0.907166 -0.624652 1.231827 -0.954956 0.099526 0.131930 
-0.535373 -0.202021 0.223749 -0.866809 -0.060875 -0.463732 
-1.024791 0.324514 2.757081 0.932164 0.299701 0.150315 
-0.324284 -1.009848 0.079146 -0.588882 -0.137766 -0.784552 
0.797882 0.254049 1.193537 0.982294 0.004931 -0.150612 
-0.520177 0.568872 0.429102 -0.718011 0.647726 -0.156974 
-0.909640 -0.357043 2.224215 0.944285 0.155235 0.220945 
0.898085 0.032755 1.446398 0.976855 -0.030295 -0.197745 
0.449836 0.048223 0.013227 0.841928 -0.051118 -0.530927 
-1.124550 1.064937 2.592461 0.961320 0.163735 0.196796 
0.823642 -0.273919 1.040361 -0.945903 -0.121702 0.140980 
1.048455 0.193359 2.055978 -0.829346 0.168087 0.460671 
0.299695 -0.627383 -0.054202 0.603184 -0.177847 -0.754260 
0.616498 0.605755 0.811507 0.765799 0.457387 -0.416673 
0.500145 -0.229245 0.201376 0.864416 -0.052343 -0.477165 
-0.958530 0.119265 2.025073 -0.991516 -0.079002 -0.056194 
-0.303670 0.545295 0.316281 -0.380543 -0.078867 0.876678 
-0.606894 -0.126264 0.406437 0.586846 -0.149892 0.641292 
-0.996460 1.191146 2.018423 -0.961590 0.113069 -0.162300 
0.769405 0.418842 1.210908 0.991920 -0.004659 -0.102280 
1.176695 0.527826 2.778784 0.992741 0.070835 0.050930 
1.017431 -0.118687 2.279773 0.950859 -0.267895 -0.112273 
-0.018136 0.536451 0.428099 -0.071379 -0.019973 0.991365 
-1.068763 0.389534 3.304573 -0.976599 -0.213434 -0.025539 
1.137392 0.173584 2.593343 -0.979693 0.034328 0.007889 
-1.012389 0.986734 2.277276 0.918384 0.040377 0.294100 
0.792887 1.212692 1.873896 -0.810934 0.294929 0.419060 
-0.545824 -0.237675 0.288519 0.449480 -0.124664 0.752056 
-0.096812 -0.827302 -0.069512 -0.147806 -0.104331 -0.949171 
-0.954097 0.883470 1.937929 -0.917399 -0.274555 -0.210787 
-0.419905 -0.237432 0.027261 -0.832578 -0.096888 -0.533397 
0.787807 0.193089 1.094729 0.975039 0.024291 -0.179360 
-1.160396 0.918425 2.902261 -0.987013 -0.144207 -0.059934 
0.877463 -0.173324 1.963629 -0.875522 0.287145 0.349995 
-1.115400 0.647549 3.184961 -0.981770 -0.183183 -0.035134 
-0.587912 -0.693753 0.452220 -0.763517 -0.038756 -0.528780 
0.999003 0.831392 2.148750 -0.872370 -0.163664 0.416238 
0.746993 0.685292 1.490017 -0.832436 -0.311523 0.348263 
0.649215 1.056012 1.346269 0.316922 0.628081 -0.584958 
0.569916 0.488887 0.461877 0.785840 0.545894 -0.207631 
0.904171 -0.246748 2.091334 0.939406 -0.295669 -0.098869 
0.692984 -0.551274 1.688362 0.894328 -0.378192 0.129572 
-0.817522 -0.534986 2.024686 -0.929442 -0.213610 -0.290178 
-0.404814 -0.548798 0.059693 0.228860 -0.072798 0.959938 
0.351603 -0.201628 -0.082551 0.694373 -0.147898 -0.664643 
-0.741916 -0.811843 0.735048 0.775104 -0.123774 0.437699 
0.324039 0.095867 0.252825 0.442096 -0.194350 0.872741 
-1.012458 -0.054408 2.386068 0.980246 0.099931 0.128615 
1.134117 0.961042 2.840837 0.854086 0.453101 0.126526 
-0.862207 0.443194 1.588497 -0.943525 -0.139749 -0.187083 
-0.074133 -0.856032 0.066899 -0.051699 -0.334427 0.889571 
0.173053 0.413568 0.411350 0.340212 -0.078168 0.934962 
0.715150 -0.786687 0.638321 -0.699220 -0.192055 0.535734 
1.166537 0.493690 2.869695 -0.988433 -0.012236 0.019416 
0.831863 -0.181416 1.613561 0.919782 -0.229481 -0.060564 
1.156213 0.222193 2.760202 -0.975936 0.134775 0.120793 
-0.610213 0.428273 0.606565 0.923148 0.168845 0.328216 
0.505933 -0.493521 0.275318 -0.471969 -0.091083 0.771013 
0.129383 -0.073278 -0.245130 0.486861 -0.099130 -0.854463 
0.460353 0.566928 0.033336 0.783999 0.255818 -0.443178 
0.697515 -0.978015 0.480519 0.661545 0.416394 -0.541286 
0.522252 0.575505 0.313909 0.837101 0.486206 -0.145706 
0.858851 0.423291 1.565408 0.966739 -0.064420 -0.203434 
0.718653 0.252186 0.838764 0.973459 0.062128 -0.183330 
-0.250997 -0.731683 0.101925 -0.065750 -0.163134 0.877548 
-0.373586 0.520837 -0.101163 -0.633363 0.143309 -0.692449 
0.783658 0.431562 1.281704 0.990083 -0.018956 -0.115269 
0.355997 0.656887 -0.108295 0.617080 0.302774 -0.673423 
0.827006 -0.042235 1.151686 -0.950038 -0.074191 0.274711 
0.354455 -0.281183 -0.066889 0.752900 -0.142255 -0.611279 
0.929583 -0.542296 1.057146 -0.924951 -0.239461 0.161336 
-0.375221 -0.034407 0.186800 -0.172331 -0.168228 0.911195 
0.212289 0.895224 -0.060930 0.621034 0.451465 -0.629834 
0.789143 0.517758 1.373641 0.987807 -0.041462 -0.129602 
1.009125 0.034807 2.069432 -0.778534 0.254951 0.510818 
1.131006 0.846041 2.439190 0.955982 0.207078 -0.197933 
-0.506389 0.426159 0.482793 0.874869 0.047147 0.436788 
-0.543278 0.303305 0.388978 0.620232 -0.348698 0.674544 
-0.878997 0.197459 1.691444 -0.908012 -0.122607 -0.330826 
-0.786840 -0.384689 0.717791 -0.901724 0.028431 -0.335153 
-0.716415 0.857809 1.142943 0.970317 -0.026102 0.208131 
-0.247680 1.190623 0.535713 -0.708838 0.086325 -0.699706 
0.099268 -0.405913 -0.208643 0.348631 -0.325874 -0.867795 
0.764105 1.232468 1.804178 0.660883 0.718491 -0.078484 
-0.001119 -0.628761 -0.087199 -0.704742 -0.192549 -0.669606 
0.544726 -0.774445 0.407797 -0.603258 -0.105179 0.676951 
0.538130 0.476402 0.165873 0.900587 0.229423 -0.300184 
-1.083253 0.723017 2.523887 0.955361 0.147615 0.205500 
-0.846944 0.120490 1.623290 0.993242 0.022328 0.040587 
-0.200157 -0.260632 0.242099 -0.318439 -0.217567 0.901838 
-0.126676 0.178864 0.376485 -0.250326 -0.193356 0.941944 
0.970980 0.891262 2.200705 -0.872565 -0.180496 0.347897 
1.099520 -0.141008 2.848564 -0.978688 0.171160 0.059238 
-0.199671 0.214737 0.359278 -0.339117 -0.164697 0.922053 
-1.098458 0.554043 3.087084 0.982688 0.166044 0.051088 
0.855228 -0.096561 1.611962 -0.959141 0.127920 0.014416 
-0.508292 -0.448062 0.236087 0.404957 -0.075428 0.797924 
-1.143692 0.750194 3.643040 -0.985388 -0.169464 -0.013255 
-0.190019 -1.184423 0.072018 0.726589 -0.142474 0.479224 
-0.641467 -0.417357 0.476477 -0.834861 -0.036054 -0.454456 
-0.000599 0.354558 0.427234 -0.053935 -0.130974 0.989141 
1.172927 0.403535 2.708573 -0.972288 0.110657 0.139288 
-0.491090 -0.831927 0.318877 0.580168 -0.046628 0.719011 
0.614490 0.277901 0.443883 0.927973 0.062417 -0.311550 
1.122048 0.030530 3.070830 -0.991212 0.088023 -0.036344 
-0.938861 1.245945 1.846968 -0.885935 0.334550 -0.106757 
-1.024948 0.096505 2.402627 -0.972426 -0.148548 -0.135914 
0.048046 1.366991 0.181332 0.563894 0.706476 0.414138 
-0.749285 -0.065173 0.655567 0.840636 -0.132649 0.411223 
-0.283353 0.237201 -0.174235 -0.534148 -0.053795 -0.840327 
0.833744 -0.171347 1.035309 0.954005 0.061221 -0.206979 
1.013838 -0.156086 2.342410 -0.893423 0.286684 0.274249 
-0.510263 -0.733322 0.336628 0.610632 -0.042831 0.691139 
0.719853 1.044161 1.497549 0.985383 -0.094990 -0.133996 
0.790053 0.427652 1.435137 -0.885580 -0.195339 0.303320 
-0.761073 0.576563 0.875219 -0.970128 0.016774 -0.129872 
-0.943595 -0.070606 2.101837 -0.989327 -0.110885 -0.045333 
0.480319 0.114717 0.056540 0.848204 -0.030422 -0.520372 
0.743912 0.378533 1.062755 0.985800 0.022938 -0.121789 
-0.474319 -0.468533 0.173770 0.337633 -0.076153 0.855977 
-0.672005 0.323474 0.477683 -0.914555 0.109679 -0.353878 
-0.843749 0.002745 1.451302 -0.985626 -0.043798 -0.062119 
-0.878200 -0.137195 1.955220 0.769814 0.190609 0.558588 
-0.680819 0.597440 0.863000 0.969419 0.079922 0.193959 
1.080285 0.426017 3.455060 -0.986106 -0.024293 -0.157785 
-0.922384 -0.278815 2.200141 -0.973857 -0.148952 -0.124372 
1.059192 0.969451 2.461472 -0.933017 -0.146732 0.260522 
-0.733868 -0.389296 1.626315 0.962158 0.175762 -0.180963 
-0.905182 -0.697718 0.988075 -0.938642 0.121400 -0.224379 
-0.719247 0.792870 1.092576 0.926909 -0.123376 0.291094 
0.589271 0.794585 0.933002 -0.957812 -0.099653 0.177372 
0.302963 0.722177 -0.134358 0.537039 0.462015 -0.693804 
-0.593156 -0.482527 0.408879 -0.806200 -0.052161 -0.496431 
-0.223482 -0.618322 -0.066324 0.050322 -0.312889 -0.935219 
-0.784519 0.669883 1.343209 0.900207 -0.210395 0.306051 
-0.552963 -0.810036 0.419083 0.630970 -0.063967 0.648506 
0.293893 0.681560 0.338865 0.588269 0.198327 0.771738 
0.319679 -0.310503 0.185485 0.562688 -0.208357 0.793066 
1.149839 0.268234 2.917701 -0.981264 0.088712 0.037857 
0.152590 -0.542027 0.178376 0.201591 -0.267937 0.940039 
0.358056 0.330670 -0.127803 0.619433 -0.034633 -0.769811 
-0.212930 -1.264650 0.047866 -0.011755 -0.065016 -0.996852 
1.155357 0.595038 2.486384 -0.951037 -0.023029 0.252654 
-1.144432 0.874744 3.024151 0.995847 0.012505 0.019368 
-0.193196 1.094726 0.483161 0.244254 -0.115707 0.870386 
0.017606 -0.051700 -0.289192 0.392596 -0.138918 -0.882628 
0.823367 -0.201913 1.535096 0.948106 -0.161686 0.008536 
1.161159 0.374432 2.440967 -0.983100 -0.047446 0.030638 
0.884273 -0.017065 1.609775 -0.970044 0.082386 0.076684 
-0.043945 0.344604 -0.296826 -0.454007 0.065880 -0.884283 
-0.854220 1.089584 1.350070 -0.938601 0.162640 -0.281886 
0.199921 1.119660 0.083052 0.735951 0.457248 -0.415981 
0.952719 0.165595 1.876054 -0.871397 0.114861 0.379010 
-0.777355 0.313972 1.128972 0.919744 -0.142185 0.294068 
-0.940335 -0.202585 2.202838 -0.980359 -0.134934 -0.094672 
-0.774962 0.523899 1.277079 0.908572 -0.176020 0.295174 
0.929640 1.111171 2.117462 0.967663 0.197698 -0.134893 
-0.815080 -0.672135 0.830369 -0.891138 0.073308 -0.310610 
0.788708 0.017850 1.057975 -0.925518 -0.131379 0.311774 
-1.015156 -0.146489 2.442626 -0.988747 -0.124482 -0.078701 
0.829645 -0.716816 0.803854 -0.788979 -0.241014 0.421762 
0.946326 0.415224 1.795692 -0.969757 -0.198619 0.081584 
0.886427 -0.245717 1.452157 -0.968466 -0.021108 -0.019234 
-0.685910 0.691249 0.937237 0.982053 0.031633 0.156346 
0.375302 -0.107315 -0.068928 0.725910 -0.122065 -0.637981 
0.922116 0.741162 1.858540 0.939410 0.075777 -0.236286 
-0.605162 -0.074853 0.310442 -0.880727 -0.020738 -0.437901 
-0.137903 1.162288 0.035750 -0.545901 0.462384 -0.685629 
0.781498 -0.524983 2.125540 0.903603 -0.383569 -0.179465 
-0.022406 0.167973 -0.316467 -0.459078 -0.002776 -0.879290 
-0.657745 0.430914 0.530578 -0.749459 0.524510 -0.349589 
-1.127393 0.725436 3.296524 0.988274 0.107445 0.026652 
-0.853366 -0.140157 0.951189 -0.965347 0.022238 -0.175699 
-0.873226 -0.493687 0.908358 0.926479 -0.133439 0.270242 
0.708873 0.936891 1.283675 0.915641 0.249139 -0.256440 
0.596262 -0.731757 0.480078 0.735949 0.028909 -0.557984 
0.661847 0.217709 0.769117 -0.871985 -0.321686 0.356954 
-0.269568 0.916416 0.300619 -0.830833 0.087067 0.507240 
-1.060811 0.381125 3.181584 0.966975 0.229268 0.061602 
-0.253965 -0.322034 0.207248 -0.431746 -0.215940 0.849224 
0.660596 0.351694 0.627390 0.853438 0.374321 -0.242779 
0.835687 -0.092874 1.064651 0.956410 0.042156 -0.260243 
0.038104 0.079833 0.359905 0.135868 -0.242386 0.956305 
1.048293 0.682666 2.162884 -0.900787 -0.210641 0.339825 
0.937884 0.781974 1.923291 0.927854 0.037270 -0.301439 
1.107033 0.026041 2.611915 -0.970018 0.122597 0.062781 
1.158006 0.893032 2.875802 0.985697 0.128565 0.027923 
-0.042807 0.424413 0.426538 -0.124899 -0.079512 0.977711 
-0.888190 -0.626588 0.952610 0.916609 -0.151433 0.262258 
-0.218895 -0.775056 -0.033921 -0.082175 -0.259364 -0.954543 
0.324721 -0.097935 -0.121992 0.591981 -0.151260 -0.766345 
-0.688640 0.799157 0.865052 -0.843407 0.260549 -0.458022 
-0.994239 -0.127649 2.354633 0.936512 0.125431 0.198441 
0.758818 -0.510344 1.474743 -0.923645 0.186591 -0.218474 
-0.595113 -1.047476 0.325667 0.603728 -0.461904 0.603441 
1.129432 0.918248 2.571467 0.965888 0.186861 -0.144117 
0.917462 0.853268 1.916808 0.931397 -0.034954 -0.291469 
0.292234 0.108788 -0.161197 0.546972 -0.096632 -0.825708 
-0.853995 -0.292556 1.386822 -0.963043 0.010303 0.143028 
0.525483 0.267578 0.161421 0.872783 0.003241 -0.460718 
0.556941 -0.240182 0.322701 0.880334 -0.026103 -0.444844 
0.679346 0.289878 0.889038 -0.852685 -0.304595 0.399546 
0.720853 -0.541653 1.840199 0.892172 -0.384618 -0.013648 
-0.566141 0.531947 0.377403 -0.766478 0.556254 -0.246094 
-0.308975 -0.358705 0.178503 -0.553116 -0.215420 0.793885 
0.948245 0.304523 1.739734 -0.974663 -0.151686 0.024433 
-0.614455 0.266739 0.330738 -0.884012 0.042862 -0.436652 
0.096012 -0.948297 -0.066227 0.273663 0.010343 -0.935426 
-0.737027 0.885570 1.080381 0.869274 0.270737 -0.063936 
0.733558 0.762540 1.504528 -0.816295 -0.346863 0.362215 
0.892137 -0.079419 1.386557 0.972529 -0.000801 -0.129507 
0.982839 0.469375 1.837094 0.973775 0.174811 -0.026171 
0.688962 0.705706 1.019204 0.898455 0.259650 -0.293061 
-1.100788 0.604869 2.818419 0.966964 0.199487 0.108936 
0.383024 0.546152 0.294802 -0.694274 0.180442 0.519143 
-0.382044 -0.218002 0.131950 -0.112011 -0.137332 0.928542 
-0.763442 0.341162 0.928982 0.896006 -0.201088 0.366671 
0.805107 -0.654386 0.778945 -0.794808 -0.221197 0.427257 
0.836521 1.140706 1.887331 0.978030 0.165357 -0.103410 
-0.785963 -0.359405 1.789694 0.963488 0.151879 -0.047276 
-0.948935 1.013136 1.868964 -0.981097 -0.113444 -0.108720 
-0.564964 0.145424 0.171525 -0.853917 0.007127 -0.497943 
0.869242 0.901772 1.867253 -0.776665 -0.394985 0.409017 
-0.288488 -0.841399 -0.008667 -0.467408 -0.191341 -0.823435 
1.043200 0.436171 1.985066 0.958690 0.121983 -0.161697 
-0.985056 0.434848 2.091224 0.957605 0.044360 0.270638 
-0.357813 0.251137 -0.124600 -0.596986 -0.052175 -0.784530 
-0.770601 -0.487359 1.821634 -0.929725 -0.222978 -0.121259 
-0.960683 0.673391 2.006124 0.935934 -0.043072 0.298087 
-1.077000 0.467727 3.055459 0.967274 0.217947 0.078586 
-1.009108 0.297312 2.655643 0.984294 0.110228 -0.021175 
1.103687 0.568217 3.294522 -0.974424 -0.104236 -0.155929 
-0.943125 0.723200 1.944412 0.920157 -0.076213 0.321416 
0.722531 0.438501 1.020350 0.988190 0.028048 -0.106053 
0.557672 0.642808 0.687371 0.900993 0.301521 -0.310399 
0.406416 -0.941856 0.196500 -0.467949 -0.056035 0.834931 
-1.004156 0.543073 2.124847 -0.956296 -0.066664 -0.265506 
0.231582 -0.507021 0.170647 0.330962 -0.227557 0.913429 
-0.240239 -0.980325 0.019650 -0.129923 -0.186188 -0.972241 
-1.023730 0.281004 2.572376 0.986730 -0.024649 -0.110060 
0.265366 1.015835 0.158322 0.896695 0.388431 -0.094525 
0.956885 0.612282 1.908471 -0.848626 -0.196817 0.440677 
-0.936306 0.575349 1.892285 -0.969813 0.000301 -0.122668 
0.560940 0.514260 0.378091 0.819978 0.491120 -0.211393 
-0.919467 1.189019 1.760601 -0.990726 -0.104078 -0.026188 
0.210159 -1.079640 0.072303 -0.367908 -0.017143 0.907663 
0.943114 1.017898 2.208698 -0.870186 -0.194376 0.354326 
-1.077936 0.510090 2.855517 0.954286 0.240415 0.122259 
0.809748 0.182965 1.183669 0.977417 0.009278 -0.174668 
-0.063267 -0.083054 -0.268223 -0.423794 -0.137116 -0.871680 
0.954648 -0.763463 0.969067 0.876698 0.269883 -0.303899 
0.813266 -0.313655 1.499738 0.942436 -0.149411 0.084603 
0.192619 -0.737541 0.113898 0.000884 -0.217070 0.893538 
0.568268 0.381283 0.615155 -0.939728 0.181763 0.255770 
0.974565 -0.111061 2.112651 0.955931 -0.255163 -0.068963 
0.457965 0.260901 0.248583 -0.552648 -0.297021 0.768984 
-0.181514 0.520543 0.395685 -0.305907 -0.054511 0.947000 
-0.958177 0.796532 1.959546 -0.929986 -0.193422 -0.230641 
1.172058 0.794436 2.843490 0.992864 0.093883 0.023706 
0.729524 -0.210353 0.673137 0.919703 0.061521 -0.360133 
-0.801601 -0.605547 0.804889 0.853799 -0.122007 0.357536 
-0.722054 0.303251 0.627143 -0.941408 0.103519 -0.305213 
0.530900 0.040756 0.183940 0.864393 -0.012921 -0.485560 
-0.206084 0.036338 0.311567 -0.344871 -0.224014 0.902863 
-0.036697 -0.995549 -0.004572 -0.291089 -0.342005 0.869474 
0.376972 0.472799 0.327787 -0.857075 0.026487 0.499375 
0.007261 -0.929370 0.047785 0.538004 -0.291759 0.775167 
-0.036382 1.064297 -0.036889 -0.309064 0.486241 -0.806664 
-1.027022 0.331764 2.177589 -0.981942 -0.046844 -0.180891 
-0.870310 0.732929 1.743049 0.845550 -0.105153 0.461447 
-1.024940 0.255399 2.436006 0.984774 0.002007 -0.008337 
-0.630228 -0.684994 0.530066 0.710075 -0.075862 0.554051 
0.010787 0.283646 -0.326511 0.466371 0.051146 -0.881769 
0.800466 0.348212 1.286929 0.989815 -0.015245 -0.119294 
0.770357 -0.154831 0.822948 -0.929737 -0.139191 0.336916 
-0.516072 0.300369 0.319738 0.576857 -0.347022 0.721184 
0.805376 0.158648 1.256308 -0.922958 -0.122723 0.289525 
-0.325296 -0.781919 0.016314 -0.670361 -0.142568 -0.707019 
-1.048596 0.715935 2.337580 0.933545 0.154026 0.289517 
0.282256 0.316858 0.313239 0.317103 -0.133639 0.928644 
-0.851377 -0.189711 1.313579 -0.969000 -0.000404 0.028139 
-0.837236 -0.168691 1.028805 0.959213 -0.060353 0.145714 
1.113215 0.316139 2.195258 -0.958516 0.066584 0.269151 
-0.030297 0.542491 -0.268747 -0.390303 0.161712 -0.902083 
-0.867029 0.376026 1.811078 0.976450 -0.019996 0.130106 
-1.058883 0.653978 2.291294 -0.969795 -0.113395 -0.211971 
-0.147865 -0.149631 -0.228223 -0.483096 -0.138531 -0.849275 
-0.153305 1.162703 0.305212 -0.920991 -0.149837 0.160993 
1.128590 0.678978 2.375447 -0.932035 -0.108552 0.322047 
0.658897 0.370678 0.553899 0.959335 0.191512 -0.185604 
0.814765 -0.376521 0.803211 0.905225 0.133237 -0.340561 
0.712079 -0.486140 1.630214 0.889322 -0.366974 0.137236 
0.297612 -1.077150 0.084591 -0.151233 0.030088 0.886406 
0.718991 0.093555 0.856363 -0.884545 -0.232235 0.377700 
0.351844 0.200141 -0.121157 0.616750 -0.072503 -0.764037 
-0.832214 -0.049474 1.103011 0.969085 -0.035752 0.204487 
-0.987361 0.647750 2.073971 -0.944417 -0.098403 -0.277762 
-0.948872 -0.096407 2.922194 -0.983337 -0.172437 0.018634 
-0.704522 -0.790516 0.670707 -0.819193 0.030273 -0.417747 
-0.907940 0.958035 1.820315 0.874830 -0.232795 0.340339 
-0.842191 0.821425 1.642541 0.903338 -0.179951 0.179146 
-0.756714 0.656570 1.189437 0.881798 -0.241808 0.356636 
-1.080290 0.445827 3.354975 0.979228 0.198534 0.032098 
-0.801095 -0.111065 0.673048 -0.944978 0.023643 -0.304873 
-0.791324 0.217036 1.102214 0.931536 -0.117480 0.278212 
-0.983944 0.097558 3.107204 0.979388 0.190255 -0.000961 
0.561599 0.154499 0.440581 -0.694151 -0.258210 0.615416 
-0.834840 -0.011670 1.363722 0.981180 -0.000170 0.107782 
-0.057602 -0.439602 -0.198690 -0.230291 -0.412121 -0.876548 
-0.188949 -0.480582 -0.131614 -0.251659 -0.388414 -0.855797 
0.139170 0.976558 0.425572 0.206932 -0.207706 0.954632 
-0.307083 0.502504 -0.173926 -0.548321 0.066067 -0.825343 
-0.797335 -0.068609 0.745672 0.915153 -0.123767 0.336370 
1.130261 0.082753 3.003651 -0.987727 0.096452 -0.002606 
-0.495833 0.574081 0.096599 -0.821441 0.367584 -0.328568 
0.799609 -0.246721 1.584527 0.922429 -0.241808 0.010553 
0.065007 -0.312136 0.248707 0.081537 -0.220948 0.967821 
-0.067488 0.623821 -0.235021 -0.347973 0.195966 -0.905262 
0.139666 1.167652 0.041583 0.561319 0.473530 -0.654251 
0.155432 -1.252995 0.040141 -0.096965 -0.143075 -0.880531 
0.379544 -0.805545 0.096232 -0.357212 -0.053472 0.914941 
-0.793778 0.789159 1.405192 0.894403 -0.236623 0.312162 
-1.069083 0.934427 2.468156 0.947515 0.079599 0.226873 
-0.780486 0.630896 1.066848 -0.992342 -0.102226 -0.020095 
0.184265 -1.043466 0.006686 0.327220 -0.089812 -0.907338 
1.149501 0.400377 3.044061 -0.992970 -0.017747 -0.057794 
-0.818836 0.583147 1.333863 -0.982833 -0.140056 -0.042596 
-0.993599 0.079930 2.200970 -0.988341 -0.086721 -0.092997 
0.771320 0.647541 1.548813 -0.847365 -0.277189 0.325304 
0.677090 -0.524524 0.622256 -0.761800 -0.141404 0.503824 
-0.595148 0.121380 0.418705 0.650477 -0.248058 0.624426 
0.676470 0.279310 0.637337 0.965085 0.102965 -0.211650 
-0.920842 1.114715 1.783271 -0.993137 -0.085086 -0.022694 
-1.104986 0.596014 3.007107 -0.981057 -0.184983 -0.048194 
0.874092 -0.396511 0.883175 0.925240 0.174804 -0.300960 
-0.647918 0.001561 0.492530 0.696854 -0.187125 0.559371 
-0.126348 -0.245835 0.265823 -0.173817 -0.219857 0.958727 
-0.430751 0.679621 0.187427 -0.670640 0.709759 -0.089245 
-0.887673 -0.309948 2.113254 0.884299 0.171469 0.341904 
0.216147 -1.293029 0.061119 0.286095 -0.040363 -0.885609 
0.445633 0.674529 0.252451 0.733302 0.646590 -0.040865 
0.869114 0.760683 1.795925 -0.779147 -0.299722 0.468398 
0.241869 -0.199316 -0.174838 0.515144 -0.170530 -0.831888 
-0.805592 -0.405955 0.782647 0.888850 -0.103334 0.339984 
-0.851414 -0.351541 1.279071 0.957835 -0.055441 -0.121482 
0.667315 0.671939 0.947304 0.790775 0.402054 -0.434707 
-0.675596 0.249563 0.656149 0.796833 -0.330892 0.475359 
0.087442 1.310543 0.120857 0.688047 0.621422 -0.292437 
-0.792416 -0.533015 0.779038 0.858408 -0.111865 0.363029 
-0.746426 -0.370940 0.646542 -0.880624 0.006618 -0.373809 
0.155625 1.045454 0.448484 0.040333 -0.171508 0.936524 
0.301107 0.204561 0.289613 0.408773 -0.167296 0.893796 
0.197152 0.302708 -0.221460 0.524011 -0.005655 -0.846767 
-0.803178 1.046219 1.480884 0.874384 -0.306684 0.345543 
-1.143724 1.071133 2.704439 -0.957787 0.238532 -0.075536 
-0.064037 1.238960 0.313693 -0.092158 0.809353 0.571033 
-0.373874 0.057140 0.216663 -0.195553 -0.193219 0.890571 
0.134641 0.002479 0.330317 0.243761 -0.227118 0.939997 
1.133301 0.188261 3.083641 -0.989047 0.060238 -0.046598 
0.330126 0.788587 0.026999 0.771546 0.500944 -0.303834 
0.856933 -0.422296 1.079853 -0.944756 -0.154052 0.043158 
1.113828 0.186472 2.397607 -0.964997 0.082415 0.131440 
0.732502 1.090866 1.557610 0.971825 -0.079526 -0.146845 
0.494565 0.527617 0.462964 -0.905663 0.195684 0.350740 
0.465234 -0.662559 0.249445 -0.482412 -0.073562 0.788800 
1.165757 0.311264 2.523868 0.911643 -0.269076 -0.303092 
-0.695696 0.751131 1.021765 0.945751 0.037628 0.130886 
0.252637 0.264941 -0.191767 0.543938 -0.037645 -0.834742 
0.602041 -0.561226 0.514994 -0.705910 -0.108217 0.576306 
0.624208 1.482799 1.606653 0.866702 0.372969 -0.055874 
1.127609 0.114243 3.084191 -0.990318 0.071657 -0.045198 
0.887299 0.621062 1.778009 -0.788149 -0.183264 0.523428 
1.096186 0.364066 3.378108 0.986350 0.001086 0.157022 
0.754673 -0.592316 0.718704 -0.785337 -0.188448 0.454754 
0.715807 -0.137950 0.622049 0.920700 0.059434 -0.366905 
0.782334 -0.819319 0.725401 -0.728046 -0.229652 0.486865 
0.781297 0.332729 1.189063 0.987169 0.002784 -0.125369 
-0.790704 -0.334318 1.469891 0.964688 0.060789 -0.135600 
-0.931123 1.062873 1.951174 0.873589 -0.002246 0.422769 
-0.674523 -0.555739 1.536967 0.951036 0.227115 -0.205328 
-0.392971 0.045038 -0.078627 -0.686761 -0.084528 -0.685672 
0.086291 -0.524232 -0.128799 0.036362 -0.433943 -0.895729 
-1.101991 0.570178 3.250718 -0.980311 -0.192155 -0.030738 
0.811896 1.069321 1.888449 -0.794915 -0.246500 0.493358 
-1.100029 0.584665 2.930102 -0.983041 -0.169080 -0.036516 
0.870444 0.990085 1.951945 -0.816823 -0.219706 0.485000 
-0.419546 -0.138785 -0.003288 -0.826149 -0.079846 -0.548809 
0.784066 -0.352433 1.747256 -0.926317 0.286018 -0.146028 
1.135156 0.249073 3.128119 -0.989745 0.039766 -0.071109 
0.744727 0.162362 0.875394 0.965617 0.063383 -0.209083 
1.093966 1.070148 2.581791 0.888426 0.422617 -0.116593 
