-1.288462 0.235691 2.720954 0.605841 -0.750937 0.212129 
1.319401 0.040500 1.988020 -0.702765 -0.332277 0.594473 
0.481265 0.466892 0.527755 -0.824363 -0.301951 0.426735 
-1.059226 0.297288 0.833091 -0.810941 0.426924 -0.383163 
0.361163 -0.059360 0.317531 0.432151 -0.229542 0.854448 
-0.098381 0.811712 -0.078991 -0.470311 0.355521 -0.785437 
1.076499 0.858727 2.255193 0.594925 0.286410 -0.730389 
0.400514 0.535075 0.051051 0.620536 0.214618 -0.602928 
1.090789 0.431732 1.901788 0.806279 0.486543 -0.293381 
-0.423682 1.180175 1.903975 0.755702 -0.564030 0.321716 
-0.546562 1.020236 1.487833 -0.867316 0.372345 0.104478 
0.842233 0.868029 1.968269 0.678105 0.557609 -0.472344 
1.118441 -0.597748 0.730445 -0.419310 -0.685540 0.522359 
-1.336490 0.041311 1.203617 -0.777836 0.381476 -0.488057 
0.256964 -0.444148 -0.074107 0.449765 -0.152110 -0.847870 
0.109086 -0.725925 -0.044348 0.036939 -0.033056 -0.977702 
1.244649 1.182333 2.725457 -0.565750 -0.594317 0.568422 
-0.038537 -0.543268 0.251343 -0.178557 -0.305153 0.913011 
0.405099 1.038202 1.631807 -0.542687 -0.536662 0.574294 
0.908585 0.945239 2.167707 -0.649055 -0.537632 0.529749 
-0.596572 0.870122 2.215094 -0.884152 0.450817 -0.079693 
-0.552897 0.812268 1.001477 0.784752 -0.573997 0.164957 
-0.434071 0.616746 0.424988 -0.350671 0.895615 -0.123787 
-0.601955 0.593485 0.681877 0.846750 -0.380658 0.339015 
0.091019 0.683321 -0.127287 0.339663 0.185962 -0.904321 
-0.628460 0.772016 1.135610 0.629311 -0.696835 0.319480 
0.493299 1.270571 1.903208 0.762598 0.502878 -0.368638 
0.315999 -1.285704 -0.010271 0.748783 0.086100 0.589429 
-0.516231 1.061416 1.195788 -0.835974 0.521945 0.001176 
-0.095852 -0.804119 0.095419 -0.084231 -0.455576 0.860335 
0.397230 1.392878 1.925226 0.356714 0.848708 -0.306322 
0.563740 0.869627 1.573845 0.812424 0.391106 -0.289291 
0.326861 -0.450648 0.207886 0.443485 -0.294301 0.831074 
1.106952 0.040081 0.931467 0.772965 0.450468 -0.405572 
0.644399 0.929836 1.801777 -0.559136 -0.534990 0.592210 
0.836133 1.203790 2.294604 0.674985 0.511967 -0.530256 
-0.641506 -0.255970 0.334271 0.281915 -0.276106 0.815173 
-0.624102 0.816682 2.253608 -0.876195 0.467656 -0.101132 
0.167701 -0.796680 -0.018092 0.002516 -0.038339 -0.993987 
-1.053035 0.438162 1.990152 -0.513660 0.842250 0.147188 
-0.710003 -0.474298 0.393094 -0.624366 0.195915 -0.669408 
-1.065273 0.568117 2.884953 -0.685556 0.605085 -0.391899 
-0.797818 0.602901 1.840078 -0.622069 0.744647 0.211008 
-0.398717 0.191864 -0.004107 -0.568047 0.012183 -0.796526 
-0.348467 -0.020188 0.344587 -0.466608 -0.238539 0.847297 
0.635458 0.499662 0.882660 -0.617823 -0.689895 0.350037 
0.201460 1.320664 1.516294 0.627902 0.554746 -0.486062 
0.075845 0.637640 0.489736 0.065366 0.253238 0.951855 
-1.188100 -0.279557 0.963872 0.703783 -0.272796 0.589528 
0.271444 0.572554 -0.086213 0.493339 0.080772 -0.848216 
0.503318 0.602356 0.619144 -0.881591 -0.312827 0.267991 
1.457997 1.325102 3.056346 -0.600246 -0.465494 0.630508 
0.001265 0.826108 0.491306 0.108822 -0.248234 0.957954 
1.107102 0.104219 1.684841 0.778714 0.309098 -0.212933 
1.158366 -0.136865 1.581645 0.856580 0.332380 0.138645 
-0.225260 0.993203 0.102919 -0.704424 0.388453 -0.538385 
0.799136 -0.434056 0.545278 0.624136 0.286063 -0.610865 
-0.452200 1.127708 1.863035 -0.901660 0.385233 0.081493 
0.670717 0.017580 0.382507 0.792021 0.170637 -0.534083 
0.272814 -0.252479 0.309708 0.442715 -0.294006 0.837282 
0.442535 0.552153 0.496483 -0.872017 -0.229937 0.389652 
1.604332 1.017969 2.917421 -0.568415 -0.557828 0.604495 
0.272258 0.973890 0.345706 0.895980 0.233217 0.297635 
-0.401983 -0.864690 0.055696 -0.523344 0.053264 -0.823236 
0.854481 0.380068 0.926165 0.818758 0.493151 -0.214523 
0.720230 0.538434 1.316651 -0.667197 -0.633297 0.358435 
0.792377 0.376063 0.891505 -0.634679 -0.654644 0.388918 
0.563232 0.606209 0.954176 -0.652844 -0.677099 0.294461 
-0.524287 0.447670 0.535269 0.580953 -0.610676 0.523849 
0.022964 0.657449 -0.146058 0.268780 0.131093 -0.949782 
0.270080 1.097964 1.274939 -0.797879 -0.188413 -0.312716 
1.319473 -0.160339 1.829795 0.818991 0.356046 -0.246037 
0.900839 0.366781 1.586979 -0.783299 -0.545089 0.256086 
-0.527776 0.604928 0.440041 -0.422452 0.833198 -0.226784 
-0.949284 0.413475 2.344848 0.492264 -0.837367 -0.197894 
1.186292 0.598914 2.215037 -0.660838 -0.421415 0.606626 
0.346073 1.084478 1.452178 0.908142 0.391902 -0.072824 
-1.114913 0.624069 3.033134 0.654756 -0.617674 0.430427 
0.887002 0.356504 1.324263 -0.743348 -0.555328 0.350073 
0.890359 0.277525 0.906067 -0.683881 -0.588677 0.402856 
-0.367780 -0.795399 0.030315 -0.569321 0.022720 -0.790711 
1.199853 0.734738 2.306644 0.579942 0.220994 -0.780033 
1.334882 1.051113 2.692545 0.595681 0.533736 -0.598732 
-0.305555 0.883976 0.269457 -0.910303 0.266949 0.133928 
-1.010818 0.632527 2.899668 0.683798 -0.614083 0.383395 
-1.370270 -0.022203 1.233689 0.763405 -0.350622 0.527960 
-1.021041 0.551659 2.781954 -0.689971 0.624042 -0.330400 
-0.756819 -0.470795 0.449829 -0.634543 0.193087 -0.664313 
1.524051 0.948335 2.779949 -0.572686 -0.553490 0.603863 
1.146855 -0.071614 1.618310 -0.860031 -0.386688 -0.151801 
-0.595671 0.828660 1.991808 -0.847602 0.483889 0.001695 
0.696350 -0.500295 0.431844 0.612189 0.227056 -0.662269 
-0.240502 1.031326 0.163035 -0.809465 0.405226 -0.339512 
-0.840720 0.507763 0.791927 -0.759879 0.567897 -0.311325 
-1.514195 0.083334 1.627929 0.281826 -0.663966 0.416793 
0.342808 1.352401 1.851811 -0.695820 -0.358652 0.586392 
0.991481 0.684499 2.005871 -0.626955 -0.397003 0.637263 
-0.639893 0.973686 2.712370 -0.816668 0.475410 -0.295803 
-0.284853 -1.260498 0.013523 0.186861 -0.126852 0.932669 
0.829032 0.294632 0.807114 -0.637118 -0.611158 0.426030 
-0.753533 0.684621 1.476897 -0.779438 0.559434 0.002505 
0.271823 -0.022563 0.384685 0.407717 -0.254546 0.868873 
1.204036 -0.253697 0.978540 0.638163 0.522102 -0.423375 
0.753307 -0.370809 0.507349 -0.522054 -0.339489 0.680112 
-1.177476 0.116642 0.950724 0.789344 -0.393537 0.450946 
-1.118695 0.377460 1.750946 -0.574135 0.790349 -0.193244 
-0.962872 0.399159 1.279248 -0.753322 0.605129 -0.142206 
0.482138 0.616966 0.354221 0.632419 0.718356 -0.141405 
0.659323 0.534244 0.941350 -0.583436 -0.703407 0.397654 
-0.468559 0.976141 0.953684 0.824629 -0.431549 0.129661 
-0.948639 0.163523 0.702103 0.622723 -0.418626 0.556125 
-0.509666 1.102706 2.532198 0.859812 -0.469834 0.160883 
0.369159 -0.862722 0.094126 -0.081428 -0.230013 0.919048 
0.968943 0.139643 0.756130 0.798313 0.363092 -0.447635 
1.076423 0.283359 1.791481 -0.820539 -0.515332 0.096317 
0.403734 -0.295532 0.111848 0.807530 -0.013394 -0.570617 
0.743037 -0.293120 0.503743 0.705079 0.235386 -0.573869 
-0.589297 0.832113 2.064160 0.861492 -0.440167 0.226016 
0.334692 0.671374 0.351949 0.788829 0.199961 0.508496 
1.549665 1.302440 3.122746 -0.579864 -0.538424 0.609660 
0.082628 -1.028771 -0.068726 -0.001569 -0.505163 0.825562 
-0.940518 0.506074 2.073943 0.533969 -0.797976 -0.003864 
1.198967 -0.110340 1.672515 -0.847850 -0.377062 -0.048766 
-0.678774 0.693992 2.090101 -0.781779 0.609792 0.012360 
-0.265064 -0.294836 -0.076687 -0.524557 -0.139745 -0.837727 
0.382768 0.198724 0.380148 0.324432 -0.205012 0.869419 
0.001734 0.001657 -0.198403 0.380509 -0.075165 -0.900589 
-0.498352 1.005737 1.328484 0.608982 -0.734047 0.275433 
-0.056214 1.118302 0.060504 -0.378377 0.427297 -0.809216 
-0.760771 0.054341 0.451464 -0.798896 0.201600 -0.511997 
0.530288 1.292008 1.973388 0.749413 0.503377 -0.393423 
0.008775 -1.085572 -0.138940 0.477203 0.269914 -0.809603 
-0.487100 1.088383 2.045039 0.765162 -0.557419 0.309339 
-0.458189 0.459700 0.468127 0.656295 -0.536276 0.493221 
-0.468665 -0.074327 0.238923 0.012897 -0.290045 0.900742 
0.253811 0.433799 0.448833 0.267633 0.020525 0.957581 
-0.796080 -0.850367 0.350158 0.371494 -0.493828 0.725990 
-1.280599 -0.148508 1.067101 -0.795265 0.257443 -0.508989 
0.385752 1.020498 1.367393 0.894455 0.421691 -0.047634 
0.882638 0.387336 1.496323 -0.764211 -0.557597 0.313269 
-0.973460 0.495138 2.141400 0.530733 -0.833088 -0.108560 
-0.295580 0.371445 0.430220 -0.288439 -0.002275 0.950267 
-0.005812 0.352475 -0.197258 -0.422412 0.071475 -0.901918 
0.497343 0.052243 0.132228 0.777408 0.064835 -0.605511 
0.161911 0.035118 0.465073 0.292821 -0.277854 0.911876 
-0.070129 -0.057075 -0.170292 -0.436934 -0.070132 -0.878891 
-1.208317 0.144687 1.013007 0.778743 -0.413144 0.462264 
0.099600 1.288669 0.185921 0.712521 0.581437 -0.367433 
0.739987 0.443742 0.669692 0.793652 0.495348 -0.257322 
0.722397 0.311284 0.475213 0.782353 0.300931 -0.462595 
-0.038665 0.928806 -0.051116 -0.412976 0.501828 -0.743602 
0.344512 0.947931 1.082743 0.332831 0.688970 -0.472191 
0.818453 -0.511454 0.551451 0.589547 0.301161 -0.617935 
-1.402045 0.130667 1.565828 0.220031 -0.605636 0.432786 
-0.542975 1.034971 2.374924 -0.886443 0.441907 -0.107501 
-0.725162 0.720420 1.335492 -0.804518 0.538633 0.037888 
-0.696927 0.733689 1.685111 -0.774135 0.617702 0.039058 
1.446955 -0.100080 1.248256 0.664374 0.662239 -0.297403 
-1.148732 0.765180 3.234635 0.641895 -0.597121 0.474934 
1.172618 1.012045 2.507733 -0.585479 -0.482511 0.642311 
-0.508830 -0.998988 0.078760 -0.396887 0.280941 -0.815463 
1.073204 0.171370 1.494807 0.689971 0.586663 0.055900 
-0.621211 0.807984 1.257477 0.630649 -0.714304 0.266234 
1.423081 0.750937 2.493067 0.570154 0.587699 -0.546448 
0.344133 1.257928 1.670119 0.765068 0.505191 -0.380141 
0.355621 0.755388 0.166806 0.912261 0.367347 -0.096291 
1.436941 -0.120131 1.335875 0.618624 0.683319 -0.065892 
0.252731 0.643455 -0.092972 0.501476 0.176624 -0.828519 
0.552826 0.698915 1.137606 -0.565804 -0.704522 0.412768 
1.214373 0.024708 1.086727 0.731072 0.529149 -0.246918 
1.116927 0.067920 1.150011 -0.705137 -0.541937 0.143633 
-1.086976 0.710573 3.095340 -0.676728 0.570053 -0.455829 
-0.509859 0.312445 0.057144 -0.715770 0.141338 -0.680404 
0.753051 1.121677 2.115357 0.691999 0.546854 -0.453769 
0.838373 1.286833 2.395208 -0.609268 -0.556196 0.560397 
1.239692 0.103914 1.924714 -0.697759 -0.339204 0.598623 
-0.717459 -0.763624 0.415063 -0.573142 0.109053 -0.766841 
1.483542 1.108796 2.882455 0.590285 0.524052 -0.610710 
1.581105 0.593966 2.487664 -0.530440 -0.435856 0.724824 
-0.627715 0.862420 1.207671 -0.859739 0.456360 0.089157 
-0.178769 1.193910 0.278351 -0.741000 0.630521 -0.083009 
0.373264 1.036746 1.243713 0.401129 0.684270 -0.428829 
0.077494 0.193096 -0.173237 0.465884 0.022942 -0.880114 
0.975730 1.110404 2.382531 0.638795 0.541678 -0.542533 
0.679013 0.871544 1.720663 0.764190 0.606455 -0.148232 
1.276101 1.369716 2.921700 -0.637686 -0.319100 0.666889 
0.032147 1.312880 0.297722 0.385271 0.718482 0.523857 
-0.380787 -0.114507 0.018655 -0.712128 -0.002049 -0.678810 
-1.114266 0.337514 1.649498 -0.431127 0.638545 -0.505976 
-0.734233 0.466332 0.751511 0.500423 -0.676670 0.530706 
0.167991 -0.336522 0.308718 0.181835 -0.333234 0.916575 
0.352955 -0.301797 0.043686 0.804953 -0.045327 -0.588247 
-1.089717 -0.029345 0.845694 0.729814 -0.366107 0.512815 
-0.138466 -0.411741 0.288202 -0.098664 -0.331857 0.937008 
0.015674 -1.013371 -0.102671 0.440720 0.265669 -0.838307 
-1.063088 0.458550 2.702432 0.690417 -0.580752 0.401861 
1.131102 0.020404 1.659181 0.803998 0.318039 -0.107279 
-0.354602 -0.274122 0.250149 -0.433442 -0.271775 0.833629 
0.367086 -0.480363 0.156266 0.178995 -0.258826 0.909149 
-0.508387 0.915310 0.954053 0.870145 -0.417263 0.057411 
1.070300 0.152481 1.206434 0.753946 0.506263 -0.188280 
0.339448 -0.445087 0.036762 0.764938 -0.045533 -0.620835 
-0.362269 -0.702400 0.125977 -0.068344 -0.246840 0.912017 
0.263079 1.223182 1.596564 -0.336037 -0.734385 0.565110 
1.555493 0.862327 2.728060 -0.560336 -0.522202 0.636424 
0.664308 1.349387 2.245722 -0.592660 -0.561273 0.566827 
-0.652807 0.652415 0.869385 0.850706 -0.446602 0.205885 
-0.536889 0.489200 0.203226 -0.686029 0.434851 -0.450619 
-1.274917 0.196898 1.536020 0.205691 -0.585581 0.378594 
0.540144 0.584629 0.430836 0.582348 0.734308 -0.203061 
1.036081 0.622225 1.980160 0.754720 0.508812 -0.383000 
-0.957678 -0.036703 0.690790 0.653777 -0.374668 0.553166 
-0.265984 0.453554 0.439294 -0.271296 0.042508 0.958455 
-0.945561 -0.177363 0.661319 -0.721808 0.276394 -0.546765 
-1.196202 0.368089 2.208396 0.441980 -0.867962 -0.079780 
0.891845 1.428720 2.581217 0.496278 0.754808 -0.419560 
0.447952 1.388263 1.980617 0.407096 0.797743 -0.342595 
0.698754 0.382326 0.751273 -0.565423 -0.668678 0.452316 
0.042256 0.406391 -0.168104 0.404388 0.060880 -0.909513 
-0.010114 -0.089819 -0.189893 -0.361354 -0.120035 -0.903612 
-0.307137 -0.108826 -0.053026 -0.526430 -0.092321 -0.833056 
0.776601 0.382171 0.707306 0.806178 0.467390 -0.280637 
0.925680 1.082742 2.302226 -0.619256 -0.462617 0.626155 
1.391819 0.579632 2.368987 0.581453 0.302877 -0.745107 
1.342244 1.350127 2.957516 0.579262 0.585010 -0.564917 
0.352014 0.073123 0.368436 0.459617 -0.213244 0.860075 
1.115798 1.250815 2.666316 -0.572783 -0.593458 0.561699 
-0.001543 -0.792430 0.137812 -0.546112 -0.369428 0.741660 
-0.723163 0.692967 0.885019 -0.811042 0.532777 -0.104162 
-0.767511 0.505071 0.822944 0.532711 -0.698562 0.475323 
0.602686 0.386411 0.607075 -0.564222 -0.566080 0.549702 
-1.116037 0.514924 2.884637 0.672495 -0.596988 0.430906 
0.903347 -0.760288 0.475562 0.395441 0.578495 -0.625488 
1.328262 -0.112824 1.883221 -0.800319 -0.388941 0.326682 
-0.575267 0.952082 1.047945 -0.592152 0.641537 -0.375164 
-1.241806 0.233404 1.590392 0.287240 -0.650883 0.253759 
-0.422398 -1.171937 0.045183 -0.426663 0.117166 -0.837079 
0.655187 -0.046823 0.421147 -0.396927 -0.356617 0.758423 
-0.302994 -0.509892 -0.021920 -0.620107 -0.076485 -0.754927 
-1.020135 0.391091 1.608750 -0.518558 0.655793 -0.398986 
-0.536430 0.418559 0.468663 0.492778 -0.588460 0.617694 
1.086430 -0.083310 0.909080 -0.681189 -0.493602 0.460114 
1.450991 1.167560 2.906412 -0.564059 -0.579696 0.585652 
1.335153 -0.041098 1.947361 0.775059 0.356651 -0.514553 
-0.400334 -0.207798 0.231475 -0.241768 -0.229921 0.899368 
-0.792319 0.533525 2.310481 0.796439 -0.453283 0.384551 
1.027896 0.120870 1.572235 0.824898 0.410196 -0.050431 
-0.859618 -0.831999 0.394784 0.376567 -0.557132 0.687761 
1.372134 -0.210147 1.153133 0.631143 0.621494 -0.351371 
0.268337 0.433794 -0.073047 0.459148 -0.020408 -0.883391 
-1.142662 0.115535 0.883010 -0.810698 0.358802 -0.428711 
0.496564 1.150741 1.802596 0.811445 0.313892 -0.427508 
-0.820090 -0.484104 0.527617 -0.645310 0.183148 -0.663694 
0.683295 -0.791245 0.353386 -0.379961 -0.323475 0.782577 
0.070674 -1.129301 -0.120454 0.131920 -0.543594 0.591137 
-1.023836 0.662901 2.962951 -0.697750 0.563852 -0.429823 
1.083187 0.591819 2.056246 -0.610844 -0.351501 0.676281 
-0.674155 0.575527 0.624835 -0.316531 0.840484 -0.372957 
0.563045 -0.240175 0.305580 0.797339 0.093284 -0.537648 
-0.894068 0.496881 1.625886 -0.671071 0.659438 -0.270371 
-1.022383 -0.352142 0.765557 -0.708624 0.210543 -0.601104 
0.650616 0.099406 0.329126 0.782256 0.162851 -0.557960 
1.097577 0.134424 1.404119 0.692744 0.571425 0.033295 
0.235486 -0.411367 0.263584 0.316027 -0.314926 0.881064 
-1.226977 -0.473118 0.937481 0.629412 -0.369257 0.596916 
-0.465450 0.164333 0.341253 -0.100302 -0.320119 0.847891 
0.782986 0.433891 0.770917 0.807116 0.539051 -0.208869 
-1.152993 0.223664 1.133990 -0.780074 0.472684 -0.345020 
0.909557 -0.033876 0.712862 0.787127 0.323911 -0.461417 
-1.124349 0.393011 2.697862 -0.651741 0.697525 -0.236408 
-0.164236 1.198376 0.198446 -0.777124 0.554830 -0.258692 
-0.464638 0.622531 0.287756 -0.566263 0.782899 -0.170358 
0.579827 -0.334755 0.281046 -0.268386 -0.265182 0.854770 
0.460211 0.517324 0.118037 0.699429 0.315087 -0.482949 
-0.713623 0.720751 0.955510 -0.851839 0.480414 -0.031148 
-0.588150 0.194268 0.338481 0.308187 -0.446760 0.803730 
0.493399 0.689985 0.774051 0.624967 0.703858 -0.323525 
-0.631367 0.854518 0.957747 -0.658316 0.657703 -0.341772 
-0.148129 1.072369 0.346448 -0.622580 0.450384 0.410567 
-0.478791 1.130342 1.256833 -0.843816 0.489349 0.016327 
0.150097 -0.220388 0.362687 0.181346 -0.319942 0.926698 
1.386955 0.675427 2.392354 -0.581879 -0.535937 0.591001 
1.239795 1.269158 2.797339 -0.555360 -0.613677 0.558776 
-0.670515 -0.666846 0.356941 -0.584398 0.134014 -0.739553 
1.146982 -0.202148 1.512231 -0.884099 -0.336828 -0.318382 
-0.574622 0.984985 2.432435 -0.875564 0.456716 -0.140725 
-0.380357 1.269718 2.084027 0.899727 -0.287357 0.203663 
-0.434489 0.118423 0.010285 -0.652775 0.055057 -0.734181 
-0.612269 -0.718797 0.289293 -0.563858 0.121395 -0.762421 
0.406829 -0.758397 0.086387 0.571000 0.048550 -0.773378 
0.062182 -0.486766 0.263969 0.075197 -0.268453 0.952049 
0.889289 0.389633 1.424508 0.803918 0.520309 -0.264229 
0.296986 -0.851995 0.086460 -0.017563 -0.247858 0.918392 
-0.465863 0.438362 0.050128 -0.648313 0.197273 -0.660326 
0.537414 0.514530 0.246606 0.769253 0.443395 -0.339826 
0.259921 -0.877590 -0.023667 -0.008712 -0.048921 -0.992917 
-1.041508 0.321054 1.302177 -0.745316 0.581991 -0.210147 
-1.016646 0.514197 2.714588 0.706118 -0.555716 0.426710 
1.125292 0.243240 1.823323 0.719997 0.302217 -0.543802 
0.750307 0.391532 0.831952 -0.601790 -0.705562 0.373232 
0.189808 -1.030545 -0.028487 -0.338266 -0.373159 0.853004 
0.636759 0.654975 1.045112 0.831051 0.532588 -0.018937 
-0.256815 -0.765157 -0.024851 0.052252 -0.109270 -0.981080 
-0.327629 1.379622 1.673319 -0.918916 0.326196 0.182883 
-1.127699 0.251339 0.953845 -0.817230 0.430732 -0.354104 
-0.619961 0.498625 0.641808 0.792618 -0.426775 0.365441 
-0.296128 -0.968020 -0.022324 -0.011832 -0.010125 -0.997477 
1.114229 -0.163290 0.904426 0.688514 0.463930 -0.440676 
0.512212 0.206450 0.104478 0.762358 0.082960 -0.630890 
0.791534 1.269057 2.299861 0.678233 0.511253 -0.524190 
-0.748606 0.617691 2.143504 -0.714431 0.675892 0.005451 
0.905951 0.076203 0.740053 -0.636934 -0.437262 0.549927 
0.064099 1.333344 0.236913 0.633514 0.659335 0.177054 
0.102211 -0.385190 -0.137699 0.365611 -0.235305 -0.886983 
1.351633 0.384897 2.281654 -0.628474 -0.307736 0.710819 
-0.831084 -0.240390 0.540255 0.559463 -0.333120 0.646485 
0.540502 0.633369 0.782250 -0.804805 -0.536442 0.170955 
0.302838 -0.944162 -0.015547 0.136852 -0.015250 -0.954466 
0.395006 0.627583 0.049558 0.650975 0.349313 -0.561415 
-1.380562 -0.204188 1.192139 -0.806540 0.229991 -0.520046 
-0.666536 0.814427 1.326553 -0.830560 0.486087 0.068068 
-0.984203 -0.100446 0.719305 0.681646 -0.364430 0.550347 
1.133082 -0.389486 0.885054 0.592994 0.485387 -0.475631 
0.168062 0.989396 0.043504 0.593940 0.429886 -0.664968 
-1.125979 0.397246 2.240783 -0.498695 0.843976 0.099049 
1.051409 0.123638 0.978176 -0.771502 -0.477996 0.417826 
-0.232684 0.024269 -0.090241 -0.476172 -0.070723 -0.870092 
-0.177371 -0.207575 0.358817 -0.246782 -0.312771 0.905103 
-0.731938 0.978394 2.950112 -0.676148 0.666806 -0.277544 
-0.546875 -0.724396 0.210089 -0.549526 0.125105 -0.769783 
-0.368499 0.707507 0.098410 -0.663885 0.687976 -0.133370 
1.639935 0.612789 2.560781 -0.532770 -0.463019 0.703938 
-0.366045 0.680636 0.211657 -0.134507 0.771943 0.092396 
1.020269 0.192912 0.963006 0.810279 0.448367 -0.349962 
0.274952 -0.377399 -0.056637 0.595659 -0.130426 -0.776122 
1.210776 0.531933 2.196993 -0.642785 -0.368259 0.655064 
0.030820 0.974254 -0.026465 0.379282 0.499076 -0.767481 
-1.136981 0.401702 2.140096 -0.477682 0.862801 0.147098 
-0.469535 -0.036748 0.114161 -0.767309 0.062095 -0.615442 
-0.505891 0.116080 0.112677 -0.747753 0.104696 -0.635850 
-0.815587 0.573470 1.985910 0.589694 -0.749903 0.060303 
-0.075944 1.033285 0.508185 -0.045066 0.003621 0.958052 
0.459068 -0.384521 0.122721 -0.127663 -0.216783 0.964988 
-0.787614 -0.410112 0.483544 -0.650901 0.211022 -0.640686 
-0.437545 1.112715 1.700931 0.677422 -0.696843 0.121054 
-0.212219 -1.131412 -0.045908 0.523199 -0.357410 0.682076 
-0.014914 -0.844873 0.084027 -0.425847 -0.422725 0.793743 
-0.808724 0.824170 2.873219 0.697279 -0.632757 0.327614 
0.429653 -0.040873 0.274726 0.082995 -0.245532 0.892527 
-0.578833 0.421431 0.206639 -0.710742 0.281839 -0.579760 
-0.210669 0.434420 0.489016 -0.311422 0.042313 0.946535 
0.287507 0.791065 0.372494 0.710382 0.223694 0.595578 
1.652152 0.759989 2.717012 -0.549269 -0.519526 0.649087 
0.505577 -0.350011 0.231706 0.757962 0.065570 -0.586102 
-0.303887 -0.333044 0.265117 -0.492643 -0.303197 0.810342 
-0.555604 -0.130085 0.250902 -0.796621 0.081912 -0.556544 
-0.074952 -0.619142 0.218757 -0.215756 -0.381512 0.887196 
-0.282546 1.339364 1.516965 0.647332 -0.607196 0.435590 
-0.280677 0.679998 -0.084258 -0.563067 0.236637 -0.778332 
-1.548940 0.081942 1.690000 0.359760 -0.730653 0.335517 
-0.614480 0.869508 1.093646 -0.877452 0.449522 0.097066 
-0.615525 0.902699 1.370101 -0.847797 0.438064 0.093826 
-0.166038 -0.885412 -0.039263 -0.073909 0.058152 -0.976964 
-0.297010 -0.452639 0.222960 -0.442502 -0.303768 0.836122 
-0.349755 -0.471234 0.047082 -0.738156 -0.028933 -0.647286 
-0.786764 -0.765293 0.442497 0.448382 -0.292170 0.776812 
-0.404841 1.158482 1.393331 0.592732 -0.750570 0.277497 
0.584419 0.747862 1.533422 -0.618771 -0.647781 0.383186 
-0.583282 -1.051910 0.124332 -0.008685 -0.368689 0.727259 
0.932314 0.307564 1.078548 0.812041 0.477316 -0.280140 
1.246518 -0.049498 1.433566 -0.582287 -0.655704 -0.355190 
-0.604536 0.193412 0.212602 -0.750731 0.160223 -0.611760 
-0.534086 0.849277 0.910583 0.864006 -0.443729 0.099670 
0.453042 0.213370 0.365885 0.010175 -0.322360 0.825976 
1.398664 -0.322603 1.131382 -0.536126 -0.709179 0.376291 
-1.008292 0.374616 1.073304 -0.802488 0.497152 -0.225063 
-0.402563 1.256014 2.169850 0.914295 -0.167154 0.236031 
0.237763 1.309919 1.586336 0.804989 0.500293 -0.300863 
-0.676177 0.173856 0.308505 -0.765472 0.187068 -0.576430 
0.822979 0.833365 1.902118 0.694193 0.595833 -0.368122 
-0.678263 0.244322 0.289408 -0.754101 0.200498 -0.592134 
0.341233 0.132498 -0.028571 0.510632 -0.068904 -0.843359 
0.277806 0.343768 -0.054647 0.432760 -0.042205 -0.898102 
0.885382 1.038528 2.215079 0.656052 0.572158 -0.490298 
0.584038 1.354311 2.156551 -0.632129 -0.538568 0.550351 
0.175169 0.685145 -0.107672 0.426602 0.212407 -0.857285 
0.432542 0.053111 0.311427 0.085982 -0.266661 0.869496 
-0.695497 0.687530 1.582984 0.656072 -0.672010 -0.169161 
-0.298803 0.219760 -0.051244 -0.439981 -0.063817 -0.892832 
-1.182150 0.269216 2.522466 -0.608615 0.772641 -0.114241 
-0.559482 1.064487 2.565768 -0.850250 0.481187 -0.174438 
0.543809 1.106043 1.847716 -0.474417 -0.696977 0.497549 
0.171488 0.753763 -0.077033 0.518688 0.415496 -0.701618 
0.436044 0.444763 0.469782 -0.744280 -0.366771 0.531143 
0.076015 -0.738064 0.149172 0.184766 -0.436949 0.854875 
-0.659491 0.697231 1.823433 0.781070 -0.581159 0.174112 
-0.280023 0.744775 0.400987 -0.638536 0.199828 0.708196 
-1.497385 -0.205348 1.334323 -0.830296 0.219578 -0.510772 
1.320585 1.185605 2.798878 -0.557533 -0.602331 0.568661 
-0.905098 0.471411 1.256484 -0.768847 0.593192 -0.097071 
0.661495 0.507954 0.706818 0.347391 0.869442 -0.298537 
1.042591 -0.590675 0.710404 0.489850 0.531897 -0.544702 
0.079167 -0.219833 0.368033 0.089595 -0.336600 0.934278 
-0.312268 -1.294126 -0.042766 -0.068428 0.164497 -0.945739 
0.537018 -0.196785 0.252195 -0.252758 -0.289373 0.873246 
-1.010179 0.377097 0.883632 -0.823920 0.442692 -0.302735 
0.505492 0.818389 1.422548 -0.568114 -0.683353 0.411783 
0.872054 0.386082 1.157345 0.813259 0.497113 -0.232281 
0.520058 -1.093792 0.095972 0.177489 -0.263814 0.714718 
-0.027402 -0.840663 -0.055453 -0.278978 0.126718 -0.933157 
0.973887 0.804561 2.063118 0.688099 0.522198 -0.503142 
0.881190 -0.819634 0.403089 0.347239 0.641204 -0.642737 
0.222490 1.198327 1.408868 -0.814401 -0.021287 -0.498727 
0.625119 -0.800590 0.310352 0.499621 0.197515 -0.745263 
-0.194614 -0.722306 -0.021878 -0.060625 -0.082844 -0.991647 
-0.110317 0.213383 0.521501 -0.240411 -0.145056 0.944810 
-0.564228 0.667620 0.694683 -0.427877 0.732855 -0.450031 
-1.531140 0.128787 1.816617 -0.512928 0.838223 -0.140023 
0.385695 -0.232476 0.067194 0.799844 -0.020978 -0.589965 
1.223799 0.402451 2.104836 -0.577443 -0.258251 0.762695 
0.042169 -0.054639 0.445313 0.104087 -0.319344 0.941500 
1.376498 0.121222 2.130228 -0.703429 -0.344981 0.604163 
0.036258 -1.186922 -0.166829 0.260818 0.313927 -0.912773 
0.868020 -0.276170 0.652578 -0.608655 -0.390655 0.592027 
0.673185 -0.122426 0.429752 0.806699 0.164110 -0.505102 
-0.655197 0.726820 2.157238 -0.871833 0.478207 -0.097928 
-0.578392 -0.671689 0.245175 -0.564711 0.140274 -0.748866 
0.862386 0.619923 1.724167 0.644264 0.332472 -0.657661 
0.876356 0.334284 0.841921 0.814507 0.511825 -0.253016 
0.726124 1.410168 2.388434 -0.708174 -0.389506 0.581305 
-0.628411 0.773938 1.611023 0.645042 -0.660831 -0.224977 
0.534996 -0.004769 0.202077 0.785714 0.084964 -0.580080 
-0.306638 0.658041 0.411218 -0.667011 0.187148 0.713373 
-0.774491 0.726010 2.648219 -0.765738 0.568879 -0.286644 
0.755774 1.053513 2.048468 0.693317 0.524173 -0.473504 
-1.020939 0.367590 2.478891 -0.666513 0.733523 -0.104563 
-0.180359 -0.134611 0.388276 -0.275920 -0.301404 0.901562 
0.874185 -0.459675 0.615662 -0.520863 -0.404239 0.630704 
-1.163079 0.521584 2.975605 0.654233 -0.620003 0.432182 
-1.027336 0.845169 3.173596 -0.690911 0.538411 -0.469850 
0.734028 0.695908 1.675124 -0.696978 -0.655509 0.233969 
1.061275 1.117764 2.489279 0.619981 0.536964 -0.569161 
0.781272 0.651109 1.645310 0.709083 0.397240 -0.492701 
0.751579 0.520977 1.415269 -0.693226 -0.615130 0.340836 
-0.485827 0.249048 0.365293 -0.045420 -0.360948 0.825842 
-0.834153 -0.395358 0.539247 -0.662884 0.212033 -0.631706 
-1.466996 -0.138150 1.336851 -0.802387 0.280031 -0.516942 
-0.669337 0.450826 0.659196 0.498323 -0.647980 0.558740 
-0.493568 -0.420107 0.163320 0.136900 -0.228882 0.931615 
-0.480695 0.517683 0.143147 -0.654571 0.453302 -0.438489 
0.263997 0.887468 0.378250 0.795759 0.101862 0.550959 
-0.596106 1.006913 2.597830 -0.838391 0.483370 -0.213767 
0.354663 -0.562068 0.145388 0.155453 -0.258671 0.915188 
0.863667 0.330561 0.983596 -0.687632 -0.565787 0.424233 
-0.905503 0.396296 0.730481 -0.776494 0.461477 -0.386975 
-0.486798 1.120457 2.365016 0.808303 -0.564330 0.129183 
-0.547840 0.148716 0.291176 0.262339 -0.430108 0.837579 
-0.249783 -0.569840 0.194277 -0.322754 -0.312282 0.891202 
-0.146632 -0.702136 0.168681 -0.119077 -0.394493 0.884510 
-1.187209 0.692815 3.199748 -0.646307 0.593309 -0.477043 
-0.130386 -0.765203 -0.039358 -0.029807 -0.018507 -0.981279 
-0.476473 1.048167 1.131249 -0.250780 0.656932 -0.632741 
-1.176771 0.351606 1.985465 0.444235 -0.771772 0.247093 
1.219944 0.066679 1.851175 -0.807333 -0.446781 0.239251 
-0.711469 0.517895 0.539336 -0.722193 0.518014 -0.373155 
1.101864 0.711605 2.179767 -0.667111 -0.484649 0.553164 
0.604002 0.544294 0.575882 0.458913 0.805258 -0.253357 
-0.631346 0.864900 1.523281 -0.833136 0.451773 0.003800 
0.672955 0.626442 1.205324 0.823877 0.541370 -0.060767 
-0.923585 0.826066 3.023098 -0.723583 0.519720 -0.439839 
-0.329190 1.401962 1.567278 -0.913880 0.377990 0.069786 
1.024455 -0.228922 0.804041 0.674892 0.412739 -0.487021 
0.351818 -0.127916 0.302703 0.465846 -0.246379 0.839002 
-0.266873 -0.573182 -0.046322 -0.246731 -0.145346 -0.888673 
-0.703483 0.201141 0.457082 0.412459 -0.444512 0.722411 
-1.127714 0.034030 0.869857 -0.794142 0.332448 -0.458257 
-0.633163 -0.627854 0.309098 -0.583195 0.150439 -0.729104 
-0.329759 0.623146 -0.060934 -0.589148 0.195730 -0.754874 
-1.355016 0.266996 2.142857 0.435760 -0.881584 -0.041019 
0.588462 0.471236 0.660796 -0.893851 -0.282933 0.280584 
-0.417685 0.624356 0.355671 -0.428282 0.862534 -0.110873 
1.305535 0.755681 2.391151 -0.547456 -0.397320 0.734569 
-0.224485 1.056416 0.510221 -0.385842 -0.576918 0.644442 
-0.470715 0.526208 0.512770 0.761078 -0.440354 0.423791 
0.961755 0.369023 1.681504 -0.800053 -0.544991 0.177974 
-0.616870 -0.930478 0.192402 0.332145 -0.377328 0.819232 
0.838683 0.183628 0.562472 0.785472 0.284634 -0.504897 
1.184074 -0.037490 1.707335 -0.839907 -0.403420 0.000873 
0.514355 1.383289 2.035837 0.634424 0.615109 -0.463894 
0.025347 -0.158089 -0.180510 0.358587 -0.148955 -0.901061 
0.037385 -0.428588 -0.128897 0.188110 -0.378321 -0.893280 
-0.349858 0.132496 0.394720 -0.436730 -0.212632 0.871094 
1.218464 -0.102368 1.018405 0.698067 0.524047 -0.389712 
0.152910 1.036321 0.518621 0.069788 -0.177803 0.941919 
0.607449 -0.723327 0.305795 0.533910 0.183415 -0.737592 
-1.038688 0.325782 1.217804 -0.762723 0.557656 -0.222847 
0.589640 -0.871933 0.239931 0.460111 0.221254 -0.770764 
-0.063185 0.989796 -0.004824 -0.428099 0.484471 -0.744388 
0.483518 -0.421382 0.200905 0.726982 0.059002 -0.618533 
-0.146390 1.026315 0.048566 -0.561670 0.427232 -0.695059 
-0.410322 1.275561 1.357291 -0.687412 0.635506 -0.231674 
-1.423874 -0.061290 1.332876 0.734798 -0.352252 0.569652 
0.511073 0.515237 0.573866 -0.883184 -0.253839 0.337300 
-0.561389 0.884437 1.954092 0.651690 -0.718031 -0.122386 
-0.091340 0.881643 -0.058488 -0.503365 0.391566 -0.750849 
0.747892 0.484353 1.159972 -0.658871 -0.620155 0.390994 
-0.485879 -0.538866 0.169905 -0.659805 0.066903 -0.685356 
0.333351 0.755116 0.329189 0.857184 0.240377 0.404359 
0.241523 -0.681993 0.149273 0.176646 -0.327470 0.883327 
0.358548 -0.235417 0.259959 0.409370 -0.257531 0.843881 
0.880953 -0.549943 0.601120 -0.477349 -0.412868 0.648214 
-0.956880 0.415317 1.570615 0.587508 -0.750415 -0.008531 
0.752699 0.312116 0.541109 0.787950 0.337252 -0.427647 
0.674309 0.799305 1.744098 -0.671033 -0.586330 0.403950 
1.617665 1.127724 3.028758 0.577424 0.550779 -0.602597 
1.410342 1.272899 2.959402 0.603137 0.503049 -0.615300 
-0.300845 0.070244 0.401276 -0.408061 -0.236631 0.875099 
0.194366 1.154274 0.192854 0.809086 0.502693 -0.264024 
-0.192738 0.914656 0.455613 -0.484117 -0.063317 0.830236 
0.670360 0.343210 0.416952 0.779382 0.287337 -0.465202 
0.424484 0.449859 0.026936 0.642592 0.109895 -0.683062 
0.303211 -0.526597 0.191331 0.412035 -0.294520 0.858079 
-1.436274 -0.182655 1.258583 -0.821525 0.232514 -0.507953 
1.032162 0.436493 1.859210 -0.557643 -0.246913 0.773330 
-0.627917 0.826904 1.397499 0.635030 -0.733163 0.199958 
1.485415 -0.151114 1.388051 0.595206 0.716305 -0.031525 
-0.509786 -1.110475 0.087472 -0.390575 0.264406 -0.802542 
-0.795601 -0.554252 0.502155 -0.628678 0.161464 -0.690086 
-0.608844 0.941080 2.476154 0.788646 -0.563392 0.222369 
0.830645 1.090359 2.193465 -0.606470 -0.453264 0.642775 
0.730730 0.749045 1.772161 -0.694721 -0.583249 0.396963 
-0.747784 0.628028 2.347029 -0.777667 0.600777 -0.115965 
-0.673798 0.096017 0.412539 0.363097 -0.403322 0.756341 
-1.103967 0.840482 3.265798 0.647089 -0.589033 0.474684 
-1.199834 0.356398 2.139001 0.428419 -0.831842 0.054136 
-0.794591 0.598991 1.676849 -0.735044 0.586072 -0.298340 
-0.397020 0.630161 0.075698 -0.616956 0.451858 -0.495796 
0.745848 0.428302 0.900149 -0.614795 -0.676847 0.388482 
0.043460 0.912623 -0.059666 0.436084 0.445552 -0.762471 
1.102693 -0.007868 1.590961 0.827534 0.332994 0.023878 
0.543101 0.674545 0.844616 0.478061 0.751062 -0.413991 
-0.696675 -0.946657 0.204233 0.303801 -0.542869 0.750994 
-1.036809 0.358673 0.947712 -0.832340 0.431304 -0.276299 
-0.596966 -0.783403 0.255899 0.410275 -0.231769 0.837036 
0.480535 0.951679 1.545308 0.853502 0.390230 -0.207987 
0.758660 0.512807 1.071392 0.822823 0.511035 -0.127457 
0.837811 -0.852597 0.351667 -0.315063 -0.631422 0.672047 
0.582158 -0.632682 0.274220 -0.385797 -0.266775 0.818844 
-0.182628 0.206839 0.500892 -0.330844 -0.143321 0.919958 
0.928077 0.305583 1.000516 0.814721 0.470383 -0.271507 
0.362610 -0.886068 0.025934 0.517261 0.033239 -0.831099 
-0.334508 0.399109 -0.045957 -0.461517 -0.039503 -0.884216 
-0.551569 0.385542 0.122330 -0.711840 0.197741 -0.652453 
-1.315446 0.217804 2.531794 0.525804 -0.832802 0.046161 
0.462647 0.737873 0.828912 0.605450 0.716298 -0.333755 
-0.698113 0.465875 0.467384 -0.730156 0.408706 -0.465945 
-1.369253 0.125032 1.475902 -0.124443 0.470843 -0.696449 
1.187546 -0.003997 1.004225 0.742969 0.501019 -0.383146 
-1.424330 -0.108536 1.239479 -0.831346 0.258669 -0.483200 
-0.482295 1.122071 2.263232 0.790113 -0.567659 0.190167 
-1.236762 -0.207307 1.017403 -0.776545 0.241266 -0.533042 
0.140271 0.191379 -0.138434 0.464255 -0.004760 -0.880691 
0.606846 1.111953 1.893492 0.708968 0.472180 -0.509633 
-0.472812 0.050435 0.091407 -0.753352 0.079005 -0.634573 
-0.151363 -0.628930 0.198568 -0.222387 -0.390613 0.891858 
1.316182 0.609268 2.341311 -0.620427 -0.487235 0.585398 
1.541915 1.010376 2.851356 -0.564871 -0.569262 0.596219 
1.122430 -0.472450 0.860472 0.560558 0.482669 -0.495129 
-0.105384 0.006592 -0.160528 -0.488688 -0.021413 -0.863924 
0.023889 -0.901589 0.033936 0.377263 -0.457062 0.802820 
0.108171 -0.168596 -0.150256 0.444247 -0.109953 -0.871640 
-0.259440 -1.041452 0.015165 0.340309 -0.280806 0.888051 
1.273041 0.941243 2.537371 -0.573065 -0.472330 0.659798 
0.909039 0.474707 1.697769 -0.777456 -0.584478 0.211393 
-0.590149 1.033444 2.694727 0.787965 -0.541849 0.235960 
-0.184549 0.225661 -0.114038 -0.447746 -0.015761 -0.889579 
-0.493574 0.993028 1.579992 0.617522 -0.693376 -0.081664 
-0.930960 -0.253057 0.648229 -0.706285 0.251980 -0.574264 
-1.065958 0.494172 2.763897 -0.672216 0.649503 -0.307853 
-0.423067 1.132255 1.633662 0.636927 -0.726949 0.188931 
-1.210244 0.154711 1.195104 0.733587 -0.468540 0.437331 
1.066690 0.201466 1.694450 0.756410 0.309941 -0.303658 
-0.793337 0.278992 0.423091 -0.766801 0.255384 -0.550949 
-1.269975 0.303989 2.801219 -0.617890 0.720546 -0.264648 
0.601299 0.863730 1.714799 -0.636270 -0.570876 0.455280 
-0.352608 1.348634 1.502364 -0.906280 0.246923 0.298451 
0.195056 0.174393 0.485740 0.342862 -0.175381 0.911516 
0.408576 0.112738 0.348170 0.221887 -0.247486 0.861922 
0.946205 0.224317 0.922806 -0.713811 -0.546131 0.414154 
-0.327153 -0.690359 -0.008046 -0.576010 -0.027988 -0.790865 
1.236915 0.604327 2.281013 -0.644951 -0.458621 0.585847 
-0.944295 0.440743 2.471451 0.731114 -0.529918 0.394294 
-1.361382 -0.041275 1.158753 -0.829576 0.286874 -0.465054 
0.410489 0.939050 1.451961 -0.522288 -0.706474 0.437799 
0.237445 0.503268 -0.096670 0.469668 0.006824 -0.875778 
-0.742710 -0.350117 0.434790 -0.671012 0.208616 -0.618296 
-0.725831 0.131610 0.470453 0.417221 -0.415439 0.715567 
0.844112 0.711070 1.753165 0.699987 0.468633 -0.497345 
1.164161 0.114552 1.798378 -0.819186 -0.459538 0.137175 
-0.139837 -0.540853 -0.058606 -0.115323 -0.293285 -0.938299 
1.148997 0.284482 1.909809 -0.579625 -0.242904 0.745468 
0.446814 -0.166289 0.130874 0.796863 0.020834 -0.580501 
1.066736 1.350765 2.699218 0.637984 0.442487 -0.628973 
-0.017430 1.198586 0.092788 -0.437516 0.346546 -0.814460 
-0.943534 0.435368 1.188193 -0.781395 0.557387 -0.144757 
0.509318 -0.642622 0.178370 -0.288901 -0.235625 0.889348 
1.160313 0.057053 1.736069 0.781454 0.319572 -0.260022 
-0.364387 0.373806 0.370874 -0.258288 -0.018784 0.956318 
-1.335031 0.264158 2.019959 0.450129 -0.834139 0.109745 
0.606139 0.162143 0.406070 -0.428685 -0.414918 0.757225 
-1.159237 0.220878 1.020144 -0.803567 0.434631 -0.371557 
0.439949 -0.910861 0.107527 0.481814 0.090809 -0.836181 
0.078395 0.461123 -0.139019 0.382706 0.049161 -0.919031 
0.362363 0.523774 -0.016524 0.572164 0.103810 -0.734456 
0.591881 0.023855 0.271672 0.786360 0.121981 -0.564661 
1.012226 0.361597 1.731495 0.723021 0.339030 -0.489206 
0.608069 0.716377 1.250360 0.839788 0.514417 -0.059223 
0.596245 0.454325 0.342335 0.772768 0.386058 -0.379908 
0.826008 -0.247453 0.600952 0.700607 0.291128 -0.557383 
-0.342139 -0.381183 0.221930 -0.452245 -0.293756 0.817822 
-0.765835 0.829346 2.808161 0.720739 -0.615505 0.308601 
0.107962 1.090681 0.489726 -0.151177 0.142883 0.925819 
1.479177 0.934014 2.724634 -0.570580 -0.531421 0.620929 
1.121046 0.084040 0.987467 0.775544 0.465980 -0.310185 
-0.690030 0.787282 1.413558 -0.811310 0.503402 0.055158 
0.851056 0.120960 0.599181 0.792759 0.288719 -0.487734 
-0.651965 0.375175 0.277356 -0.731524 0.254264 -0.590890 
-1.090548 0.311974 1.477411 -0.403979 0.568611 -0.436832 
0.725645 0.259322 0.396609 0.772592 0.228706 -0.548435 
-0.161896 0.951771 0.023950 -0.585135 0.452118 -0.651437 
-0.355748 1.246512 1.465338 0.585044 -0.764505 0.261229 
0.408096 1.147508 1.706942 -0.425750 -0.690986 0.541618 
-1.078912 0.143157 0.833929 0.751257 -0.414183 0.462278 
-1.281969 -0.298024 1.076398 0.728318 -0.249792 0.584981 
0.031910 1.426123 1.523080 -0.832511 -0.476619 0.175026 
1.264518 0.871079 2.465124 -0.561435 -0.429076 0.699552 
-0.393145 0.544709 0.447750 0.750866 -0.441676 0.450212 
0.399978 -0.110823 0.048828 0.788134 -0.005093 -0.609037 
1.004397 0.218668 1.040291 0.808845 0.459213 -0.340920 
-0.071763 0.332005 -0.166652 -0.428197 0.044166 -0.899954 
0.262270 0.733941 0.420900 0.559694 0.195320 0.796502 
-0.613931 -0.467746 0.290234 0.340210 -0.264046 0.818763 
-0.716902 0.791356 2.645052 0.777657 -0.565268 0.270298 
-0.661543 0.651243 1.711029 0.738527 -0.655404 0.026681 
-0.237211 0.957690 0.420886 -0.753204 -0.050765 0.626953 
-0.779068 0.597671 2.411069 -0.749427 0.634073 -0.134775 
0.244277 0.713158 -0.076496 0.500988 0.340303 -0.763710 
0.113754 -0.278035 0.341994 0.115397 -0.337285 0.932864 
0.638887 0.070749 0.425905 -0.423735 -0.391290 0.749355 
0.550769 0.538203 0.627263 -0.926811 -0.227393 0.261070 
1.127893 0.093416 1.354828 0.682542 0.569924 0.057583 
-0.622181 -0.318894 0.309153 0.282507 -0.269191 0.826236 
0.710469 0.542558 0.884108 0.821043 0.547845 -0.106678 
0.511777 -0.499869 0.186330 -0.237587 -0.236393 0.903045 
0.104203 -0.652946 -0.033030 -0.015510 -0.101728 -0.988459 
0.371728 -1.115561 0.031605 0.202178 -0.046136 0.799397 
-0.287418 -0.002380 0.384544 -0.411509 -0.252494 0.867392 
1.021481 0.873354 2.207708 0.623105 0.338652 -0.682431 
0.662380 -0.361769 0.407214 0.696252 0.184577 -0.601382 
0.648463 1.026566 1.900888 -0.550309 -0.635760 0.501958 
1.251489 1.031734 2.596688 0.599267 0.558642 -0.566755 
1.276658 -0.074994 1.365927 -0.588549 -0.650641 -0.277651 
-0.454833 -0.817800 0.111047 -0.529697 0.081430 -0.805903 
0.361858 -1.371971 -0.017959 0.799329 -0.068918 0.382834 
1.595336 0.672737 2.577536 0.550761 0.519643 -0.635792 
0.663254 1.217160 2.095941 -0.534771 -0.519078 0.657152 
-0.764400 0.571021 2.220127 -0.749397 0.645975 -0.082210 
-1.069775 0.344041 2.427184 -0.629183 0.752639 -0.105185 
0.108337 0.085045 0.494241 0.232104 -0.280174 0.926716 
-1.189565 0.274927 1.624314 0.344718 -0.695046 0.149219 
-0.407550 -0.190222 0.083692 -0.782861 0.008531 -0.605873 
1.012662 1.046232 2.366841 0.629310 0.571708 -0.518836 
0.853912 1.399302 2.528591 -0.663702 -0.443589 0.598573 
-0.876293 0.465323 1.421329 0.683724 -0.713573 0.107301 
-0.262931 -0.179892 0.339003 -0.426962 -0.288957 0.846196 
0.541388 0.098473 0.178578 0.775412 0.094883 -0.598396 
1.239519 -0.040351 1.274761 -0.626963 -0.615681 -0.116330 
0.825475 0.465378 1.425470 0.807768 0.533057 -0.208348 
1.364276 0.786857 2.473336 0.577590 0.612615 -0.514369 
-1.080003 0.230569 0.846353 0.754167 -0.440910 0.455250 
0.321461 -0.360256 0.014619 0.758438 -0.075961 -0.629723 
0.597093 0.224196 0.216140 0.765912 0.136758 -0.602879 
1.063081 0.918376 2.305791 -0.595770 -0.396671 0.692320 
0.596549 1.417062 2.213483 0.469078 0.762853 -0.395906 
0.529866 0.668962 0.940123 -0.854237 -0.487490 0.038629 
0.581579 -0.920497 0.184300 0.414915 0.290162 -0.780702 
0.585702 0.775278 1.448538 0.856752 0.466465 -0.137575 
-0.545643 -0.883815 0.214213 -0.518751 0.081260 -0.823182 
0.137270 0.963915 0.497688 0.209756 -0.202712 0.955139 
0.890861 -0.138778 0.695430 -0.623299 -0.397886 0.571046 
0.670664 0.587421 1.274929 -0.638812 -0.654824 0.371529 
0.588515 -0.170300 0.327815 0.806284 0.108708 -0.526996 
-0.220652 -0.403327 0.269754 -0.291752 -0.321316 0.886003 
-0.302429 -0.339832 -0.020625 -0.668005 -0.091644 -0.715209 
0.184180 -1.094013 -0.074950 0.331878 0.128308 -0.892484 
0.219272 0.682402 0.453139 0.401424 0.254978 0.840869 
0.513112 0.389536 0.460196 -0.579905 -0.454468 0.633864 
-1.060770 0.340513 1.559223 0.414072 -0.679942 0.128434 
-1.202197 0.207247 1.364526 -0.218913 0.455708 -0.571510 
-0.266236 0.604577 -0.088487 -0.512591 0.126433 -0.829072 
0.155698 -0.111252 -0.134716 0.501365 -0.062794 -0.854834 
-0.146906 -0.559989 0.227174 -0.173954 -0.368003 0.908958 
-1.156257 0.216976 1.279194 -0.750116 0.515389 -0.321678 
0.342380 1.186350 1.660652 -0.387030 -0.714091 0.547792 
-0.325908 -0.581240 0.004552 -0.644445 -0.039697 -0.732058 
-0.766882 -0.290228 0.464134 -0.693244 0.216747 -0.593491 
-1.276213 -0.036846 1.069226 0.785102 -0.329153 0.493479 
0.543463 0.725070 1.205459 -0.567330 -0.698945 0.411980 
0.336271 0.142079 0.399192 0.437301 -0.200902 0.873764 
-0.685750 -0.588910 0.362107 0.480991 -0.273548 0.757926 
0.704549 1.039817 1.976491 0.735363 0.382564 -0.515101 
-0.125875 0.639214 -0.122082 -0.374009 0.131832 -0.897123 
-0.637730 -0.392298 0.321030 0.340442 -0.272525 0.804934 
-0.627073 0.780321 2.098361 -0.879431 0.459148 -0.076241 
-0.056487 0.166882 0.517563 -0.162235 -0.201158 0.953525 
-0.823705 0.499029 2.253243 0.522379 -0.820151 -0.216936 
0.354387 1.333817 1.781180 0.790790 0.504209 -0.309420 
0.340369 -1.205203 0.011769 0.441249 -0.004293 -0.870940 
-0.421400 -0.663393 0.101975 0.105380 -0.219564 0.942899 
-0.533376 -0.616629 0.207085 -0.605237 0.107038 -0.722418 
-0.078812 -0.131497 -0.162755 -0.425019 -0.105346 -0.879555 
-0.209745 0.683468 0.458221 -0.375249 0.262440 0.852397 
-0.691089 0.690726 1.087174 0.647179 -0.667707 0.335209 
0.085858 -0.555042 -0.056244 -0.011640 -0.277689 -0.952928 
-0.549018 0.948248 1.664495 -0.806736 0.426968 0.189174 
-0.326948 1.308121 1.665620 0.750301 -0.562244 0.333539 
-1.214648 0.168121 1.106862 -0.785703 0.432380 -0.407632 
-1.250674 -0.414301 1.012065 -0.710787 0.253867 -0.586570 
1.256775 -0.204174 1.039362 0.650662 0.551685 -0.394107 
-1.245417 0.278473 1.759413 0.512733 -0.829081 0.053441 
0.489715 -0.903816 0.158230 0.477338 0.120495 -0.815953 
0.822500 0.351830 0.755107 0.808365 0.476192 -0.282091 
-0.433819 -0.008101 0.060526 -0.756821 0.052077 -0.637507 
0.663018 0.544301 0.809704 0.352951 0.838531 -0.389652 
-0.355244 -1.427011 -0.055089 0.059261 0.041954 -0.990049 
-0.801659 0.559794 1.739508 0.623786 -0.630372 0.353331 
-0.352996 0.664376 -0.004110 -0.627421 0.365121 -0.584568 
-0.788105 0.621547 1.361388 -0.774836 0.594318 0.005327 
0.199876 -0.644284 -0.026160 -0.013168 -0.144145 -0.980404 
0.688196 0.382191 0.516341 0.789515 0.364115 -0.380286 
-0.320150 -0.099920 0.333782 -0.458946 -0.259719 0.842676 
-0.447997 -0.130105 0.115909 -0.779363 0.036356 -0.602688 
0.568087 0.580284 0.682000 0.456815 0.821893 -0.246697 
-0.708127 0.656911 0.824588 -0.326211 0.798810 -0.461983 
0.710842 0.480211 0.942659 -0.607887 -0.672443 0.402460 
1.483170 1.030613 2.811818 0.587707 0.526851 -0.610659 
-1.066620 0.073670 0.817903 0.745849 -0.401285 0.479179 
0.298405 1.300820 1.727321 -0.473320 -0.517401 0.706707 
0.328680 1.115289 1.318402 0.486117 0.701181 -0.354687 
0.314603 0.850894 0.314708 0.899415 0.241775 0.324104 
0.529436 1.005310 1.629889 0.789712 0.481841 -0.226129 
-0.133546 0.566568 0.515913 -0.316996 0.098533 0.940122 
0.313903 1.025654 1.334228 -0.502276 -0.728536 0.436018 
0.645188 0.710177 1.524402 0.848716 0.469069 -0.186398 
0.000993 1.528577 1.534871 0.566961 0.683949 -0.344948 
0.302576 0.480148 0.399352 0.244608 0.019013 0.955248 
0.474768 1.048331 1.607350 0.785660 0.444239 -0.231678 
-0.767700 0.271808 0.532184 0.485086 -0.470272 0.668726 
1.544409 1.064292 2.902206 -0.566399 -0.566822 0.597024 
-0.475534 1.138038 2.127223 -0.899771 0.398023 -0.010495 
-0.880603 0.462917 0.909191 0.669835 -0.583466 0.423956 
-0.250882 -0.056408 -0.081305 -0.487642 -0.092294 -0.862248 
0.589219 0.100213 0.244087 0.778271 0.124723 -0.580956 
0.558934 1.313175 2.033998 0.735723 0.509754 -0.411397 
-0.279213 -0.641878 -0.037407 -0.246763 -0.121874 -0.893712 
1.381606 1.208981 2.874247 0.603891 0.499525 -0.616983 
-0.881541 0.536214 1.775808 -0.596917 0.770400 0.192418 
-0.566992 -0.441547 0.241252 0.257334 -0.250470 0.863535 
-1.035753 0.129582 0.764722 -0.816685 0.337636 -0.425732 
-0.691414 0.786795 2.506223 -0.814695 0.522964 -0.223653 
-0.892334 0.457386 0.802676 -0.770165 0.539805 -0.330924 
-0.717015 0.665416 1.654204 -0.802933 0.538673 -0.238238 
-0.630592 0.877789 2.358632 0.788742 -0.539601 0.279633 
-0.813121 0.455098 0.667743 -0.755838 0.481241 -0.390013 
-0.696697 -0.285080 0.391977 0.378560 -0.292099 0.762700 
-1.536900 0.132562 1.891707 -0.496580 0.847902 -0.119329 
-1.275190 0.257455 2.462044 -0.523936 0.831366 -0.009659 
-1.172218 0.477124 2.917969 -0.652568 0.637913 -0.389031 
-1.203826 0.289632 2.441138 0.500732 -0.843339 -0.050135 
-0.184103 1.206875 0.516949 0.463795 0.640742 0.531998 
1.065042 0.985789 2.367382 0.618167 0.606187 -0.489153 
0.419529 1.262380 1.838317 -0.490839 -0.513734 0.696402 
0.411967 0.863737 1.085468 -0.844779 -0.388116 -0.173308 
0.185550 0.753955 0.436539 0.326515 0.112885 0.904901 
1.142357 -0.110557 0.956853 -0.663327 -0.524294 0.443532 
-1.047161 -0.167916 0.784329 -0.744199 0.270883 -0.535068 
-1.225900 0.282552 2.690510 -0.623034 0.742245 -0.194934 
0.209046 -0.497644 -0.055057 0.083724 -0.260087 -0.910304 
-0.612900 0.527820 0.376629 -0.696167 0.531594 -0.365189 
0.372146 0.992611 1.485980 -0.505853 -0.713127 0.447157 
0.020369 -0.782452 -0.045441 0.331134 0.069755 -0.914071 
-0.622199 -0.183517 0.337238 -0.794029 0.110580 -0.537739 
0.587293 0.098286 0.371018 -0.392203 -0.391497 0.782732 
-0.218099 -0.972577 -0.023137 -0.070462 0.081582 -0.984824 
-0.936169 -0.099523 0.663318 0.651039 -0.367102 0.566201 
-0.690885 0.524580 0.722321 0.865578 -0.366525 0.301084 
-0.608602 0.796978 0.895873 -0.427322 0.709122 -0.542917 
-0.110291 1.216758 0.140536 -0.609785 0.466422 -0.600298 
0.257346 1.360449 1.727402 -0.745299 -0.096365 0.586188 
1.258461 0.537078 2.258234 0.654450 0.350823 -0.653989 
0.516322 0.827003 1.050600 0.652976 0.675379 -0.262495 
1.508437 0.573442 2.426627 -0.568706 -0.487327 0.641749 
-0.619632 0.725365 1.681393 0.721009 -0.659720 -0.028827 
-0.736644 -0.697360 0.439268 -0.592902 0.117997 -0.744672 
0.582582 0.766315 1.363045 0.852160 0.483218 -0.100242 
-0.559567 0.997955 1.405370 -0.868026 0.385943 0.122204 
0.822211 -0.172502 0.602950 0.742654 0.277844 -0.521654 
0.288440 0.577579 0.418628 0.510062 0.033763 0.809493 
-0.644941 0.808099 2.333395 -0.857032 0.484753 -0.139681 
-0.408007 1.118698 1.139013 0.771380 -0.172643 -0.165621 
0.615150 -0.972390 0.140253 0.342529 0.437487 -0.773825 
0.705308 -0.572541 0.428578 0.581246 0.235679 -0.672317 
1.015861 1.206746 2.516228 0.625887 0.522164 -0.577982 
0.650699 0.174240 0.305810 0.774500 0.167211 -0.572929 
0.102217 -0.464476 -0.096349 0.185848 -0.372896 -0.906083 
0.023064 0.226569 -0.202901 0.463327 0.052382 -0.882366 
-0.711557 0.726454 2.453715 0.816595 -0.501418 0.263728 
-0.459676 -1.056349 0.056650 -0.415984 0.194435 -0.832340 
-0.954951 0.586081 2.725724 -0.707914 0.616698 -0.304831 
0.336345 0.383497 -0.042516 0.472710 -0.053694 -0.878169 
0.139108 1.292850 1.549116 -0.857095 -0.447523 0.103166 
