-0.254867 0.748899 0.531108 -0.467087 0.259456 0.839064 
-0.002443 -0.100375 0.472397 -0.037700 -0.252046 0.965213 
-1.049648 1.937945 -0.315791 -0.827072 0.247347 0.501867 
-0.318794 -0.160200 0.124244 -0.222786 0.082501 -0.963927 
1.339467 1.069997 -0.475343 0.641480 -0.334054 0.658360 
0.523997 -0.433649 0.030173 0.690551 -0.133912 0.698139 
0.319403 0.844884 0.273914 0.898552 0.342664 -0.238449 
1.046104 1.590370 0.373574 0.197064 -0.932033 0.225240 
-0.161022 -0.601687 0.061700 -0.120820 -0.163780 -0.966803 
1.206586 0.640726 -0.413850 -0.641406 0.099624 -0.735712 
0.368732 0.316886 0.128047 0.298061 0.194779 -0.904442 
-0.070872 -0.111027 -0.091363 -0.482607 -0.095127 -0.848702 
0.282719 0.265469 0.511493 0.420329 -0.193837 0.860551 
-0.145718 0.416960 0.598074 -0.236714 -0.113727 0.961645 
-0.982816 1.970172 -0.287687 0.546918 -0.603101 -0.513630 
0.431526 0.306197 0.432202 0.539352 -0.221844 0.791468 
0.239435 1.078553 0.330509 0.875556 0.419802 -0.136309 
0.743376 1.357213 0.350221 -0.439296 0.544281 -0.701259 
-0.085275 0.466600 -0.067751 -0.530099 0.130974 -0.823395 
0.789482 0.309909 -0.010958 0.758971 -0.233116 0.603190 
0.899925 -0.364814 -0.239560 0.487571 0.045489 0.860718 
-0.678925 0.333841 -0.165740 0.430735 0.176089 -0.682163 
0.839130 -0.512242 -0.198308 -0.459642 -0.055328 -0.880839 
-0.303260 0.021388 0.073373 -0.359336 0.060117 -0.895779 
1.013604 1.875766 0.810944 0.467868 -0.723030 0.454890 
0.754635 1.562671 0.506388 -0.406352 0.565589 -0.712205 
0.191433 -0.193701 0.424636 0.319623 -0.242072 0.883708 
-1.349269 1.747143 -0.546044 -0.793821 0.214156 0.541238 
1.355197 1.657160 0.252834 -0.147318 0.880207 -0.444413 
0.404283 0.373033 0.159038 0.249418 0.289140 -0.859455 
1.814801 1.931973 0.426010 0.212586 -0.830564 0.502121 
1.780345 1.365122 -0.240783 0.112200 -0.797737 0.538436 
0.575952 -0.477731 -0.009995 0.660635 -0.114005 0.728232 
-0.580954 2.198373 -0.038575 0.748923 -0.463846 -0.448929 
0.634706 0.645440 0.165989 -0.424389 0.396431 -0.428017 
-0.602625 -0.844677 -0.115231 0.529892 -0.107637 -0.834442 
-0.840885 1.828113 0.060002 0.583602 -0.509095 -0.510289 
0.634190 0.163465 0.114747 0.747879 -0.258620 0.604176 
-0.372781 2.176247 0.395733 -0.609243 0.665562 0.410856 
-0.970292 1.811974 -0.059845 -0.839948 0.244278 0.475459 
-1.170380 1.290692 -0.413427 -0.838002 -0.082375 0.491802 
0.169165 1.110959 0.561640 0.840280 0.268952 -0.294489 
-0.455153 2.269267 0.080866 0.630234 -0.595202 -0.484745 
0.574551 -0.179816 0.027526 0.738905 -0.169872 0.646130 
-0.965759 0.464762 -0.526928 0.752598 0.259094 -0.505199 
-1.028232 1.504968 -0.139103 -0.834064 0.136114 0.495991 
0.928019 1.947350 1.020492 0.435406 -0.694580 0.517534 
0.473367 1.123424 0.509419 -0.824544 0.071560 -0.559762 
1.953508 2.113727 0.715398 0.162010 -0.788654 0.573757 
-0.021524 1.382967 0.241390 -0.594159 0.421817 -0.624573 
-1.115719 0.555733 -0.718366 0.772350 0.248584 -0.453372 
-0.499563 1.896037 0.571728 0.597786 -0.413348 -0.639558 
-1.231931 2.109499 -0.747385 -0.707309 0.458238 0.513562 
-0.496325 0.474505 0.456455 -0.519585 -0.188788 0.811609 
1.201767 2.066647 1.006690 0.338911 -0.760228 0.501983 
0.394247 1.538082 0.758358 -0.338554 0.551230 -0.760553 
0.353074 0.421907 0.509163 0.371289 -0.137615 0.914651 
-1.144525 1.831672 -0.331948 0.712619 -0.358355 -0.549322 
0.250814 0.471157 -0.003264 0.636470 0.043160 -0.761740 
1.315106 1.591669 0.264581 0.392383 -0.654688 0.630697 
-0.603508 0.282329 0.092596 -0.836555 -0.296159 0.447571 
0.887662 1.197400 0.195471 0.659820 -0.321864 0.565492 
2.046101 2.056807 0.591209 0.158448 -0.862302 0.472568 
1.606193 1.384696 -0.151113 -0.114369 0.759394 -0.566630 
0.533175 -0.331145 0.036621 0.714059 -0.150962 0.673240 
0.543894 -0.040946 0.119161 0.748144 -0.226946 0.617445 
0.465644 0.396242 0.123247 0.071876 0.272421 -0.873163 
0.476719 -0.941630 0.006388 0.614094 0.007331 0.769275 
-0.102748 -0.422418 0.383669 -0.052701 -0.227043 0.970004 
0.365835 -0.779844 0.073491 -0.089807 0.013232 -0.946788 
0.794088 1.398761 0.313897 -0.433954 0.565955 -0.689314 
1.518020 1.173437 -0.358268 0.145500 0.902579 -0.394713 
1.952068 2.329835 1.086550 -0.120967 0.872618 -0.471942 
-0.840064 2.048277 -0.116301 -0.637344 0.610203 0.435582 
-0.206444 -1.050211 0.094168 0.201214 -0.118599 -0.963403 
-0.714149 1.502885 0.439580 0.731040 0.044093 -0.638896 
1.289400 0.646618 -0.509380 -0.609676 0.038260 -0.769815 
-0.203862 2.494804 0.293083 -0.709540 0.514311 0.444485 
-0.817768 0.740005 -0.145236 0.790620 0.282414 -0.534298 
-1.344749 1.582442 -0.560197 0.802383 0.003271 -0.539621 
-0.006436 0.802011 0.590086 -0.101580 -0.255882 0.958729 
0.059605 0.666193 0.576427 0.051395 0.135509 0.978485 
0.308452 -0.478080 0.089883 0.266039 -0.005551 -0.917140 
-0.580176 0.977818 0.449047 0.973715 -0.033399 -0.171727 
1.859997 1.539937 -0.069628 0.283156 -0.697841 0.636622 
0.111635 -0.982039 0.157187 0.134894 -0.203405 0.966390 
-0.264673 -0.048717 0.429860 -0.511347 -0.252614 0.781385 
0.721369 -0.744228 -0.125113 0.473984 0.082585 0.862895 
0.095468 1.076621 0.163741 0.425140 0.446503 -0.767417 
-0.459280 -0.671115 0.009034 -0.741224 -0.057958 0.653575 
-0.436256 0.339993 0.043623 -0.025292 0.189955 -0.886602 
1.248560 1.867547 0.621607 0.359934 -0.754199 0.547071 
-0.129160 1.114631 0.436793 -0.833025 -0.051492 0.508292 
0.152151 0.059293 0.509571 0.239336 -0.259194 0.934595 
1.026436 0.297840 -0.303948 -0.574066 0.088167 -0.777172 
0.209429 -0.493443 0.346557 0.318978 -0.284292 0.902071 
0.854062 -0.416455 -0.213366 -0.463610 -0.038717 -0.874055 
-0.887152 0.162448 -0.480339 0.670257 0.220602 -0.575044 
1.387585 1.745109 0.350605 -0.204282 0.842945 -0.483036 
0.287786 0.541872 0.010508 0.664303 0.094050 -0.730119 
0.397188 -1.185443 0.050168 -0.462420 0.004207 -0.884495 
1.580669 2.360905 1.246668 0.219401 -0.933542 0.276579 
0.466395 0.967590 0.561325 -0.842583 -0.010356 -0.450105 
-0.837379 0.664230 -0.141037 -0.898504 -0.222470 0.372219 
0.271256 -0.016726 0.017351 0.596822 -0.057774 -0.793172 
0.032053 2.893248 0.214326 -0.877635 0.298166 0.370847 
-0.357046 -0.574959 0.155568 -0.730170 -0.168424 0.647385 
-1.321136 1.319794 -0.601507 0.819917 0.202447 -0.519201 
1.055918 0.879256 -0.103559 0.696725 -0.317006 0.595294 
0.290336 -1.259621 0.066665 -0.582970 -0.388045 0.095741 
-0.166540 2.526468 0.229410 0.742117 -0.482510 -0.457548 
-0.077731 -0.515975 0.350788 -0.099824 -0.279595 0.948214 
-0.618134 1.984821 0.268865 -0.629586 0.670590 0.330551 
-0.910661 1.684671 0.148966 0.767494 -0.134578 -0.605544 
-0.867167 0.892244 -0.097900 -0.893307 -0.103065 0.389058 
1.041564 2.152417 1.182377 0.230627 -0.676019 0.687380 
1.455216 1.467640 0.001875 -0.201831 0.685669 -0.631174 
1.756325 1.729819 0.193735 0.306633 -0.662237 0.633713 
0.570661 0.443449 0.403088 0.565263 -0.244983 0.749075 
-0.512558 0.190356 -0.029291 0.123670 0.151343 -0.816530 
-0.821762 0.506722 -0.211303 -0.860740 -0.237933 0.444751 
1.481407 2.339216 1.257434 0.208037 -0.864965 0.431497 
-0.572501 0.880441 0.454675 -0.809684 -0.267149 0.515841 
0.024691 0.726800 0.560565 0.052989 -0.006777 0.994568 
-0.919492 1.217641 -0.051156 -0.875049 0.030207 0.420013 
1.079348 0.540878 -0.287625 -0.659892 0.157460 -0.710143 
0.526837 0.824507 0.452115 0.680830 -0.234729 0.692645 
-0.269641 -0.135247 0.034863 -0.523602 -0.036237 -0.821220 
1.268820 0.702063 -0.458986 0.710366 -0.081289 0.690348 
1.546083 1.987601 0.616930 -0.249221 0.682017 -0.669361 
-1.007998 0.653674 -0.543131 0.805751 0.280250 -0.464340 
0.082705 -0.807249 0.082024 0.063672 -0.168928 -0.969886 
1.867075 2.031134 0.593650 0.181404 -0.870510 0.442392 
-0.787605 1.063488 0.148004 -0.926278 -0.012766 0.322039 
1.518224 1.445368 -0.039043 0.029340 -0.894534 0.392646 
-0.753402 1.883515 0.171955 -0.895772 0.254801 0.350948 
0.321974 0.803172 0.438774 0.810414 0.349831 0.410633 
0.389801 0.088854 0.410108 0.618232 -0.258021 0.741627 
-0.045815 -0.344858 0.394968 -0.027837 -0.220282 0.971350 
-0.815253 0.986286 0.054130 -0.914682 -0.051928 0.345858 
0.541342 -0.907141 -0.028274 0.585925 0.048932 0.781602 
0.289710 -0.788487 0.065107 -0.225960 -0.114677 -0.959422 
-0.821863 1.150958 0.118843 -0.913342 0.019257 0.346067 
1.464611 1.545423 0.086712 -0.297192 0.630571 -0.694224 
1.041296 0.135318 -0.348496 -0.524770 0.016659 -0.824109 
-0.262651 -0.206824 0.030295 -0.530883 -0.055113 -0.820591 
0.566217 1.226468 0.544986 0.825756 -0.174873 0.466446 
0.272954 -0.407741 0.341673 0.526997 -0.249380 0.778599 
0.519802 1.580339 0.712470 -0.319958 0.680618 -0.610807 
0.772312 1.533138 0.443367 -0.408013 0.576238 -0.701779 
0.676268 1.512215 0.486832 -0.389167 0.577060 -0.710898 
-1.188470 0.964734 -0.695261 -0.866398 -0.315033 0.367378 
-0.136889 2.757042 0.065274 0.751423 -0.403131 -0.518605 
-0.271395 -0.280897 0.057816 -0.441622 -0.033008 -0.867844 
1.017009 1.666724 0.536740 0.485163 -0.609086 0.607326 
-0.525185 0.466996 0.047110 0.229237 0.269501 -0.775401 
0.995068 0.042021 -0.318682 -0.508915 0.013099 -0.834118 
-0.524462 -0.611373 -0.058147 0.499371 0.054097 -0.819188 
0.357162 0.474901 0.183892 0.507143 0.348087 -0.728468 
-0.514276 0.278726 0.275165 -0.817962 -0.361292 0.439095 
0.712093 1.872213 1.007007 -0.257036 0.842183 -0.466696 
-0.555095 1.007571 0.538826 0.946089 0.051503 -0.244355 
-0.141094 1.250526 0.422401 -0.607431 0.757812 0.130574 
0.917850 1.142714 0.142641 0.665585 -0.322200 0.570876 
0.602183 0.493482 0.083980 -0.206384 0.286236 -0.831060 
-0.292705 0.340503 0.519125 -0.407535 -0.180486 0.874517 
0.839968 -0.102245 -0.205617 -0.483401 0.055383 -0.837495 
1.380513 1.815814 0.442977 -0.257220 0.811592 -0.512748 
1.466944 1.202168 -0.406756 0.100028 -0.760597 0.485695 
0.636806 0.050409 0.046102 0.754570 -0.213144 0.616457 
1.096232 1.166201 -0.059161 0.582876 -0.482822 0.608172 
-0.011409 -0.437187 0.381355 -0.045406 -0.199343 0.975385 
0.356452 -0.388857 0.100610 0.190216 0.040668 -0.930642 
-0.762462 1.305846 0.319654 -0.931607 0.082986 0.296024 
0.228593 0.834017 0.089007 0.588896 0.486465 -0.638851 
0.552280 0.071258 0.172434 0.742871 -0.266238 0.606289 
1.081464 0.312804 -0.368173 -0.552977 0.050084 -0.799105 
-1.099435 1.207697 -0.374994 0.815276 0.085447 -0.529465 
-0.190771 1.049773 0.511634 -0.499523 0.755424 0.028985 
1.665196 2.143514 0.831243 -0.161208 0.919966 -0.348458 
-0.554659 0.116879 0.083377 -0.838587 -0.250850 0.468493 
-0.542042 2.045566 0.289847 -0.688908 0.618925 0.333934 
-0.427058 3.058334 -0.522595 -0.759419 0.363579 0.537154 
1.603569 2.231633 0.999932 -0.183097 0.854530 -0.481257 
-0.349081 2.333671 0.168619 0.534694 -0.646173 -0.542389 
0.529025 0.579785 0.434644 0.088316 -0.282639 0.886128 
-0.492592 0.350212 -0.007717 0.076028 0.187004 -0.841439 
0.989514 0.419231 -0.215975 -0.649206 0.174600 -0.711804 
-0.582263 1.883159 0.438668 0.700220 -0.356392 -0.554774 
0.386040 1.333764 0.673793 -0.830185 0.043805 -0.493841 
-0.364635 -0.382102 0.081806 -0.053084 0.048264 -0.924443 
-0.768278 0.869951 0.008451 0.764678 0.295154 -0.553070 
0.489690 1.127879 0.598755 0.243343 -0.498933 0.740863 
0.529809 -0.034891 0.024670 0.013723 0.095646 -0.860967 
-0.534970 -0.082133 -0.009037 -0.847957 -0.165590 0.500226 
-0.545803 0.418573 0.400013 -0.651080 -0.326232 0.652231 
0.558252 -0.838126 -0.037595 0.548514 -0.014000 0.826973 
0.448215 -0.527858 0.069298 0.692808 -0.133393 0.697670 
0.008245 0.400736 0.601602 0.057834 -0.126990 0.987184 
0.429882 -0.348428 0.105411 0.744362 -0.172926 0.643396 
0.346544 1.617521 0.888429 -0.293336 0.758263 -0.563239 
-1.354782 1.665375 -0.567072 0.791037 -0.104831 -0.550143 
-0.077943 -0.586705 0.046160 -0.057745 -0.272352 -0.952194 
-0.608214 0.210645 0.034751 -0.842021 -0.256160 0.460985 
1.143916 1.357552 -0.088683 -0.489937 0.577177 -0.642660 
-1.301978 1.692639 -0.486715 0.790383 -0.143584 -0.554088 
0.968920 0.106547 -0.280977 0.666109 -0.075236 0.732036 
1.438385 2.074682 0.816302 0.262636 -0.689624 0.666907 
0.763866 0.312118 -0.083897 -0.314452 0.162013 -0.775161 
-0.483771 0.614109 0.356613 0.242627 0.643278 -0.352452 
0.286548 -1.179776 0.072029 -0.460709 -0.076539 -0.857789 
-0.049810 0.269468 -0.134136 -0.551285 0.053109 -0.828069 
-0.114853 0.312256 -0.085603 -0.586081 0.051324 -0.798741 
1.761419 2.159451 0.844088 0.179204 -0.742761 0.625420 
-0.947079 1.642915 0.098807 -0.860519 0.195715 0.429575 
0.156654 -0.852050 0.079883 -0.117732 -0.151379 -0.971629 
1.267272 1.924247 0.663698 -0.323827 0.704456 -0.618773 
1.910158 1.582083 -0.041487 0.252541 -0.745616 0.611768 
-0.364865 0.554569 0.513666 -0.513364 -0.065153 0.841339 
1.471939 2.209111 1.006607 -0.214399 0.844242 -0.487435 
0.301370 0.280690 0.030039 0.586455 0.012986 -0.794405 
-1.162345 2.098273 -0.651500 0.617169 -0.553749 -0.523368 
-0.296463 0.933155 0.346410 -0.924045 0.343944 -0.041307 
0.499720 0.901199 0.497801 -0.854260 0.008968 -0.494024 
-0.216798 -0.252567 0.399630 -0.412124 -0.239591 0.827691 
2.181068 2.081928 0.599614 -0.129131 0.851098 -0.504391 
-0.194683 1.209606 0.633994 0.505611 0.611660 0.540322 
0.988422 0.790431 -0.057817 0.759307 -0.209888 0.580006 
0.101685 1.105128 0.590400 -0.206095 0.210550 0.918194 
0.550643 1.341852 0.534578 -0.417095 0.510566 -0.739188 
0.936368 2.021679 1.048776 -0.297319 0.823622 -0.477367 
0.410779 0.479348 0.479758 0.458494 -0.076815 0.869641 
-0.806624 0.810787 -0.011566 -0.916740 -0.127495 0.344403 
1.036316 1.965535 0.894280 -0.309002 0.850846 -0.415476 
0.477789 -0.198223 0.117998 0.748767 -0.200783 0.627971 
-0.809491 1.733382 0.263385 0.686457 -0.248639 -0.592850 
-0.323641 2.456070 0.088878 -0.616192 0.588558 0.515844 
0.757670 -0.234702 -0.122567 0.657652 -0.102951 0.731876 
-1.315538 1.519545 -0.516312 -0.827303 -0.078641 0.509406 
0.653790 1.149881 0.431735 0.798121 -0.148335 0.500218 
-0.599703 0.351266 0.146726 -0.831426 -0.334059 0.434792 
-0.176623 2.357461 0.412285 0.732986 -0.508758 -0.445451 
0.283939 -0.079602 0.417097 0.512574 -0.257379 0.787359 
-0.188434 -0.351920 -0.014627 -0.542147 -0.136432 -0.818038 
-0.769893 0.891616 0.102804 -0.931976 -0.085028 0.313409 
1.076682 1.763407 0.610008 0.422753 -0.696275 0.573619 
0.606742 1.758164 0.922466 -0.234758 0.857670 -0.449322 
-0.622949 0.936547 0.401497 -0.641809 -0.395760 0.649791 
0.572014 0.899052 0.438694 0.491211 -0.421563 0.757392 
-0.570825 -0.767974 -0.101793 0.477225 -0.050028 -0.852740 
0.702377 0.728180 0.190331 -0.936327 0.199485 -0.218789 
0.021645 -0.923248 0.095364 0.343933 -0.143715 -0.918519 
-0.407067 -0.154072 0.049791 -0.055595 0.080359 -0.889161 
0.339559 -0.657668 0.075183 0.066486 -0.001520 -0.928905 
-0.304411 2.600372 -0.046063 0.851091 -0.307816 -0.421299 
-0.921008 1.485384 0.016453 0.765201 -0.008712 -0.571709 
0.436632 0.445622 0.177416 0.225023 0.367734 -0.798649 
-0.533088 1.727087 0.868087 -0.661665 0.678916 0.297015 
0.078817 0.362808 0.598344 0.144691 -0.142765 0.973300 
-0.182296 0.709217 0.556282 -0.261736 0.197415 0.916081 
1.420213 2.286469 1.163688 -0.212122 0.844246 -0.486717 
0.483684 0.432827 0.455008 0.470447 -0.193536 0.843390 
-0.179038 2.336301 0.514214 -0.683604 0.593631 0.399131 
0.269466 0.196954 0.497273 0.413905 -0.223779 0.855927 
-0.122925 0.069407 -0.079846 -0.571773 -0.002718 -0.812478 
0.060666 -0.424030 0.383929 0.036619 -0.213292 0.975061 
1.110237 0.198363 -0.386645 0.602997 -0.008006 0.780744 
-0.098970 -0.909778 0.191646 -0.177885 -0.231327 0.948776 
1.565306 2.170303 0.902619 -0.181079 0.890078 -0.404481 
-0.718587 1.961457 0.025147 0.793711 -0.408551 -0.436044 
0.847761 0.394266 -0.041204 0.761479 -0.235008 0.599690 
1.069638 1.339238 0.038668 0.526002 -0.561464 0.605205 
-0.718491 0.213326 -0.200042 0.578765 0.163390 -0.652502 
2.139444 2.433867 1.274983 0.114471 -0.902040 0.410433 
0.480882 0.060327 0.261985 0.712439 -0.275901 0.634158 
1.810877 1.876446 0.340668 -0.208478 0.803116 -0.555878 
0.690851 0.185965 0.051068 0.753668 -0.237253 0.607109 
1.226491 1.635805 0.278902 -0.282372 0.761914 -0.569179 
-0.615536 0.439927 0.172158 -0.845243 -0.335759 0.404270 
-0.305162 0.877891 0.397013 -0.897096 0.266342 0.223190 
0.237881 0.336221 -0.006999 0.603355 0.029186 -0.789765 
1.148409 0.581998 -0.337272 0.727162 -0.127516 0.662161 
1.065980 0.812253 -0.137891 0.716086 -0.292539 0.596337 
0.731698 1.620946 0.685956 0.623200 -0.567284 0.469490 
-0.588731 -0.312757 -0.087005 -0.775379 -0.103215 0.595923 
0.567068 1.726198 0.972382 0.574459 -0.591974 0.527003 
-0.870764 0.094350 -0.469829 0.652478 0.209339 -0.591093 
0.585218 0.875967 0.367784 -0.915068 -0.057490 -0.354200 
1.289778 1.669770 0.308992 -0.168985 0.887541 -0.412891 
-0.276394 2.166183 0.610076 -0.656574 0.640432 0.360088 
-0.512805 2.391367 -0.147835 0.644283 -0.548689 -0.517484 
-0.042171 1.081769 0.148736 -0.334856 0.446532 -0.818060 
-0.699925 1.281327 0.343113 0.723559 0.194428 -0.608819 
-0.881371 1.305088 0.069236 -0.890889 0.075847 0.387739 
0.085624 0.585483 -0.050892 0.437304 0.171864 -0.859266 
-0.955004 0.706374 -0.348963 -0.866606 -0.216535 0.444082 
0.094421 -0.659690 0.071528 0.007583 -0.189295 -0.975746 
-1.060948 0.395835 -0.650750 -0.747063 -0.195465 0.481115 
0.456020 1.298925 0.613595 -0.416746 0.481934 -0.759663 
0.057708 0.868107 0.023684 0.458173 0.403608 -0.779548 
0.098140 0.191903 -0.101711 0.546872 0.024324 -0.831624 
-0.636599 0.507632 0.222873 -0.844835 -0.289080 0.384241 
-1.098200 1.264470 -0.331290 -0.838582 -0.036526 0.490882 
-0.091544 0.760335 -0.001513 -0.462945 0.381048 -0.765191 
-0.125566 0.698885 -0.023496 -0.444966 0.266484 -0.818060 
-0.329234 1.971658 0.772973 0.875970 -0.403121 0.065254 
-0.673054 -0.348798 -0.249287 0.551053 0.121340 -0.726013 
0.363830 0.176821 0.115064 0.243175 0.135333 -0.956446 
0.538966 0.265573 0.302160 0.724590 -0.342922 0.592921 
0.657296 0.897293 0.389230 0.744008 -0.181452 0.613248 
-0.542117 2.004922 0.355031 -0.699982 0.618721 0.293784 
0.808224 0.971886 0.152456 -0.568252 0.390426 -0.703880 
-0.946165 0.263442 -0.549758 -0.802527 -0.241981 0.457010 
-0.613155 1.792778 0.593804 -0.667853 0.674368 0.194133 
0.321661 0.346096 0.051677 0.497802 0.063221 -0.830446 
0.786493 1.188400 0.302315 0.714658 -0.248692 0.538397 
0.296134 1.545431 0.826637 -0.844042 0.163074 -0.493859 
-0.526348 2.436517 -0.207276 0.636181 -0.543887 -0.530515 
-0.607052 1.758917 0.517079 0.728759 -0.231314 -0.538761 
0.818477 0.605228 -0.027987 -0.500378 0.300069 -0.736687 
0.591384 1.657519 0.833344 0.677535 -0.588869 0.359235 
-0.414766 2.161377 0.315998 0.568882 -0.561028 -0.564827 
-0.471010 -0.741654 -0.009346 -0.720426 -0.040362 0.680992 
-0.740312 1.418304 0.423794 -0.933982 0.119265 0.276319 
-0.434636 -0.009773 0.239013 -0.788608 -0.240782 0.542842 
-0.304709 2.301916 0.363157 -0.652183 0.602282 0.421247 
-0.036820 -1.161720 0.130133 -0.193749 -0.205327 -0.951519 
-0.223015 0.157590 -0.016103 -0.641653 -0.012023 -0.759318 
0.529874 1.038601 0.436994 -0.719043 0.183482 -0.629680 
0.304637 0.910100 0.305902 0.921421 0.353404 -0.150314 
-0.701415 -0.588072 -0.220138 0.534805 -0.076055 -0.799984 
-0.442055 0.056561 0.266427 -0.779259 -0.261536 0.544895 
-1.064105 1.979755 -0.383332 -0.827781 0.254366 0.496574 
-0.601790 0.588509 0.048381 0.461549 0.371344 -0.663622 
-0.865115 0.247282 -0.382475 -0.813600 -0.201851 0.488203 
-0.165189 2.431063 0.414744 -0.698923 0.555078 0.424017 
1.751907 2.111934 0.765087 0.186655 -0.730811 0.640487 
0.646185 0.324320 0.191158 0.740316 -0.314963 0.588180 
1.010172 1.448273 0.117692 -0.449218 0.614778 -0.645099 
-0.298717 0.536726 0.534262 -0.398663 -0.090722 0.894176 
2.175493 2.197068 0.800173 -0.113633 0.869177 -0.480862 
0.446580 -1.128745 0.023270 0.712872 0.198378 0.643373 
0.368782 -0.336684 0.243381 0.706332 -0.221796 0.669320 
-0.434346 -1.329137 0.002015 0.029568 0.197579 -0.964250 
0.382261 -0.277182 0.092042 0.205947 0.052099 -0.916227 
0.949925 0.522920 -0.105297 0.766957 -0.230829 0.595602 
-0.238374 1.206050 0.692575 -0.775521 -0.345973 -0.523004 
0.850121 0.815332 0.052011 -0.625541 0.312935 -0.699204 
1.981017 2.031319 0.562427 0.171108 -0.857824 0.473677 
-0.591619 0.719236 0.324777 0.828595 0.357991 -0.254841 
0.014495 1.133358 0.156056 0.333156 0.378624 -0.859733 
1.896712 2.281590 1.013806 -0.138754 0.864060 -0.481444 
-0.928248 1.565043 0.046334 0.767600 -0.060968 -0.581372 
0.792216 -0.349806 -0.189230 0.593614 -0.032401 0.794831 
-0.144300 0.141864 -0.067799 -0.592892 0.005236 -0.796413 
-0.353153 -1.009368 0.052018 0.162627 0.033546 -0.941808 
-0.857778 0.371795 -0.311698 -0.835903 -0.196927 0.481645 
-0.435688 -0.827151 0.020778 0.404472 0.016659 -0.886848 
-0.695210 0.878640 0.305292 -0.797467 -0.259818 0.503308 
-0.108351 2.609382 0.262677 -0.727550 0.492045 0.468455 
-0.798763 2.011686 -0.017387 -0.725701 0.515378 0.418035 
-1.185205 2.251080 -0.849604 -0.644007 0.574140 0.500629 
1.929046 2.410985 1.263787 -0.117008 0.883958 -0.449100 
-0.481923 2.494766 -0.182025 -0.773611 0.423365 0.446560 
-0.438737 2.866976 -0.406996 -0.796181 0.350070 0.485187 
-0.662534 1.989537 0.123906 0.835525 -0.334440 -0.401560 
-1.093164 1.770488 -0.176366 -0.813145 0.236046 0.531496 
-0.905010 2.427703 -0.679760 0.679647 -0.504353 -0.528730 
-0.907358 0.908142 -0.231276 0.808051 0.153549 -0.530240 
-0.724878 1.571476 0.534346 -0.932627 0.168913 0.260788 
-0.085246 2.475800 0.451534 -0.705678 0.559569 0.430063 
-0.098787 -1.037512 0.097660 0.014360 -0.165844 -0.977224 
-0.237903 1.105156 0.661845 -0.278508 -0.696024 0.658693 
-0.603593 1.717213 0.766743 -0.627118 0.692156 0.351046 
-0.675377 2.306015 -0.250799 -0.570319 0.630232 0.463015 
0.017741 -0.775349 0.085677 0.374807 -0.168013 -0.893220 
0.037057 0.885606 0.605651 0.170663 -0.134663 0.964505 
0.723938 0.315779 0.081074 0.750479 -0.270271 0.596401 
-0.831603 1.525571 0.284420 -0.901221 0.155657 0.343789 
0.385652 -0.727757 0.131264 0.618945 -0.158172 0.761230 
1.228152 0.807905 -0.360712 0.749017 -0.167115 0.629758 
-0.063461 0.031171 -0.111877 -0.518729 -0.020100 -0.841670 
0.628018 0.657510 0.299052 0.100422 -0.221838 0.910374 
1.053165 1.679239 0.474706 -0.234280 0.912424 -0.308463 
0.236596 -0.651810 0.260114 0.409763 -0.316532 0.830929 
-0.331137 2.758462 -0.181651 -0.607993 0.502508 0.595983 
1.300081 2.098333 0.921380 -0.290163 0.850825 -0.427292 
-0.194498 3.213947 -0.291627 0.778336 -0.308230 -0.546870 
-0.325401 -0.083029 0.391479 -0.632205 -0.250508 0.710325 
-0.605264 2.452522 -0.317011 -0.706066 0.503742 0.489763 
1.278501 0.913277 -0.412233 0.708695 -0.224018 0.642343 
-0.702072 2.028123 0.006356 0.845907 -0.314112 -0.414605 
1.228750 1.106361 -0.303858 0.606686 -0.434161 0.635867 
1.266633 0.787487 -0.439393 -0.678920 0.118485 -0.709379 
0.370452 -0.027379 0.391291 0.630461 -0.256950 0.729674 
1.754568 1.411543 -0.178194 -0.160110 0.753872 -0.590818 
-0.496204 1.666556 0.863418 0.703192 -0.546362 -0.444309 
-0.728024 1.377146 0.340928 0.730394 0.122843 -0.614936 
0.582851 1.030141 0.509182 0.695396 -0.203481 0.670778 
1.816938 1.974185 0.502944 0.201121 -0.849823 0.471148 
0.296160 -0.594608 0.027582 0.266986 -0.079212 -0.862033 
1.017050 1.132699 0.027219 0.623863 -0.408804 0.591180 
0.965707 0.449802 -0.156818 0.764681 -0.199281 0.609282 
0.458917 1.294580 0.710169 0.685931 -0.157807 0.691970 
-0.784811 -0.126966 -0.372839 -0.762602 -0.163319 0.547613 
-0.822351 0.915934 0.005981 -0.911310 -0.084208 0.353487 
1.365565 1.954261 0.650791 -0.295772 0.697087 -0.636964 
-0.201478 -0.654279 0.277793 -0.328743 -0.357875 0.865758 
1.134516 1.516383 0.172649 0.304559 -0.782814 0.438671 
0.472656 -0.846317 0.004512 -0.326829 0.011951 -0.938260 
0.487444 0.611194 0.344701 -0.150020 0.627154 -0.454438 
1.499941 1.701201 0.268108 0.427965 -0.480771 0.714337 
-0.571465 1.540190 0.807947 -0.414184 -0.425691 0.713387 
-0.271276 -0.486174 0.026110 -0.399281 -0.087367 -0.831898 
-1.073835 2.067251 -0.496136 -0.782368 0.338407 0.494225 
-0.486919 2.026848 0.394456 0.621078 -0.501993 -0.549149 
0.362925 0.289381 0.474430 0.473738 -0.195033 0.841091 
-1.273452 1.468014 -0.489301 0.813033 0.083875 -0.531495 
0.044154 3.096554 0.147215 -0.766458 0.343024 0.530892 
-0.201818 1.122631 0.269234 -0.760923 0.456306 -0.379164 
-0.728821 1.851568 0.266169 -0.906667 0.246055 0.323265 
-0.008496 0.051221 0.521556 -0.086221 -0.267707 0.959147 
0.004692 -0.851958 0.076250 0.592081 -0.128504 -0.772777 
-0.961193 1.737458 0.081362 -0.851129 0.225485 0.443972 
0.917866 0.795571 0.023597 0.789691 -0.147291 0.565535 
1.572478 2.114945 0.804455 -0.172465 0.927302 -0.327138 
-0.399476 1.991432 0.590185 0.782303 -0.398490 -0.465623 
-0.596530 -0.244333 -0.104883 0.508841 0.099244 -0.753835 
0.403292 -0.653317 0.114876 0.645605 -0.153336 0.737581 
-0.381362 2.720077 -0.216412 -0.751574 0.408384 0.502139 
0.523194 -0.529459 0.005689 -0.285619 0.059888 -0.888909 
-0.538033 -0.274464 -0.032608 -0.803439 -0.123117 0.561897 
1.513997 2.089312 0.767814 -0.214835 0.803483 -0.545331 
0.575413 0.196195 0.009618 -0.052734 0.140946 -0.858042 
1.227428 0.726598 -0.389371 0.735249 -0.124079 0.655823 
0.117302 1.271468 0.381863 0.643961 0.694884 0.159920 
0.815405 0.778422 0.137085 0.824251 -0.101037 0.544795 
0.743500 0.247993 0.015578 0.756731 -0.233433 0.605457 
0.495672 1.386342 0.603034 -0.396190 0.517631 -0.747446 
-0.673441 0.224268 -0.091892 -0.852702 -0.211702 0.469552 
1.628676 2.196237 0.936899 0.202762 -0.789056 0.561868 
-0.436029 -0.076248 0.196063 -0.811020 -0.225619 0.519794 
0.042487 1.037064 0.615924 0.009198 0.090154 0.960304 
0.588783 0.540856 0.400672 0.341487 -0.192355 0.890911 
0.502324 1.049988 0.506681 -0.881542 -0.162576 -0.327744 
-0.315098 2.967899 -0.300193 -0.697107 0.412304 0.564535 
0.837994 1.681671 0.682741 0.554959 -0.622185 0.489492 
0.140426 0.312562 0.584587 0.220472 -0.161379 0.958571 
-0.935067 0.338372 -0.492786 -0.817087 -0.235695 0.455536 
-0.603710 0.026011 -0.070186 -0.848291 -0.171071 0.495048 
-0.683785 2.370140 -0.330979 -0.600529 0.596897 0.476355 
1.231446 1.955592 0.736483 -0.323191 0.655702 -0.672632 
-0.000074 -0.132941 -0.116963 -0.394327 -0.165468 -0.878956 
0.789206 1.850447 0.989681 0.491076 -0.652142 0.519127 
-0.570960 0.496214 0.420811 -0.538522 -0.287493 0.780121 
-0.707420 0.558823 0.059058 -0.878583 -0.278210 0.372813 
1.862657 2.240302 0.950880 -0.142067 0.880745 -0.443185 
0.337796 -0.469142 0.232323 0.681821 -0.233399 0.690133 
1.221482 2.118798 1.050931 0.323897 -0.775902 0.508392 
-0.615481 2.219493 -0.110604 0.729915 -0.473358 -0.478064 
1.448883 1.397392 -0.075578 -0.115897 0.735629 -0.574267 
-0.143622 1.056762 0.173408 -0.529315 0.410473 -0.721576 
0.933397 1.344744 0.190080 0.591670 -0.463190 0.571103 
1.383333 1.603882 0.209516 0.484122 -0.408421 0.756724 
-0.519656 2.249503 -0.001990 0.687182 -0.558309 -0.459320 
-0.599200 1.958167 0.341147 -0.655847 0.657431 0.290147 
-0.285488 -0.561368 0.022111 -0.291252 -0.089132 -0.835642 
-0.571428 0.263806 -0.076909 0.230945 0.165047 -0.770108 
-0.660980 1.244643 0.400336 0.716319 0.230271 -0.615326 
0.650208 1.710369 0.834210 -0.153411 0.677659 -0.695233 
1.396890 1.479291 0.050575 -0.011228 -0.939559 0.324994 
-0.259079 2.332386 0.315352 0.768561 -0.482304 -0.410537 
1.471309 2.155392 0.924167 0.244151 -0.767114 0.576941 
-0.914196 1.295099 -0.003347 -0.877761 0.065274 0.413572 
1.420581 1.185779 -0.558205 -0.586223 0.367992 -0.687149 
-0.909339 0.724504 -0.264877 -0.875228 -0.184784 0.426888 
0.254983 0.205121 -0.002047 0.614927 -0.012931 -0.785137 
-0.084906 1.308268 0.375564 -0.622835 0.690724 0.307678 
-0.969783 0.371804 -0.552729 -0.816828 -0.252612 0.440202 
1.407305 2.162239 0.971969 0.269612 -0.796199 0.528159 
1.374249 1.866211 0.509328 -0.295216 0.789193 -0.533876 
0.645225 0.224554 -0.025568 -0.149462 0.145862 -0.826109 
1.879729 2.340728 1.134447 0.163359 -0.905275 0.373816 
-1.220150 2.071069 -0.688211 -0.729918 0.417355 0.513579 
-0.281857 0.928851 0.452303 -0.886764 0.191497 0.377158 
1.029399 0.359937 -0.260615 0.713740 -0.130942 0.673324 
0.287574 0.127024 0.466957 0.444845 -0.258222 0.832601 
0.942957 1.892760 0.838184 -0.342571 0.771570 -0.535912 
1.535261 1.550164 0.090310 0.236707 -0.769530 0.533025 
0.563511 1.113479 0.516998 0.857646 -0.070789 0.475102 
-0.101074 3.095377 -0.097594 0.770260 -0.329869 -0.544679 
-0.114482 0.497474 0.601330 -0.194633 -0.076332 0.972128 
1.233263 1.384334 -0.051349 -0.275099 0.698606 -0.575617 
1.687621 2.371825 1.245538 0.199322 -0.926926 0.303516 
0.311161 -0.170732 0.095135 0.356301 0.030766 -0.915800 
-1.292439 1.884138 -0.572283 0.684717 -0.415588 -0.548528 
0.565452 1.590989 0.768966 0.704896 -0.539971 0.391531 
0.751534 -0.004016 -0.069277 0.722092 -0.162839 0.659340 
-1.371320 1.332455 -0.653233 -0.838043 -0.226734 0.491589 
0.128871 -0.501935 0.024412 0.231460 -0.376373 -0.893667 
-0.313559 -0.438700 0.299727 -0.714281 -0.243089 0.654819 
-0.259987 2.751642 -0.081743 -0.625907 0.493933 0.582937 
-1.254499 1.619019 -0.413209 -0.818214 0.053768 0.521196 
0.322460 -1.120550 0.090616 0.098103 -0.171729 0.971637 
-0.437969 -1.016224 0.017878 0.483076 -0.021504 -0.866052 
0.833409 0.306027 -0.072608 0.764660 -0.208235 0.607734 
-0.372281 -0.650221 0.129284 -0.715058 -0.141546 0.670108 
-0.873320 1.382083 0.122976 -0.893998 0.109581 0.379255 
-0.464192 0.266696 0.013844 0.027205 0.169903 -0.861449 
-1.301749 1.790376 -0.469205 -0.791426 0.272810 0.545744 
1.342856 2.141906 1.011856 0.286910 -0.796543 0.498782 
1.319595 1.703125 0.363867 0.450706 -0.505244 0.695974 
-1.002921 0.407426 -0.608311 -0.817206 -0.268721 0.425288 
1.918728 1.915753 0.367434 0.207570 -0.811423 0.542910 
-0.570212 1.084986 0.526178 0.964055 -0.067782 -0.113711 
0.482318 -0.597574 0.037924 0.662524 -0.112722 0.728595 
-0.423187 2.727418 -0.287205 -0.816341 0.344667 0.451675 
0.075499 0.965508 0.614325 0.188729 -0.099113 0.969705 
-0.206943 -0.079400 -0.019829 -0.604685 -0.051838 -0.787436 
0.331208 -0.942296 0.058531 -0.244842 -0.027259 -0.966290 
-0.586816 1.866760 0.507306 -0.693290 0.648384 0.190497 
0.103866 1.179127 0.569516 -0.299002 0.616886 0.705805 
0.029151 1.318522 0.242280 0.488066 0.273194 -0.807386 
-0.071776 3.160899 -0.082456 0.777871 -0.314412 -0.541512 
-0.103527 1.231733 0.485509 -0.136427 0.853329 0.467765 
-0.154063 3.088073 -0.162994 0.768421 -0.335859 -0.542681 
-0.401940 2.946505 -0.410792 -0.705085 0.414513 0.557856 
0.053842 0.526923 -0.081791 0.479325 0.162556 -0.852690 
1.157698 1.771058 0.563683 0.404273 -0.693528 0.587531 
-0.709828 2.388632 -0.397465 0.723238 -0.446179 -0.519247 
1.641400 1.749242 0.263892 0.360111 -0.579216 0.667929 
0.274492 -0.819573 0.174309 0.340814 -0.250530 0.878089 
-0.156573 -0.726662 0.253744 -0.205618 -0.329012 0.918998 
0.246649 -0.696554 0.069754 -0.146702 -0.144616 -0.963849 
-0.447306 2.790068 -0.371064 0.623351 -0.487101 -0.580316 
0.313578 1.615242 0.975181 0.033899 -0.340584 0.935072 
0.226728 -0.914625 0.152007 0.191610 -0.244009 0.947537 
1.148079 1.469345 0.077914 0.375040 -0.702708 0.541050 
-0.509520 0.116997 -0.028876 0.122373 0.135458 -0.815475 
0.500938 1.212570 0.637072 0.720513 -0.123826 0.654938 
0.277092 -0.011878 0.436928 0.477135 -0.258586 0.808869 
1.205713 1.506299 0.103794 -0.396116 0.611645 -0.671794 
1.654089 1.941242 0.513003 0.238897 -0.830449 0.484428 
-0.612113 2.038795 0.191489 -0.620828 0.666778 0.379520 
-0.680034 -0.099841 -0.158486 -0.790228 -0.126744 0.567883 
0.142945 -0.188218 -0.053946 0.527807 -0.089356 -0.832458 
2.041508 2.367415 1.154609 0.132968 -0.897226 0.410166 
0.801591 1.473986 0.330959 -0.412567 0.592741 -0.683929 
-0.485166 -1.060171 -0.020162 0.582944 -0.047062 -0.804129 
-0.517717 2.345420 -0.086483 -0.709628 0.518262 0.463563 
-0.662699 1.359351 0.461573 0.719267 0.154127 -0.632670 
0.886194 0.498706 -0.140443 -0.486050 0.197733 -0.730757 
0.975376 0.286464 -0.243497 -0.594799 0.124667 -0.755854 
-0.057877 0.740471 0.562792 -0.083101 -0.034682 0.988674 
0.428590 1.240256 0.662782 -0.883310 -0.302126 -0.137025 
-0.939328 2.282812 -0.563455 -0.529930 0.655750 0.468794 
0.692546 0.118541 0.009947 0.757675 -0.210060 0.614446 
-0.642121 -0.379605 -0.179430 -0.745581 -0.097412 0.617396 
0.876041 1.739362 0.710118 -0.307924 0.734630 -0.572593 
-0.041427 0.483492 0.603718 -0.095613 -0.076180 0.985762 
-0.395697 0.430369 0.483038 -0.442133 -0.187805 0.873399 
-0.724198 -0.392728 -0.275912 0.560549 0.035911 -0.739497 
0.349430 -1.233058 0.025694 -0.171677 0.150491 -0.960966 
0.927172 0.001104 -0.280203 -0.486936 0.031919 -0.841562 
-0.184664 -0.012735 0.478112 -0.352956 -0.254955 0.874099 
0.580273 0.720104 0.358804 -0.745169 0.239201 -0.549254 
1.140449 1.815996 0.630634 0.391972 -0.731876 0.556019 
1.888417 1.634927 0.027718 -0.220203 0.765288 -0.600242 
0.867357 -0.288421 -0.230307 -0.466392 -0.013859 -0.865703 
-0.549821 1.097028 0.594425 -0.656530 -0.325386 0.591616 
-0.167697 1.117159 0.641473 0.324721 0.047223 0.870543 
-0.357419 2.473253 0.024455 -0.806307 0.417679 0.396874 
-0.108011 3.002669 -0.050772 0.762154 -0.353209 -0.540239 
0.339003 1.521278 0.905483 0.333549 -0.584110 0.698163 
-0.768978 0.633444 -0.145420 0.692739 0.302637 -0.571461 
-0.192069 2.212008 0.648466 0.864050 -0.441129 -0.060067 
0.399462 -0.143240 0.271359 0.681682 -0.221920 0.691071 
-0.037046 -0.352310 -0.075105 -0.367965 -0.260346 -0.879450 
-1.009120 1.105941 -0.274952 -0.845998 -0.047497 0.478534 
0.002178 -0.673175 0.326939 0.509304 -0.249237 0.821764 
-0.604533 1.609539 0.850362 -0.754059 -0.232091 0.584499 
0.879866 0.964153 0.124298 0.746773 -0.197130 0.560293 
-0.878139 0.594732 -0.269663 -0.865046 -0.238107 0.438731 
0.543603 0.430090 0.089329 -0.091263 0.247422 -0.866413 
0.165464 1.048926 0.485004 0.551789 0.761048 0.147397 
-0.622554 2.150990 0.014101 -0.610046 0.643448 0.445887 
-1.098851 2.182268 -0.660094 -0.718245 0.455482 0.492811 
1.053014 0.448798 -0.256918 0.729412 -0.148573 0.654202 
-0.053971 -0.810702 0.086621 -0.176444 -0.165114 -0.955329 
-0.345851 -0.146122 0.366865 -0.689659 -0.249191 0.675041 
-0.483704 2.607406 -0.296453 0.566256 -0.552818 -0.590871 
-0.019471 2.756826 0.254272 -0.811045 0.388395 0.412212 
-0.711134 0.422105 -0.037743 -0.846599 -0.282192 0.441052 
-0.115617 1.214120 0.244368 -0.617618 0.478230 -0.581849 
0.227989 0.071092 0.479451 0.369309 -0.260667 0.868163 
0.116185 -0.189044 0.444078 0.155585 -0.234842 0.957806 
-0.536683 -0.530778 -0.055337 -0.744497 -0.069446 0.642531 
1.478300 1.144545 -0.612739 -0.643282 0.200400 -0.703574 
-0.863598 0.956771 -0.059815 -0.895231 -0.074011 0.384349 
0.316334 -0.573151 0.231020 0.650096 -0.239549 0.718322 
0.209514 1.139998 0.352760 0.859437 0.480043 -0.114166 
-0.674944 1.625525 0.587156 0.727459 -0.025033 -0.670325 
-0.962004 1.203785 -0.192729 0.802041 0.025309 -0.542659 
-0.162849 0.473161 -0.035202 -0.594436 0.076725 -0.782454 
0.518207 0.342761 0.044790 0.023917 0.170539 -0.898537 
0.214758 0.563490 -0.009706 0.575124 0.123986 -0.779289 
-0.098600 -0.254956 -0.062512 -0.469301 -0.154541 -0.847619 
-0.969173 0.821508 -0.325831 -0.860652 -0.166645 0.454037 
-1.199197 1.907337 -0.473322 -0.809044 0.268746 0.519052 
1.364504 1.236558 -0.489604 -0.536262 0.505576 -0.672517 
-0.610276 0.672768 0.209155 0.719963 0.458527 -0.083642 
-0.496071 2.316046 -0.023105 -0.702322 0.544035 0.453155 
-0.153837 2.278764 0.614446 0.861359 -0.451505 -0.093189 
-0.074347 0.965879 0.091762 -0.457776 0.483283 -0.727060 
-1.292423 1.119386 -0.775845 -0.859662 -0.319691 0.376415 
-0.634942 2.687809 -0.559286 0.706130 -0.450191 -0.540672 
1.839475 1.675163 0.092613 -0.207698 0.783285 -0.578493 
-0.708930 2.566297 -0.575816 -0.701080 0.489188 0.518608 
-0.680049 0.421117 0.026301 -0.841154 -0.306166 0.436000 
-0.656911 1.781189 0.410897 0.557631 -0.414034 -0.564933 
-0.044279 2.686525 0.266222 0.749752 -0.439123 -0.487734 
1.527884 1.376291 -0.123779 -0.013002 -0.895433 0.394601 
1.071672 1.463399 0.085460 -0.459449 0.617334 -0.637990 
0.400401 0.359536 0.471051 0.454730 -0.170638 0.864584 
-1.339514 1.985872 -0.743657 -0.729720 0.401778 0.533014 
0.866364 1.323634 0.255004 0.634275 -0.410993 0.551956 
-0.400408 -0.267264 0.143209 -0.816732 -0.158408 0.547245 
0.358438 -0.667916 0.170361 0.630914 -0.190001 0.744645 
0.460913 -0.294187 0.049532 0.014533 0.064290 -0.893601 
-0.685465 1.666431 0.650791 -0.940568 0.198672 0.230804 
1.536064 1.228353 -0.300104 -0.110267 -0.902236 0.391634 
-0.435153 0.523214 0.204994 -0.174057 0.461300 -0.704616 
-0.645347 0.814560 0.156893 0.731956 0.396600 -0.515964 
0.268560 -0.357556 0.056224 0.473302 -0.062970 -0.862329 
-0.697619 -0.261952 -0.246905 -0.756023 -0.123798 0.588099 
0.231457 0.698509 0.007836 0.576944 0.283207 -0.724852 
-0.883586 1.877293 -0.022953 -0.859128 0.253002 0.435828 
-0.563106 2.715886 -0.479668 0.669463 -0.469278 -0.557091 
-0.833884 1.891396 0.027544 -0.871132 0.259439 0.408815 
1.602919 1.536158 0.048785 0.287409 -0.722347 0.595471 
-0.312442 0.568241 0.050433 -0.676376 0.146415 -0.697001 
2.153893 2.228868 0.860201 -0.111784 0.872354 -0.475105 
-0.886909 2.081619 -0.226709 -0.586231 0.655052 0.454401 
1.394879 0.800325 -0.572514 -0.646891 0.032451 -0.750175 
-0.684855 1.041311 0.244132 0.722705 0.329835 -0.581571 
-0.416270 2.333586 0.080994 -0.728208 0.538898 0.417396 
-0.363297 1.916750 0.805894 -0.265020 0.567979 0.734505 
-0.235904 2.884040 -0.135864 -0.675845 0.439838 0.566967 
0.949708 1.103405 0.093198 0.665090 -0.331826 0.576841 
-1.350878 1.392179 -0.610767 0.818581 0.187059 -0.521180 
1.428859 1.670323 0.238845 -0.141000 0.877533 -0.452977 
1.369623 1.168015 -0.510823 -0.568737 0.435211 -0.677851 
0.812958 0.545102 0.075246 0.773683 -0.250875 0.573778 
0.921792 -0.134745 -0.269037 -0.484292 0.000652 -0.851547 
1.838385 2.190133 0.876564 0.165818 -0.770675 0.592407 
0.373603 -0.123960 0.339598 0.658146 -0.244304 0.708459 
-0.216438 2.555050 0.138804 -0.677071 0.530200 0.495711 
0.739830 -0.533113 -0.149049 0.541443 -0.004146 0.829902 
-0.692249 0.551031 -0.118216 0.508150 0.261650 -0.652322 
-0.830763 1.595450 0.321687 -0.898671 0.178405 0.341462 
0.376763 -0.394737 0.190454 0.713001 -0.210004 0.665581 
-0.835217 1.382385 0.204036 -0.905858 0.109073 0.350009 
0.390815 -0.225429 0.249542 0.695353 -0.218473 0.679520 
1.576023 2.030318 0.682403 0.213221 -0.894277 0.375432 
-0.251390 0.964321 0.508166 -0.802372 -0.013624 0.559333 
0.638846 -0.584432 -0.096590 -0.385118 0.007438 -0.906250 
1.732213 1.663851 0.127149 0.327917 -0.628853 0.654617 
0.537529 -0.757707 -0.033828 -0.349822 0.006982 -0.926501 
-1.186059 1.724644 -0.312961 0.792572 -0.192170 -0.559186 
-1.150891 1.672108 -0.266175 0.801340 -0.125344 -0.552770 
0.697644 -0.255795 -0.078724 -0.484652 0.100684 -0.825029 
-1.187170 0.801611 -0.814991 -0.841990 -0.337895 0.341509 
0.471385 0.373969 0.411657 0.551551 -0.237252 0.763553 
1.279692 1.570112 0.174140 -0.374406 0.588391 -0.713868 
1.103262 1.006909 -0.159213 -0.600036 0.405299 -0.651789 
1.981467 2.268167 0.971366 0.142034 -0.850835 0.494996 
-0.348337 -0.341355 0.259672 -0.753648 -0.214719 0.613326 
-0.259284 2.366925 0.382365 -0.687469 0.556946 0.415094 
-1.153337 2.164700 -0.714625 0.614700 -0.574002 -0.519257 
-0.487960 2.000865 0.463021 -0.739993 0.596365 0.222681 
2.138162 2.283594 0.958326 -0.106902 0.875502 -0.471010 
-0.490011 0.494451 0.106401 0.145070 0.357558 -0.749214 
2.053512 2.008693 0.500101 -0.157325 0.824897 -0.534580 
0.641037 -0.666011 -0.090802 0.558879 -0.024699 0.821112 
-0.780903 0.586853 -0.074266 -0.876147 -0.259599 0.394560 
-0.027058 -0.931252 0.190514 -0.377487 -0.185759 0.902967 
1.323446 0.997897 -0.470058 -0.646407 0.266542 -0.684223 
-0.282197 0.841727 0.190455 -0.755464 0.418725 -0.431662 
0.447701 0.087881 0.321634 0.673095 -0.267752 0.678875 
0.870520 1.847821 0.838153 -0.330740 0.680114 -0.641284 
-0.311273 0.238936 0.066664 -0.444329 0.077731 -0.844842 
0.608849 -0.024605 0.040716 0.755312 -0.198765 0.621814 
-0.004518 -0.705334 0.068145 -0.627701 -0.153039 -0.736096 
1.921919 1.992561 0.507615 0.186772 -0.846545 0.486359 
-1.032262 0.897684 -0.408063 0.823298 0.199624 -0.516419 
0.182094 0.642793 -0.019534 0.533660 0.200175 -0.788876 
2.110899 2.163291 0.759206 0.136385 -0.843176 0.509559 
-0.747910 1.195246 0.200066 0.731147 0.230292 -0.581633 
1.741254 1.861631 0.350887 -0.212723 0.806686 -0.546777 
0.972274 1.529150 0.319735 0.382068 -0.750612 0.380593 
0.399475 0.660773 0.400420 0.590396 0.682558 -0.015158 
0.786338 -0.606250 -0.165298 -0.441316 -0.056442 -0.891592 
0.200148 0.146749 0.513687 0.312136 -0.240040 0.903675 
-1.123736 1.940848 -0.414944 -0.819130 0.259946 0.507574 
-1.174640 1.048653 -0.505212 -0.850901 -0.215503 0.470209 
-0.724710 1.019654 0.160014 0.737812 0.297690 -0.572544 
-1.173323 0.878730 -0.766885 -0.867875 -0.348609 0.327140 
-0.644364 2.448877 -0.379397 0.701690 -0.492369 -0.511993 
1.708066 1.546406 -0.008984 -0.196803 0.795070 -0.556846 
-0.772595 0.442222 -0.152192 -0.856193 -0.243988 0.447842 
1.909196 1.952313 0.437219 0.198665 -0.829379 0.512945 
0.427354 -0.829693 0.067253 0.591317 -0.108606 0.792630 
-0.198793 -0.810499 0.203948 -0.212008 -0.291548 0.929098 
0.013034 0.187129 -0.151388 0.497689 0.026264 -0.858229 
-0.396146 -0.269129 0.057179 -0.031931 0.064326 -0.898421 
-0.023350 3.106936 0.025399 -0.842207 0.290254 0.442877 
-0.270956 -0.051422 0.029519 -0.570704 -0.034776 -0.794513 
0.274434 0.117234 0.013479 0.618074 -0.035999 -0.782230 
-1.221976 2.189219 -0.826012 -0.672306 0.525302 0.508942 
-0.896615 0.544369 -0.319066 -0.858469 -0.214467 0.454423 
-0.724921 2.083496 -0.039642 -0.485438 0.741183 0.424432 
0.133188 -0.753764 0.249845 0.182152 -0.313330 0.927818 
1.390970 0.870725 -0.562677 0.706935 -0.053551 0.701256 
0.711962 0.061230 -0.034794 0.753145 -0.183907 0.627743 
0.525161 0.121527 0.238063 0.736664 -0.300265 0.598387 
0.354559 0.104716 0.114198 0.260132 0.117989 -0.951679 
-0.477951 0.414358 0.061737 0.113151 0.242332 -0.826235 
-0.077482 -0.589532 0.327098 -0.179465 -0.314887 0.922463 
-0.894493 0.799397 -0.198556 -0.881716 -0.149047 0.413096 
-0.565845 -0.462714 -0.086175 0.539187 0.074173 -0.783739 
-0.400867 2.844511 -0.346767 0.803825 -0.329670 -0.487611 
-1.153916 1.212087 -0.420612 -0.841990 -0.110802 0.485138 
-0.354914 0.248515 0.458782 -0.551485 -0.218516 0.779213 
0.268282 0.408655 0.547833 0.315165 -0.131336 0.935152 
-0.203137 -0.848476 0.073798 0.183306 -0.123662 -0.962751 
-1.382260 1.471661 -0.623148 -0.828945 -0.144565 0.504776 
-0.862995 0.466217 -0.333658 0.778464 0.215860 -0.546614 
2.083539 2.454986 1.329773 -0.117442 0.915877 -0.357012 
0.437379 -0.223805 0.065249 0.115547 0.064780 -0.896478 
-0.349128 0.191181 0.108912 -0.186614 0.157964 -0.955557 
-0.219532 -0.165547 -0.008970 -0.602240 -0.071035 -0.789295 
-0.443809 -0.942281 0.013073 0.421740 -0.023926 -0.903452 
-0.612808 1.296485 0.635294 -0.561603 -0.383355 0.635838 
1.146715 0.418289 -0.403943 0.680352 -0.061940 0.722911 
0.428122 1.118262 0.647442 -0.853122 -0.142876 -0.292237 
1.599341 2.072212 0.743255 0.194514 -0.919493 0.337841 
-0.108280 -0.974977 0.161023 -0.148341 -0.207139 0.962906 
-1.389211 1.625182 -0.618995 -0.807517 0.053859 0.525806 
-0.460703 0.276406 0.360456 -0.716434 -0.307506 0.587924 
0.698140 0.265682 -0.051506 -0.223080 0.153476 -0.803561 
-0.662555 1.571625 0.666755 -0.952039 0.167971 0.212961 
1.398821 1.427485 -0.025036 -0.161667 0.707469 -0.598852 
-0.183209 0.307118 -0.043562 -0.630799 0.029315 -0.766175 
0.014179 3.475755 -0.091677 -0.815899 0.255015 0.517243 
0.414176 0.574656 0.347056 0.212585 0.643844 -0.569218 
0.637849 0.965616 0.324631 -0.542570 0.387610 -0.740919 
-0.560844 -0.610041 -0.125954 0.490835 0.069436 -0.804294 
-0.129989 0.395560 -0.056176 -0.575547 0.085591 -0.797423 
-0.359744 2.516419 -0.041824 0.494382 -0.620317 -0.602014 
0.361768 -0.858181 0.045598 -0.144279 -0.027795 -0.928238 
1.776910 2.208688 0.917064 -0.151780 0.890939 -0.416343 
1.324425 1.521147 0.117115 0.080344 -0.900529 0.354857 
-0.339792 0.795750 0.421864 -0.855001 0.387694 0.332544 
0.058480 0.014383 0.506410 0.131622 -0.260719 0.953644 
-0.935747 0.016704 -0.492904 0.665124 0.077600 -0.617127 
0.872938 0.143823 -0.163134 -0.580792 0.142392 -0.759261 
0.136078 -0.017158 0.490070 0.206943 -0.251841 0.943535 
-1.240644 1.221737 -0.540399 0.820191 0.191058 -0.519571 
-0.752143 0.352230 -0.169943 -0.858383 -0.214526 0.460251 
1.328868 0.926881 -0.461491 0.726324 -0.151304 0.652484 
-0.179781 -0.499391 0.038232 -0.150114 -0.291618 -0.896671 
-0.674194 0.478304 0.075964 -0.850242 -0.314361 0.410436 
-0.386005 -0.943841 0.068957 -0.570338 -0.099915 0.808321 
-1.281577 1.575831 -0.467797 0.806707 0.008311 -0.539323 
-0.288902 2.041203 0.739626 0.875483 -0.413253 0.037043 
-0.816383 0.743740 -0.061756 -0.909991 -0.170910 0.353709 
-0.928869 1.101703 -0.179594 0.799345 0.083101 -0.541011 
-0.082439 0.152703 0.542384 -0.171439 -0.234776 0.950428 
-0.938276 0.420739 -0.463317 -0.830468 -0.236446 0.448215 
-0.415546 0.248003 0.414102 -0.632168 -0.250189 0.712023 
-0.938370 2.226245 -0.515316 0.726019 -0.429003 -0.521943 
-0.602450 0.353477 -0.100505 0.284369 0.183387 -0.748174 
0.075353 0.815339 0.585805 0.202728 -0.229106 0.946462 
0.982390 1.046074 0.036645 0.670662 -0.333132 0.582698 
-0.313846 0.666918 0.016231 -0.696521 0.181820 -0.691470 
-0.532158 2.787042 -0.483054 -0.760437 0.398508 0.502149 
-0.444674 2.360564 0.008996 -0.734462 0.509944 0.431657 
-0.320522 -0.523243 0.094711 -0.117360 0.009060 -0.933294 
-0.788447 0.218377 -0.237216 -0.823031 -0.168457 0.513865 
-0.570704 -0.533120 -0.118784 0.514290 0.074961 -0.790628 
-0.818521 -0.042461 -0.410156 -0.772543 -0.181656 0.527020 
-0.373281 -0.290041 0.213043 -0.779084 -0.190832 0.586611 
-0.718079 2.309662 -0.308148 -0.534084 0.654000 0.459391 
-0.347586 2.828195 -0.260318 0.815846 -0.316332 -0.476795 
0.095984 -0.919306 0.089310 0.006623 -0.170577 -0.976511 
0.627737 0.309348 -0.013324 -0.126645 0.162827 -0.841862 
-0.632700 1.361223 0.676533 -0.785391 -0.252980 0.552480 
1.075751 2.114423 1.119687 0.364320 -0.755815 0.526893 
-0.000273 1.028416 0.116214 -0.251956 0.479471 -0.839596 
-0.037524 1.297518 0.256748 -0.601570 0.367314 -0.672527 
2.107749 2.391902 1.192026 0.120498 -0.896542 0.419189 
-0.009494 -0.187312 0.444391 -0.023265 -0.242329 0.967765 
-0.702697 0.617351 0.196289 -0.831820 -0.223519 0.399890 
1.399078 1.243131 -0.382529 -0.253336 0.681165 -0.557366 
-0.044872 1.193147 0.200910 -0.470866 0.352450 -0.793530 
-0.678877 0.586972 -0.057534 0.540833 0.305701 -0.638479 
-0.499937 -0.912944 -0.032265 0.464751 -0.053559 -0.876134 
0.343972 0.552824 0.149564 0.599489 0.334016 -0.683717 
0.461037 1.380946 0.698062 0.842131 -0.263579 0.420631 
0.899859 1.025349 0.078263 -0.565915 0.416713 -0.682555 
-0.333929 0.585143 0.118246 -0.628406 0.278166 -0.684459 
0.958984 0.649300 -0.123421 -0.659945 0.280876 -0.683282 
-0.625704 0.727642 0.255597 0.900056 0.294750 -0.178988 
-1.024062 1.025337 -0.322661 -0.850446 -0.103052 0.471079 
1.495739 1.331809 -0.168381 -0.040334 0.787179 -0.522022 
-0.082133 0.635196 -0.046202 -0.422062 0.191783 -0.860014 
-0.157817 1.141820 0.555552 -0.917885 0.037264 -0.267733 
-0.041892 -0.823707 0.239768 -0.327712 -0.237410 0.905386 
1.498118 1.606467 0.138296 -0.153939 0.854907 -0.481013 
