0.690910 0.050073 0.462793 -0.616063 -0.133852 0.763166 
1.785052 -0.143292 1.435148 0.920115 -0.194324 -0.280731 
-1.273667 -0.655250 1.291707 0.653318 0.378184 0.630765 
0.562601 0.166210 0.350269 -0.560676 -0.199036 0.791357 
-0.229339 1.095712 0.053429 -0.869438 0.386734 -0.272291 
0.844286 -0.722691 0.554460 0.691079 0.004784 -0.718983 
0.216481 -1.207467 0.159932 0.713168 -0.176206 -0.647442 
-1.996699 -0.319898 1.570700 0.278518 0.338243 0.846315 
-2.280433 -0.485706 1.878836 -0.576577 -0.470480 -0.665452 
-0.171393 1.141379 0.376782 0.205174 0.122779 0.879691 
-1.631825 -0.746317 1.635097 -0.358319 -0.500620 -0.771858 
1.123782 -0.759263 0.847189 -0.759879 0.172391 0.624838 
0.683766 0.306678 0.300821 0.811170 0.006546 -0.572070 
-0.681283 -0.366488 0.438720 0.576596 0.016764 0.752252 
0.527470 -0.948792 0.296768 0.548141 -0.127679 -0.802553 
2.233799 0.600505 2.112217 -0.893348 0.138074 0.425179 
1.897117 0.485576 1.599133 -0.726449 -0.158912 0.589508 
1.842731 -0.118741 1.517518 0.934638 -0.173163 -0.259459 
2.083612 0.612254 1.915020 -0.811209 0.081243 0.513688 
-1.567946 0.604210 1.287607 0.550285 -0.241038 0.774676 
-1.291266 -0.507322 1.118789 -0.684722 -0.281419 -0.655804 
-2.746519 -0.123832 2.380791 0.825013 0.346031 0.420521 
-2.040187 0.549811 1.517079 0.343293 0.083622 0.901395 
2.263529 0.235762 2.289571 -0.936271 0.220325 0.189641 
0.115222 0.806622 0.360908 0.176754 0.006564 0.979909 
-0.340553 0.069314 -0.141037 -0.724589 -0.119176 -0.641721 
-1.131537 0.516826 0.786503 -0.660092 0.003358 -0.718609 
0.277183 0.918488 0.245295 0.837414 0.217445 0.464309 
0.412618 -0.403135 -0.019313 0.738486 -0.133649 -0.656271 
1.215041 -0.209604 0.867746 0.730175 -0.185310 -0.647706 
-1.562498 0.097446 1.254690 -0.552825 -0.298626 -0.758535 
1.291704 0.322715 0.920509 0.716626 -0.261895 -0.645762 
1.967494 0.663334 1.748120 -0.756684 0.027811 0.583103 
-1.946670 0.652675 1.483746 0.332301 -0.038299 0.902958 
-0.257780 -0.509676 -0.126651 -0.143240 -0.374766 -0.847107 
-1.656891 -0.067177 1.316494 0.689155 0.080632 0.693109 
-0.155968 -1.213378 0.121662 0.026070 -0.239499 -0.880462 
0.198898 -0.495653 0.158640 0.307804 -0.138292 0.937631 
0.974846 0.255385 0.653883 0.725132 -0.185825 -0.657589 
0.892522 0.307210 0.558991 0.759602 -0.108639 -0.632408 
0.134006 0.322816 0.305891 0.174271 -0.289689 0.935868 
0.250182 -0.846012 0.019440 0.044491 -0.364730 -0.901142 
1.977334 -0.324787 1.958353 0.828947 -0.429802 -0.329546 
0.827918 -0.408577 0.569643 -0.689752 -0.021974 0.721417 
1.220319 -0.031365 0.905417 -0.653503 0.011701 0.709190 
-1.990939 -0.189393 1.494395 -0.641176 -0.252974 -0.704677 
-0.990777 0.511777 0.697021 -0.533563 0.365389 -0.753934 
1.952380 -0.429659 2.093527 -0.860429 0.405255 0.207656 
0.562782 0.458348 0.129034 0.849683 0.150997 -0.482512 
-1.044911 -0.755681 0.963430 -0.791063 -0.252675 -0.546816 
1.979010 0.380967 1.709719 -0.772745 -0.054250 0.562905 
1.337473 -0.746622 1.344729 0.698574 -0.565630 -0.404998 
-0.388890 -0.040711 -0.060777 -0.813239 -0.099439 -0.568385 
2.152579 -0.018858 2.541363 -0.884505 0.428443 0.067769 
1.773011 0.276830 1.393188 0.901609 -0.202480 -0.311918 
-0.372133 0.626737 -0.113621 -0.635535 0.378238 -0.633776 
0.249898 -0.957452 0.124521 -0.007311 0.119891 0.967823 
-1.012818 -0.460185 0.827400 -0.753215 -0.185084 -0.613710 
0.270823 0.046680 0.175682 0.239699 -0.217713 0.918505 
-1.558543 0.790907 1.229349 -0.182254 0.736853 -0.629710 
-0.081402 -0.686614 -0.069725 -0.091928 -0.428030 -0.886755 
0.315303 0.150893 0.172572 0.135885 -0.260293 0.955708 
-1.931276 -0.264045 1.492671 -0.647422 -0.310198 -0.677095 
0.004673 1.040594 0.386922 0.149752 0.190083 0.969434 
-0.335535 -0.355033 -0.117180 -0.693208 -0.181144 -0.675211 
0.163647 1.261412 0.246810 -0.228831 0.941768 0.141446 
1.362871 -0.532932 1.061201 -0.752704 0.256503 0.588010 
1.572462 -0.587356 1.539689 0.625936 -0.533632 -0.549848 
-0.344202 -0.674083 0.052940 0.044608 -0.002813 0.983025 
-1.923546 -0.192599 1.464111 -0.671994 -0.239096 -0.678025 
-0.491119 -0.350088 0.150383 0.234060 -0.037898 0.909835 
-2.544461 0.469484 1.750503 -0.636397 -0.022433 -0.765307 
1.800164 -0.469719 1.744920 0.845573 -0.465322 -0.241739 
-0.293351 -0.572886 0.093068 -0.330823 -0.093889 0.900113 
0.712030 -0.330562 0.419181 0.694541 -0.082938 -0.703884 
-1.381836 -0.444548 1.200488 -0.642830 -0.308125 -0.689822 
0.857878 -0.468869 0.599029 -0.698932 0.001227 0.709156 
-0.114321 1.230208 -0.020778 -0.683033 0.438260 -0.553213 
0.533393 -0.120169 0.137525 0.774244 -0.086099 -0.619126 
1.698522 -0.493217 1.598496 0.844442 -0.479168 -0.220462 
2.025074 -0.295381 2.351875 0.827896 -0.510715 -0.167029 
-0.233837 -0.433536 0.163558 -0.407477 -0.114744 0.897291 
-1.087005 0.080382 0.802928 -0.723423 -0.218498 -0.643372 
-0.377605 -0.161862 0.081625 0.073752 -0.135382 0.958169 
-0.304903 0.358965 -0.250959 -0.684853 0.055262 -0.718815 
-0.843980 0.549567 0.579321 -0.619366 0.213835 -0.734252 
-1.960061 0.769346 1.446717 -0.577161 0.143490 -0.768058 
0.435794 -0.583111 0.138163 -0.188116 0.009957 0.944615 
0.793909 -0.913214 0.500489 -0.639926 -0.092874 0.755680 
2.235854 0.119815 2.360083 0.978776 -0.171982 0.025664 
-0.521704 -0.225785 0.131156 -0.782144 -0.103434 -0.611492 
-1.238811 -0.815478 1.444457 0.625652 0.504709 0.587056 
-1.626790 -0.990998 1.811290 0.439535 0.513835 0.734505 
0.393848 -0.623343 0.090489 -0.131737 0.012897 0.969576 
1.226122 -0.813908 1.245683 -0.768686 0.549610 0.304970 
-1.374901 -0.380758 1.156609 -0.641958 -0.282949 -0.703255 
-1.682776 -0.193694 1.346220 0.716447 0.162199 0.656770 
0.071159 -0.477273 0.187049 0.150436 -0.169751 0.971134 
-1.646057 0.988715 1.331272 0.442611 0.141739 0.788171 
-2.472195 0.433242 1.806165 0.628268 0.115923 0.702663 
-2.286590 -0.107845 1.655340 -0.547998 -0.340070 -0.756055 
-2.804394 0.419855 2.076221 0.891456 -0.023394 0.421618 
2.031742 -0.266971 2.483866 -0.908631 0.364501 0.017583 
-1.474928 -0.683479 1.491173 -0.431529 -0.504547 -0.708433 
-1.649610 -0.805636 1.700205 0.478697 0.469870 0.716823 
-1.871016 -0.033769 1.390565 -0.720369 -0.075730 -0.679811 
1.256069 -0.415257 0.916164 0.739861 -0.201047 -0.634053 
-0.116937 1.220653 0.300575 0.336323 0.698485 0.588906 
0.356051 0.503091 0.243651 0.080673 -0.032477 0.929940 
1.623588 0.800729 1.267336 -0.654963 0.487390 0.435118 
0.476702 0.423521 0.025482 0.858978 0.107762 -0.474839 
-0.244605 -0.098247 -0.242349 -0.579012 -0.151731 -0.775564 
0.488198 -0.267198 0.074982 0.757242 -0.107221 -0.639726 
1.074321 -0.428119 0.788305 -0.726981 0.104525 0.666447 
-2.444137 0.367775 1.757145 0.596594 0.076685 0.747972 
-0.456569 -0.095296 0.036205 -0.802732 -0.098262 -0.583386 
-0.712393 0.124092 0.494461 0.637224 -0.145835 0.744497 
0.157465 0.943181 -0.088328 0.579247 0.292812 -0.741759 
-1.819819 0.705210 1.360835 -0.501184 -0.228035 -0.822524 
1.694672 -0.203283 1.371355 -0.914626 0.175868 0.262971 
0.400265 0.503338 0.304241 -0.620653 0.200596 0.755215 
-1.899106 -0.510881 1.612668 -0.634407 -0.437963 -0.632966 
1.235480 -0.150895 0.914315 -0.686324 0.071910 0.686065 
1.633104 -0.269690 1.262920 0.669897 -0.281572 -0.669654 
2.011672 0.577470 1.732467 0.936871 -0.007954 -0.337013 
-2.224791 -0.514080 1.834529 -0.578318 -0.439156 -0.681247 
0.329846 -0.323092 0.129398 0.637873 -0.127224 0.735114 
-0.978424 0.038423 0.694445 -0.746526 -0.172664 -0.632555 
-1.557600 0.407917 1.237210 -0.608124 -0.321811 -0.724891 
-1.213967 0.645032 0.907522 -0.422508 0.451089 -0.730102 
0.341956 -0.532916 -0.060390 0.676115 -0.172629 -0.696184 
0.904472 -0.256610 0.612132 0.723514 -0.076726 -0.681814 
-0.070188 -0.120939 -0.329662 -0.443413 -0.182234 -0.845441 
1.863478 -0.406819 1.787260 0.844886 -0.428638 -0.290120 
-0.106284 1.275266 0.046371 -0.685761 0.651554 0.007540 
-1.373709 0.304592 1.120823 0.571244 -0.102744 0.770259 
-0.535074 0.126976 0.141928 -0.824846 -0.081528 -0.554979 
-2.635972 -0.215509 2.228256 -0.710241 -0.438192 -0.518273 
2.026259 0.414217 1.753940 0.742311 -0.383264 -0.535421 
1.499837 -0.495102 1.294558 -0.813460 0.384274 0.341897 
1.291516 0.387464 0.975705 -0.585929 -0.189822 0.750027 
-1.203448 -0.756484 1.280677 0.675685 0.395849 0.593702 
0.346231 -0.417922 0.078139 0.410933 -0.085107 0.828730 
-0.755630 0.091391 0.448395 -0.778383 -0.125522 -0.611642 
-2.718528 0.519030 1.950885 -0.800530 0.128839 -0.533160 
-2.072756 0.475579 1.502999 -0.454960 -0.358822 -0.795902 
-0.236024 -0.990544 0.113821 0.097018 0.113210 0.977035 
2.113180 -0.001950 2.965768 -0.932911 0.327376 -0.141964 
-2.390659 0.535919 1.662827 -0.635247 -0.018209 -0.770531 
-1.901224 -0.114018 1.457538 0.281654 0.206597 0.916659 
-0.192039 0.674521 -0.203943 -0.438359 0.470211 -0.746823 
1.212160 -0.098810 0.862813 0.728245 -0.201578 -0.646513 
1.477112 0.016639 1.081966 0.725362 -0.271475 -0.631640 
-0.459337 -0.264305 0.043622 -0.779887 -0.111703 -0.613241 
-0.137807 0.258311 -0.359011 -0.590343 0.025760 -0.791607 
-1.735778 0.575641 1.336654 -0.597412 -0.326901 -0.706996 
1.546155 -0.377363 1.199157 0.714891 -0.326080 -0.604539 
0.180074 0.545193 0.353006 0.210678 -0.234416 0.944666 
0.363971 -0.271452 0.062846 0.123981 -0.105392 0.940058 
0.752381 0.269494 0.392551 0.794946 -0.027362 -0.603592 
-1.380894 -0.897868 1.592412 0.562805 0.517177 0.629791 
1.092630 -0.252762 0.794383 -0.709273 0.078404 0.684100 
-0.838052 0.009152 0.557479 -0.765110 -0.128067 -0.628317 
-1.857885 0.544074 1.396821 -0.521692 -0.307515 -0.766753 
-2.220905 -0.071436 1.606379 0.536556 0.239178 0.804504 
-1.966693 0.245189 1.443827 -0.505028 -0.112326 -0.831910 
0.176908 -0.112793 -0.282900 0.518908 -0.146441 -0.819390 
0.595280 0.385107 0.441208 -0.615381 0.133333 0.756178 
-2.576311 0.410895 1.792089 -0.666767 -0.069518 -0.724870 
-2.668643 -0.048219 2.140410 -0.870893 -0.207398 -0.423435 
2.146267 0.371676 2.039226 -0.873092 0.084224 0.370523 
-1.241946 -0.545473 1.083600 -0.704187 -0.273411 -0.636847 
2.165039 0.097716 2.082313 -0.924237 0.159605 0.223185 
1.711214 0.856156 1.343278 -0.534216 0.556629 0.601808 
-0.625322 0.335228 0.229755 -0.830761 0.029570 -0.536919 
0.176600 -0.362865 0.190149 0.283369 -0.038313 0.954502 
0.108701 0.732735 0.364560 0.113782 0.098549 0.984540 
1.181448 0.401789 0.826281 0.716377 -0.255922 -0.648777 
-0.115731 0.693005 0.374591 -0.107665 0.152894 0.977200 
0.598161 0.221934 0.217778 0.802747 -0.111673 -0.578627 
1.372044 0.378596 0.987201 0.711353 -0.266552 -0.649500 
-0.231213 0.594001 -0.226707 -0.515142 0.335910 -0.765787 
1.895284 -0.541860 2.275139 -0.838947 0.489488 0.172615 
0.209007 -0.332505 -0.226863 0.482593 -0.267788 -0.820548 
0.429727 -0.102624 -0.006415 0.790450 -0.100788 -0.597025 
-2.205701 0.616222 1.571402 -0.653440 -0.028096 -0.754155 
-2.311458 -0.341769 1.833665 0.662761 0.313576 0.638018 
-0.174842 1.220986 0.367193 0.496900 0.513949 0.650266 
-1.079128 -0.520829 0.914246 -0.744697 -0.217650 -0.611511 
0.003724 -0.954324 0.139590 0.594500 -0.114205 0.784771 
1.020688 -0.402114 0.722265 0.734506 -0.129674 -0.658068 
-0.819220 -0.251181 0.596028 0.746315 0.026080 0.662159 
-0.675057 0.633954 0.436078 -0.711063 0.260814 -0.567760 
2.284239 0.257663 2.355204 0.971460 -0.205073 -0.077362 
-0.211839 1.144386 0.112899 -0.877059 0.450990 -0.128919 
0.957832 -0.629827 0.686555 0.738730 -0.122977 -0.654592 
-0.480271 -0.172927 0.180802 0.319127 -0.098980 0.879709 
-2.826538 0.312950 2.192832 0.913981 0.025760 0.374697 
0.736179 -0.736202 0.474131 -0.582710 -0.032711 0.777423 
-1.579635 0.218858 1.257578 -0.551209 -0.301580 -0.758229 
-1.003984 -0.845644 0.952977 0.818614 0.225940 0.526476 
0.338209 -0.089944 -0.113261 0.687733 -0.182085 -0.657584 
-1.816738 -0.630534 1.665174 0.228537 0.429147 0.822396 
-0.579471 0.339997 0.169536 -0.837719 0.030168 -0.524714 
-0.095993 -0.774018 0.134392 -0.210206 -0.134323 0.962670 
-1.918408 -0.412926 1.560045 -0.638141 -0.405091 -0.648259 
0.986799 -0.716969 0.717893 0.743082 -0.139658 -0.646055 
-0.056607 1.166966 -0.073969 -0.497064 0.175497 -0.837310 
1.991729 -0.353599 2.112288 -0.879682 0.364513 0.176327 
-0.352421 0.610422 0.268470 -0.386797 0.013789 0.821275 
-0.312189 -0.223908 0.143288 -0.525554 -0.151945 0.789470 
-2.657142 -0.143736 2.213417 0.741067 0.405516 0.513592 
0.177462 -0.736376 0.124685 0.066571 -0.094913 0.961987 
1.545430 -0.094071 1.169968 -0.722792 0.109638 0.633060 
0.070992 -0.903964 0.126518 0.215157 -0.116032 0.955391 
0.677972 0.503965 0.417151 0.688990 0.421590 -0.527689 
-0.206558 -0.890173 0.028351 -0.076817 -0.338818 -0.929087 
-0.342549 -0.076721 -0.109088 -0.705466 -0.174092 -0.644290 
-0.122314 1.008137 0.364886 -0.201606 0.008830 0.975783 
-0.251390 0.079758 0.183581 -0.202201 -0.220083 0.938802 
2.166244 0.651928 2.006390 -0.821037 0.254805 0.461273 
0.000635 0.298080 -0.429180 0.478635 0.097803 -0.866281 
-1.700890 0.797333 1.296449 -0.544276 -0.143233 -0.823536 
2.091883 -0.143574 2.612539 0.930033 -0.321128 0.068380 
-1.076170 -0.253298 0.820651 -0.706409 -0.169345 -0.672273 
0.441138 0.537280 -0.045797 0.766765 0.227309 -0.559999 
1.256236 0.591533 0.974247 -0.604763 -0.054930 0.771615 
2.111476 0.138971 3.173737 0.940166 -0.265676 0.212368 
0.431125 -0.415301 0.051816 -0.105514 -0.029885 0.971927 
-1.668565 0.896110 1.335589 0.376942 0.245721 0.805481 
1.729333 -0.073560 1.321181 0.618998 -0.195548 -0.753352 
0.196336 -0.563457 -0.110447 0.040614 -0.472569 -0.851817 
-0.678102 -0.292878 0.403140 0.536620 -0.001345 0.765952 
1.865169 0.771160 1.519846 0.888357 0.071351 -0.427679 
-0.369274 -0.337512 0.045238 -0.096030 -0.085171 0.948213 
2.168385 0.001108 2.450191 -0.874007 0.445897 0.117063 
0.166794 -1.014709 0.099750 -0.168401 0.015057 0.970568 
-0.181612 -1.072873 0.088159 -0.085642 -0.269818 -0.919581 
1.981336 0.563305 1.825862 -0.787364 0.039365 0.470594 
-1.183269 0.122684 0.898663 -0.703241 -0.259823 -0.652499 
-0.813126 0.462251 0.545333 -0.629307 0.288405 -0.698399 
0.316384 0.860590 0.219884 0.869497 0.340192 0.348579 
0.168204 0.187068 -0.330156 0.594147 -0.011399 -0.782841 
-0.309607 -0.710224 -0.017604 -0.573498 -0.214814 -0.770063 
0.146497 -0.310672 -0.256617 0.442594 -0.282540 -0.830271 
0.355248 0.678326 -0.098169 0.591514 0.551117 -0.539081 
-0.654965 -0.349662 0.351490 -0.736231 -0.107691 -0.656417 
-0.148245 -0.545698 0.157402 -0.215065 -0.163333 0.962045 
1.417709 0.591335 1.084589 -0.593432 -0.284275 0.737032 
-1.103016 -0.857217 1.196529 -0.720852 -0.392701 -0.542633 
-2.637760 0.123940 1.939074 0.675505 0.383825 0.613733 
1.342506 -0.838433 1.523926 -0.754101 0.559830 0.309816 
0.195561 0.150392 0.220844 0.178928 -0.229374 0.955395 
-2.443803 0.664545 1.715496 -0.621011 0.272630 -0.715113 
-1.898498 -0.838823 1.852535 0.508195 0.486438 0.704626 
-2.014691 0.345384 1.484104 0.408757 -0.096330 0.868228 
0.122694 -0.317891 0.201066 0.212654 0.008901 0.975303 
0.293216 0.746069 -0.096763 0.607575 0.518946 -0.575535 
-0.905356 -0.296697 0.663627 -0.756735 -0.119611 -0.633403 
-0.929704 0.568062 0.677322 0.702660 0.232950 0.652223 
-1.842098 0.621290 1.390896 -0.524883 -0.368524 -0.747295 
0.275215 0.998804 0.156412 0.917896 0.354897 0.018898 
-2.567036 -0.183519 2.086636 0.813061 0.251187 0.489530 
1.150079 -0.856151 1.107576 0.751707 -0.473481 -0.398703 
-1.359189 -0.204306 1.108647 -0.642652 -0.280643 -0.705963 
-0.276216 0.893060 0.024774 -0.822062 0.313226 -0.397233 
1.183451 0.521303 0.891231 -0.538208 -0.278577 0.791112 
-0.378453 -0.262288 0.051061 0.045088 -0.101807 0.976429 
1.343881 0.123535 1.010979 -0.635707 -0.037318 0.710783 
1.822133 0.521686 1.495071 -0.693886 -0.227304 0.615486 
-2.137339 0.470022 1.533162 -0.431616 -0.366962 -0.810895 
-0.027174 0.031082 0.216969 -0.093508 -0.146760 0.981770 
0.559183 0.484948 0.374808 -0.591098 0.332580 0.725170 
2.192962 0.506134 2.107918 -0.877490 0.134763 0.383944 
1.269152 -0.658468 1.017135 0.751199 -0.305242 -0.553758 
-2.832957 0.177242 2.323489 0.908354 0.122646 0.358809 
2.138505 0.178570 3.098384 0.941035 -0.200801 0.208032 
0.084280 1.093216 -0.089846 0.432299 0.225003 -0.862507 
0.370075 0.746899 0.073568 0.852083 0.463523 -0.174590 
0.347533 0.272052 0.207228 -0.010901 -0.237529 0.939803 
2.047600 -0.201199 2.011104 0.823254 -0.443165 -0.327671 
-2.731928 -0.229992 2.440367 -0.847840 -0.347568 -0.390791 
1.350147 0.534691 1.027787 -0.582385 -0.262585 0.749089 
2.039160 -0.216529 2.814936 0.903189 -0.413824 0.087572 
-1.779367 0.142942 1.320827 -0.498276 -0.157916 -0.806296 
1.660206 0.330623 1.291981 -0.769847 -0.137475 0.516183 
-1.879332 0.032938 1.424599 0.300603 0.093301 0.934901 
1.121960 0.447036 0.838887 -0.531195 -0.246344 0.799880 
-0.367637 -0.459500 -0.052898 -0.734704 -0.140366 -0.652737 
-0.789395 -0.242622 0.514086 -0.764606 -0.083301 -0.637415 
1.384291 -0.581197 1.199999 0.734204 -0.429247 -0.477224 
-0.709795 0.535375 0.458465 -0.686034 0.323385 -0.585870 
1.943357 -0.429777 2.553633 0.862655 -0.480347 -0.040232 
1.710996 -0.133494 1.357640 -0.928235 0.106132 0.283116 
1.525712 0.121975 1.159473 -0.686059 -0.010985 0.663375 
-2.133243 0.633626 1.593262 0.419416 0.024895 0.849558 
1.568233 -0.717691 1.729843 0.772382 -0.547438 -0.290993 
1.977293 -0.368006 2.540735 0.857617 -0.484251 -0.057416 
-0.159941 -1.005656 0.070717 -0.017641 -0.260994 -0.960415 
0.026678 0.918460 0.380162 0.150216 0.011190 0.976334 
1.388722 0.068224 1.046037 -0.655479 -0.000613 0.693757 
0.389403 0.298166 -0.076642 0.819454 -0.030582 -0.553672 
-2.330217 0.547589 1.704653 0.521442 0.077067 0.788107 
1.291780 -0.332832 0.957743 -0.731786 0.163457 0.649308 
0.637979 -0.146254 0.282752 0.756589 -0.072078 -0.643061 
2.044645 0.338761 1.800308 -0.802994 0.010488 0.540454 
0.191430 -1.418336 0.214709 -0.438456 -0.654673 0.320085 
1.545120 0.237677 1.178617 -0.675920 -0.071904 0.669568 
1.775614 0.602937 1.433278 -0.663993 -0.296795 0.630005 
-1.760485 0.226636 1.314103 -0.511459 -0.161889 -0.788494 
1.138013 -0.294548 0.831839 -0.718863 0.105475 0.672721 
0.225204 1.061690 0.266166 0.411426 0.838493 -0.035454 
-0.362858 -0.221625 -0.090236 -0.766887 -0.131249 -0.614236 
1.454209 -0.516500 1.228852 0.714911 -0.412418 -0.523198 
0.523616 0.315634 0.098517 0.837818 0.001549 -0.528836 
-1.279682 -0.423744 1.093840 0.674766 0.228865 0.685648 
-0.589892 -0.039756 0.223882 -0.803953 -0.082754 -0.584348 
-1.211712 0.379991 0.901457 -0.707268 -0.283983 -0.641734 
-0.878621 -0.549074 0.676684 -0.784799 -0.110038 -0.597235 
-0.190201 0.162573 0.227956 -0.183589 -0.230709 0.954025 
-1.882577 0.334340 1.420732 0.356937 -0.129354 0.883706 
-0.133616 -0.780940 -0.030017 0.003130 -0.393898 -0.914132 
-1.322448 -0.353131 1.113782 0.651313 0.227785 0.711984 
1.909820 -0.265115 1.691888 0.860011 -0.361240 -0.337441 
-1.424181 0.003328 1.151673 -0.633316 -0.302645 -0.708372 
0.364748 -0.074364 0.105036 -0.018391 -0.167572 0.957115 
0.957286 0.492402 0.686745 -0.678741 0.337333 0.643945 
0.523132 -0.872884 0.302117 -0.364333 0.026038 0.878226 
2.194692 0.027442 2.279434 -0.982475 0.163667 -0.020141 
-0.680763 -0.894247 0.424651 -0.692674 -0.039993 -0.689116 
-1.276440 0.184450 0.986705 -0.682061 -0.288730 -0.665226 
1.847836 0.657826 1.467402 0.852795 -0.141909 -0.493854 
-1.970002 0.718818 1.495315 0.326028 -0.018675 0.911406 
1.748186 0.096907 1.417974 -0.679372 0.079479 0.694875 
-0.862346 -0.489360 0.641555 -0.780594 -0.095362 -0.607586 
-0.063165 0.010584 -0.362433 -0.472951 -0.091581 -0.851246 
-1.807261 -0.765420 1.752958 0.358229 0.463525 0.767962 
0.314841 -0.889751 0.090359 -0.109997 0.062879 0.989445 
-0.779122 -0.164541 0.494074 -0.776453 -0.080741 -0.623360 
0.240557 0.730722 -0.147421 0.534763 0.503529 -0.661986 
-0.063677 1.299849 -0.031467 -0.642255 0.454601 -0.565684 
1.213313 0.561656 0.818761 0.593415 0.142767 -0.788326 
-1.361003 0.736465 1.050473 -0.349776 0.524984 -0.680085 
-0.087421 -0.035536 0.211950 -0.149686 -0.125286 0.974645 
0.314432 -0.050864 0.155429 0.346356 -0.201576 0.864561 
0.897112 0.237796 0.583737 0.739064 -0.174825 -0.647582 
0.553117 0.241325 0.155432 0.815233 -0.100262 -0.563936 
2.051877 -0.201845 2.729203 -0.895912 0.427484 -0.027698 
-0.601288 -0.023118 0.369421 0.574214 -0.111735 0.764253 
0.118417 0.359118 -0.342286 0.555835 0.130158 -0.792267 
1.536372 0.708622 1.094923 0.602714 0.129420 -0.773082 
-0.779517 0.230842 0.567929 0.632871 -0.150885 0.758137 
-0.495847 -0.498313 0.200336 0.281875 0.000767 0.894067 
-0.759269 -0.562257 0.513971 0.691244 -0.014849 0.688415 
-2.035476 -0.760183 1.872004 0.540848 0.472130 0.690386 
0.320049 -0.405336 -0.136592 0.632654 -0.219845 -0.721671 
-1.886757 0.700268 1.463684 0.310813 -0.042963 0.904502 
-0.216381 -0.245487 0.175634 -0.391881 -0.088462 0.874433 
0.916726 0.033146 0.613099 0.720711 -0.123438 -0.675285 
0.369801 -0.196832 0.067603 -0.004619 -0.122919 0.975250 
-1.271382 -0.337855 1.059745 0.659997 0.206183 0.708302 
-1.157602 0.466403 0.838796 -0.725786 -0.279120 -0.625139 
1.911894 -0.128077 1.651821 -0.779725 0.251069 0.541190 
-0.493881 0.088486 0.085249 -0.825686 -0.080314 -0.554159 
-0.437493 0.259572 0.234676 0.503873 -0.252966 0.817426 
1.958567 -0.429686 2.166762 -0.867026 0.408198 0.167383 
1.922953 -0.500526 2.097453 0.807030 -0.527608 -0.260925 
2.072490 0.538376 1.818536 0.933338 -0.006303 -0.348015 
-0.210020 -0.452561 -0.181563 -0.421768 -0.379192 -0.807621 
0.881116 -0.767706 0.595706 0.701244 -0.025870 -0.703446 
0.286350 0.748821 0.323863 0.537568 0.296996 0.783403 
2.012663 0.296134 1.753198 -0.798661 0.008002 0.553109 
1.610342 0.534603 1.242630 -0.664389 -0.230277 0.663279 
2.202494 0.045212 2.393105 0.976181 -0.170244 0.069514 
-2.658616 0.026254 2.051755 -0.882667 -0.158717 -0.428128 
-0.090853 0.362979 -0.356650 -0.531916 0.140269 -0.809296 
-0.040266 1.172829 0.315392 0.081620 0.556971 0.796177 
0.043912 1.365145 0.019937 0.561358 0.761321 0.125699 
2.025646 -0.108060 1.817342 -0.857235 0.277056 0.417463 
2.293838 0.422425 2.641664 -0.842746 0.472660 0.118379 
1.822904 0.730415 1.464996 0.942371 -0.045153 -0.327533 
-1.291561 0.728822 0.989807 -0.420399 0.431580 -0.694966 
0.289671 0.898894 0.053990 0.864817 0.308352 -0.315409 
0.111382 1.257803 0.197856 0.098616 0.930248 0.271943 
1.963823 -0.385436 2.630162 0.870792 -0.472345 -0.008407 
-0.297512 0.730438 -0.112745 -0.594764 0.535739 -0.582564 
-1.664053 0.567490 1.350403 0.278609 -0.084071 0.932960 
-2.616601 0.169690 1.888908 -0.836345 -0.091627 -0.516525 
-0.154123 0.311389 0.302030 -0.205201 -0.278133 0.935872 
1.984692 -0.370928 2.342939 0.830673 -0.509053 -0.158733 
-0.537449 0.554839 0.334446 0.577749 0.379461 0.715690 
-1.043804 0.676989 0.768613 -0.642058 0.144609 -0.752618 
1.265364 0.046301 0.903742 0.727242 -0.242506 -0.638446 
-2.210462 0.405096 1.570355 -0.412823 -0.367844 -0.820960 
0.842175 0.458488 0.585022 -0.644571 0.286545 0.689421 
-1.376061 0.682768 1.122631 0.669841 0.261538 0.611950 
1.891051 -0.561744 2.136278 0.812463 -0.528037 -0.232541 
-2.386217 -0.030999 1.741776 0.695538 0.189215 0.648489 
-1.305617 -0.666638 1.373781 -0.613089 -0.451581 -0.631983 
1.264585 0.684752 0.939484 -0.654682 0.413514 0.539257 
0.401030 -0.475611 0.000852 0.702996 -0.147799 -0.680762 
-0.260399 0.792161 -0.090105 -0.592191 0.479206 -0.629251 
-2.167385 -0.124659 1.565296 -0.539675 -0.245186 -0.797897 
-0.602784 0.175425 0.232942 -0.809871 -0.106682 -0.571036 
1.966344 0.617362 1.668207 0.937644 -0.020099 -0.337207 
1.331456 0.308258 1.006080 -0.607548 -0.140660 0.731954 
0.213671 1.131955 0.077117 0.866252 0.429654 -0.217441 
1.510276 0.175461 1.107142 0.716663 -0.273761 -0.640282 
1.219370 0.197240 0.911359 -0.591635 -0.095382 0.750222 
1.395911 0.365882 1.060372 -0.617607 -0.163325 0.720799 
1.969671 0.301468 1.672794 0.783754 -0.229184 -0.538229 
0.221698 0.953352 -0.041645 0.689610 0.268464 -0.640839 
1.623704 0.089762 1.252182 -0.778034 -0.004377 0.527123 
1.809919 -0.026449 1.438528 0.963224 -0.079968 -0.236413 
-2.800600 0.026243 2.359244 0.867636 0.257178 0.404858 
-1.315028 0.331965 1.063468 0.569427 -0.127822 0.773871 
-0.738335 -0.340269 0.511580 0.667653 0.020209 0.708139 
0.330889 0.791539 0.243862 0.786709 0.372243 0.431525 
0.383196 -0.995219 0.187020 -0.218577 0.062031 0.945886 
0.031029 0.159903 0.246444 0.063737 -0.225861 0.965859 
2.114887 0.090526 3.087805 -0.941561 0.281792 -0.171510 
1.940951 -0.392491 1.939380 0.830675 -0.427895 -0.327269 
-0.477386 0.222859 0.057294 -0.835962 -0.087006 -0.538207 
-0.861989 -0.679993 0.634710 -0.782494 -0.057583 -0.607031 
2.148281 0.030901 2.044014 0.795049 -0.436892 -0.386093 
-0.824982 -0.883620 0.546334 0.767102 -0.077019 0.635975 
0.324780 -0.609661 -0.043080 0.619718 -0.199928 -0.734601 
-0.517019 -0.110923 0.242178 0.405937 -0.108244 0.841143 
1.160509 0.281509 0.811145 0.720500 -0.243038 -0.647186 
0.636601 0.311021 0.241019 0.819234 0.006818 -0.558668 
-2.201410 0.511013 1.565723 -0.687596 0.043343 -0.714722 
0.386672 0.467368 -0.129085 0.727869 0.135009 -0.641569 
-2.900972 0.169392 2.563677 0.927279 0.162712 0.308249 
-1.319214 0.033755 1.085069 0.590033 0.041980 0.761181 
0.838378 0.383057 0.544466 0.597414 0.391225 -0.688804 
0.205883 -0.467145 -0.172267 0.382999 -0.412096 -0.808846 
-2.151396 -0.522819 1.776609 -0.588277 -0.420361 -0.683115 
1.485004 0.645526 1.141103 -0.604734 -0.304653 0.724805 
2.108336 0.033326 1.920594 0.789263 -0.373332 -0.461946 
-1.519451 0.555200 1.244442 0.553735 -0.221139 0.774655 
-1.307885 0.257021 1.061113 0.574616 -0.086483 0.771026 
0.321953 -0.010280 -0.163449 0.674867 -0.143937 -0.684543 
-1.549652 0.279403 1.280904 0.581040 -0.066394 0.757372 
1.497942 -0.216325 1.127169 -0.723697 0.171198 0.637734 
2.197519 0.065507 2.523989 0.961830 -0.228812 0.060876 
0.769043 0.062584 0.453787 0.753192 -0.110544 -0.642850 
2.111741 -0.016117 2.004945 -0.912492 0.211255 0.240286 
2.054757 -0.210117 2.100304 -0.906606 0.292521 0.157799 
-0.071214 0.748985 0.361049 -0.093004 0.068131 0.990680 
-0.407165 -0.122566 -0.033202 -0.801381 -0.104549 -0.584203 
-2.272628 0.422549 1.620796 0.471642 0.006999 0.857419 
-2.164060 -0.593436 1.832604 0.537479 0.429552 0.703982 
0.009718 -0.923827 0.020759 0.492320 -0.219996 -0.811968 
0.008675 1.122675 0.348235 0.080677 0.439389 0.866060 
-1.102909 0.442175 0.787918 -0.740806 -0.272909 -0.612773 
0.361330 0.208923 -0.123362 0.786202 -0.068796 -0.592618 
2.049899 0.035354 1.801832 0.800960 -0.267209 -0.506812 
2.036037 0.609643 1.861134 -0.794928 0.060651 0.516010 
-0.812753 -0.485769 0.563378 0.754183 -0.021395 0.654295 
1.285062 0.236818 0.916404 0.720967 -0.261292 -0.641203 
-1.630007 -0.458262 1.434860 0.719557 0.374105 0.571147 
-0.750096 0.298310 0.555524 0.623114 0.098285 0.740613 
-1.442797 0.267543 1.140410 -0.636686 -0.307733 -0.702469 
2.218138 0.286270 2.101721 -0.903641 0.091608 0.367428 
-1.381058 -0.794778 1.518615 0.626572 0.494869 0.586628 
-1.267680 -0.618975 1.207595 -0.672218 -0.348776 -0.628678 
2.197106 0.257441 2.914514 -0.964184 0.130191 -0.161966 
1.689080 -0.119167 1.282761 0.644069 -0.212070 -0.724495 
-0.227344 0.005713 -0.267797 -0.592396 -0.102789 -0.772343 
-0.510638 0.279616 0.310169 0.540743 -0.242327 0.801778 
0.405924 0.120789 -0.039763 0.828306 -0.083286 -0.549066 
-0.994162 0.573902 0.737019 0.714671 0.272333 0.629575 
1.684443 0.397053 1.260199 0.658867 -0.247746 -0.703799 
0.153836 -0.444303 0.185363 0.216708 -0.130515 0.964652 
1.754736 -0.522835 1.755235 -0.594730 0.467385 0.564524 
-0.504835 0.643000 0.278870 0.549110 0.421658 0.720128 
-1.227860 -0.884613 1.486643 0.612409 0.531771 0.581723 
2.321725 0.375660 2.492580 0.983097 -0.171535 -0.004517 
0.900132 -0.398753 0.623303 0.731966 -0.093548 -0.670079 
-2.725156 0.078416 2.150469 -0.863235 -0.212772 -0.438847 
1.032960 0.517756 0.784376 -0.691140 0.199489 0.683947 
-1.897106 0.261406 1.409684 -0.568184 -0.151039 -0.774429 
2.176529 0.027687 2.132375 0.799725 -0.482483 -0.330773 
-0.037835 -0.149276 0.212047 -0.123157 -0.056280 0.984007 
1.364325 0.194581 0.983891 0.720444 -0.265625 -0.639800 
0.235460 0.952339 0.293998 0.716993 0.108628 0.658634 
-2.703966 -0.177072 2.338521 0.795916 0.372925 0.452996 
1.038123 0.582718 0.723433 0.524719 0.299575 -0.784745 
1.499401 -0.287663 1.126333 -0.733651 0.210640 0.630426 
-2.122422 0.299284 1.523371 -0.443341 -0.226682 -0.841132 
-0.164799 0.387425 -0.306805 -0.583347 0.145840 -0.764822 
-0.069643 0.272704 -0.398764 -0.539657 0.051440 -0.828984 
2.249544 0.171985 2.411191 -0.934555 0.293865 0.107776 
0.286050 -0.037994 -0.225892 0.619305 -0.135365 -0.746042 
1.837127 -0.185705 1.544858 0.911794 -0.247433 -0.265064 
-2.306496 0.355696 1.614302 -0.379311 -0.344627 -0.852367 
-0.701434 -0.525929 0.469172 0.623298 0.008435 0.728344 
-2.562442 0.222973 1.823116 -0.792165 -0.010626 -0.576037 
-0.444403 -0.647325 0.180874 0.251867 0.022759 0.916710 
0.178389 1.110662 0.295639 0.772407 0.451997 -0.363575 
-2.655877 0.423124 1.894187 0.695039 0.142105 0.674424 
1.706882 -0.003861 1.336825 -0.899976 0.023352 0.342902 
2.038788 0.124118 1.790356 -0.833806 0.117205 0.530135 
-0.640565 0.126544 0.287652 -0.802424 -0.105825 -0.581707 
0.480409 -0.365803 0.068827 0.739694 -0.118511 -0.659151 
-1.124072 -0.248901 0.897810 0.676617 0.126394 0.706130 
1.295987 0.170276 0.973183 -0.616242 -0.069737 0.727770 
0.229788 -0.418138 0.169520 0.393847 -0.107870 0.905664 
0.397081 -0.146986 -0.051675 0.787791 -0.110161 -0.599817 
1.007105 -0.651723 0.747127 -0.742998 0.116279 0.650993 
-0.354391 -0.622364 0.003893 -0.656202 -0.167682 -0.711332 
0.647601 -0.839532 0.399596 -0.488604 -0.011992 0.821404 
1.901226 -0.493383 2.000890 -0.829043 0.447290 0.299783 
-0.282064 0.974840 0.190080 -0.915841 0.332327 0.154428 
1.798165 0.788771 1.500360 -0.737883 0.144510 0.592772 
-0.666119 0.424135 0.290860 -0.776814 0.256229 -0.533703 
1.143861 -0.205447 0.837712 -0.698127 0.071038 0.686735 
-0.060396 0.606697 -0.283070 -0.386278 0.392002 -0.814488 
1.129779 -0.841164 0.997826 -0.761541 0.341778 0.489484 
0.606442 -0.750142 0.362430 0.593969 -0.108044 -0.772956 
0.045839 0.645110 -0.275627 0.356448 0.456844 -0.809363 
-1.303510 -0.768771 1.451547 0.644035 0.490078 0.577250 
0.528676 -0.023700 0.271881 -0.447911 -0.141686 0.834733 
0.328443 -0.700396 0.004992 0.603042 -0.196338 -0.747535 
1.091006 0.324798 0.752346 0.717915 -0.225847 -0.654527 
0.043250 -0.708789 0.159015 0.326202 -0.123469 0.927048 
1.199681 -0.803908 1.148580 0.749216 -0.487736 -0.393122 
2.039287 -0.273602 2.134667 0.804937 -0.519606 -0.277339 
-2.424291 -0.093584 1.797254 -0.551015 -0.436536 -0.701925 
-0.130194 0.565895 0.375781 -0.228109 -0.249688 0.938410 
0.918834 -0.096068 0.618781 0.720343 -0.100991 -0.679964 
2.222655 0.124122 2.482858 -0.925788 0.321002 0.076859 
0.501948 0.294211 0.308083 -0.525663 -0.223703 0.814598 
-0.559739 0.627162 0.330356 0.572223 0.363111 0.719951 
-0.958145 -0.578240 0.829678 0.778075 0.150469 0.592580 
0.221913 -0.047106 -0.264259 0.569790 -0.126388 -0.784315 
0.088671 0.413209 0.336687 0.124666 -0.299051 0.939570 
-0.999064 0.392637 0.685022 -0.756283 -0.215502 -0.610811 
2.181580 0.116651 2.793008 -0.949868 0.210916 -0.127254 
-0.558629 -0.276060 0.253234 0.370956 -0.041897 0.847455 
0.752999 0.389448 0.508917 -0.603773 0.368978 0.698496 
1.611159 -0.084314 1.237644 -0.800827 0.088405 0.508248 
-1.889998 0.777771 1.460483 0.406297 0.058294 0.893194 
1.266228 -0.722792 1.190670 -0.755394 0.468297 0.404801 
0.274253 0.545883 0.309276 0.188595 -0.185300 0.939167 
-0.198659 0.509734 0.336344 -0.191820 -0.235769 0.947054 
0.178008 0.700116 -0.188352 0.408461 0.559855 -0.702017 
-2.393901 0.450204 1.660349 -0.655912 0.029819 -0.745638 
0.194392 0.293644 0.281723 0.199977 -0.278335 0.938148 
2.091155 -0.177921 2.293183 0.813635 -0.522441 -0.217292 
0.220366 1.118614 0.359158 0.599962 0.489943 -0.615271 
0.698204 0.304821 0.520741 -0.606191 -0.046205 0.787604 
-1.637733 0.645337 1.331839 0.333081 -0.148584 0.892472 
-1.619004 0.553618 1.262889 -0.559081 -0.313505 -0.750814 
-0.163739 1.191066 0.019622 -0.789046 0.489221 -0.355745 
1.539292 -0.627852 1.600830 -0.693344 0.502888 0.494477 
0.206465 -0.079645 0.185299 0.344582 -0.158090 0.886052 
0.309315 0.427766 -0.241135 0.652361 0.098459 -0.746874 
0.181013 -0.884373 0.032803 0.044127 -0.355145 -0.927500 
1.585298 0.583032 1.163257 0.694663 -0.279063 -0.662355 
-2.574744 0.045057 1.878956 -0.542217 -0.498910 -0.674233 
0.269468 0.860449 -0.011896 0.749498 0.364567 -0.497581 
-0.869826 0.199345 0.639103 0.636357 -0.155130 0.745735 
2.093673 -0.110277 2.761329 -0.906717 0.397003 -0.049303 
-0.363112 0.513043 -0.159593 -0.673727 0.195266 -0.683244 
1.456908 -0.268213 1.070257 0.737632 -0.259473 -0.620898 
-0.427505 0.018311 -0.007308 -0.819363 -0.091475 -0.561135 
-0.331418 -0.147192 -0.120143 -0.675890 -0.194038 -0.670139 
1.161444 0.501524 0.805076 0.703078 -0.210222 -0.664842 
-2.513587 0.050012 1.833810 0.790316 0.132523 0.560422 
-0.027411 1.232635 -0.060490 -0.558876 0.129941 -0.809760 
-0.867456 -0.874882 0.640974 -0.785722 -0.028394 -0.602843 
-1.730492 -0.353655 1.438684 0.748818 0.316123 0.565554 
1.144188 0.132846 0.800975 0.722550 -0.214258 -0.651091 
0.484330 0.038594 0.069196 0.805324 -0.078735 -0.579255 
-2.878116 0.016591 2.609401 0.910550 0.260171 0.315178 
-2.087630 0.657235 1.511253 -0.661975 -0.037246 -0.746261 
1.697302 0.046016 1.285188 0.642508 -0.218790 -0.725197 
-0.495565 -0.119922 0.091945 -0.797596 -0.097031 -0.590834 
-0.393646 0.067461 0.154540 0.242759 -0.205134 0.896858 
2.057165 -0.229103 2.343851 -0.917919 0.320875 0.046827 
-0.424711 0.333129 0.248626 0.535036 -0.185290 0.803738 
1.668141 0.528713 1.327715 -0.622586 -0.121402 0.703211 
1.864014 -0.347342 1.741047 -0.691094 0.388592 0.528876 
-0.892242 -0.735910 0.701748 -0.789739 -0.095610 -0.588016 
-0.236475 0.311991 -0.291610 -0.659979 0.047386 -0.729966 
0.504567 -0.160812 0.206746 -0.340245 -0.100424 0.877386 
-2.628227 0.495515 1.848268 -0.708892 -0.046266 -0.682392 
0.425559 0.464118 -0.065400 0.782165 0.139013 -0.569299 
0.049284 -0.837627 0.138045 0.299454 -0.122592 0.934254 
-1.172834 -0.542744 1.026591 0.722221 0.218366 0.635858 
-2.480479 0.569269 1.754221 0.543737 0.114781 0.809885 
2.286463 0.408530 2.312680 0.962486 -0.119298 -0.156450 
0.539607 0.637555 0.308207 -0.551048 0.382197 0.730327 
0.581889 -0.191237 0.293294 -0.420943 -0.074270 0.841117 
-1.226090 -0.150062 0.998429 0.635342 0.109611 0.732389 
0.078360 0.250322 0.274876 0.089549 -0.281202 0.947011 
-1.253440 -0.735555 1.359782 -0.631573 -0.458259 -0.605777 
-1.313668 -0.026509 1.046238 -0.663794 -0.287864 -0.683650 
1.294274 -0.806259 1.362956 0.710128 -0.579142 -0.374819 
0.360553 0.324533 -0.137996 0.767844 -0.002761 -0.618515 
-2.568088 0.512053 1.811449 0.601168 0.138439 0.767653 
0.854340 -0.654244 0.580635 -0.687867 -0.025739 0.719560 
-1.858929 -0.398441 1.513227 -0.651831 -0.406302 -0.635898 
-2.765562 0.160354 2.164906 0.835396 0.206625 0.485964 
2.178002 0.438923 1.968186 0.932679 0.028661 -0.342414 
1.818167 0.361992 1.460000 0.843653 -0.196646 -0.441766 
2.009964 -0.303150 2.063172 0.814552 -0.484288 -0.297393 
-0.846107 0.363256 0.646372 0.649793 0.097725 0.728004 
0.414310 -0.795945 0.204165 -0.244400 0.056281 0.930027 
1.294627 -0.843672 1.430308 0.707787 -0.588558 -0.370634 
1.413058 0.747031 1.062592 -0.627276 0.526030 0.453313 
-1.168428 0.439592 0.917863 0.562177 -0.212728 0.784543 
-1.401518 0.175976 1.154838 0.580097 -0.025275 0.763693 
-1.039827 -0.658948 0.924249 -0.777195 -0.232246 -0.569761 
-0.029121 1.281139 0.167264 -0.120856 0.890623 0.430585 
1.853518 -0.269262 1.610078 0.875322 -0.350097 -0.292367 
-1.153474 0.217587 0.914930 0.584181 -0.093645 0.770747 
0.697066 0.146064 0.470287 -0.603665 -0.165562 0.771289 
-0.839314 -0.815964 0.578830 -0.778910 0.005635 -0.620559 
-0.952653 0.463700 0.660833 -0.550927 0.390706 -0.729547 
0.024316 -0.828970 -0.002366 0.294124 -0.304357 -0.894299 
0.161423 1.156269 0.184641 0.778572 0.018436 0.379161 
-0.286834 -0.504323 0.118754 -0.542980 -0.121387 0.819620 
-2.391502 0.611018 1.676395 -0.657829 0.002730 -0.751759 
-2.889587 0.304380 2.392457 -0.930297 -0.000609 -0.299223 
1.548897 -0.191827 1.172613 -0.748414 0.159150 0.602112 
0.176573 0.652188 0.375488 0.208220 0.256526 0.921268 
-1.732435 0.467504 1.359666 0.273100 -0.222957 0.886495 
-0.484641 -0.633041 0.238546 0.322410 0.029597 0.883811 
-0.369529 0.278071 -0.121417 -0.803870 -0.040528 -0.580036 
-2.518258 -0.233749 2.040983 -0.626715 -0.469180 -0.599833 
-0.769197 0.306620 0.420645 -0.807253 0.013644 -0.580579 
1.031612 0.430251 0.679500 0.701398 -0.089835 -0.679525 
-2.242435 0.249973 1.582388 -0.406331 -0.245417 -0.860064 
0.901679 -0.869455 0.617104 0.701525 -0.031986 -0.700226 
-0.172241 1.219157 0.114722 -0.673407 0.683080 -0.202376 
0.761181 0.168671 0.438056 0.762436 -0.136411 -0.628169 
1.268205 -0.084033 0.943070 -0.669293 0.050086 0.694307 
0.563860 0.276181 0.361122 -0.545300 -0.213398 0.804734 
-0.268040 0.227390 -0.274227 -0.677232 -0.014107 -0.721363 
-0.588216 0.083830 0.377489 0.608934 -0.151369 0.754301 
0.340677 0.376537 -0.185109 0.713983 0.044881 -0.680110 
-0.658423 0.125061 0.444003 0.620684 -0.155870 0.752185 
2.108042 -0.065658 2.869556 0.922449 -0.360495 0.126868 
1.807846 0.050397 1.482504 -0.702602 0.079779 0.683385 
1.227847 -0.277536 0.904346 -0.720334 0.128883 0.664263 
1.982522 0.156867 1.688745 0.802919 -0.107945 -0.562936 
2.034365 -0.164710 1.925906 -0.881290 0.287262 0.298053 
0.729360 -0.025510 0.495671 -0.638707 -0.100330 0.750914 
-0.762302 -0.078471 0.536969 0.698871 -0.053233 0.699966 
-1.679750 0.616180 1.282388 -0.665688 -0.173794 -0.668616 
-0.332805 -0.461016 0.070875 -0.313541 -0.087944 0.883756 
0.850099 0.370761 0.616138 -0.628292 0.255513 0.711095 
0.045488 1.230102 -0.055410 0.521698 0.057218 -0.845133 
1.856341 0.754759 1.591073 -0.802269 0.038345 0.578316 
-0.275252 -0.578332 -0.108092 -0.464408 -0.294059 -0.818081 
-2.090001 0.220804 1.516282 0.438317 -0.004553 0.876946 
0.275034 0.272503 0.234066 0.146093 -0.258777 0.951821 
-1.380152 0.234314 1.082745 -0.653709 -0.300554 -0.688521 
-2.377670 0.430799 1.744794 0.580716 0.078579 0.736505 
0.135323 0.481036 0.354919 0.209725 -0.271222 0.936595 
-0.132677 0.163867 -0.348737 -0.563067 -0.014492 -0.806378 
0.106569 0.837037 -0.149412 0.492590 0.366837 -0.772113 
1.560532 -0.311868 1.162946 0.722773 -0.263899 -0.633194 
-2.136502 -0.198215 1.565305 -0.569998 -0.298193 -0.761368 
1.445474 0.712597 1.118592 -0.636348 0.421730 0.515568 
0.795326 0.321842 0.572328 -0.613162 0.186180 0.731826 
0.753789 0.261803 0.553095 -0.605573 -0.102268 0.787474 
2.275349 0.238852 2.424277 0.966474 -0.238512 -0.059336 
1.801902 0.224082 1.433268 0.895871 -0.164887 -0.342759 
-1.144908 -0.764035 1.152850 0.727806 0.322740 0.576660 
-0.257935 -0.760234 0.118971 -0.235604 -0.006290 0.915484 
0.183514 -0.254120 0.187971 0.309064 -0.056055 0.922269 
-2.302531 0.283625 1.613456 -0.386414 -0.307157 -0.855549 
-1.735991 -0.277108 1.414281 0.747360 0.244892 0.591648 
1.510034 -0.370915 1.127808 0.741664 -0.279653 -0.605547 
1.890196 -0.184956 1.615061 0.893991 -0.269250 -0.311041 
-1.096529 0.676126 0.817608 0.671530 0.183446 0.673594 
-2.591089 0.293631 1.836788 -0.754951 -0.045811 -0.621691 
0.452851 -1.047197 0.199979 0.471718 0.048542 -0.850098 
-2.197118 0.524345 1.636017 0.477118 0.030032 0.805463 
1.511153 0.719070 1.190104 -0.624805 -0.049004 0.759968 
-1.861964 -0.698613 1.729257 -0.562058 -0.474887 -0.666625 
0.215363 -0.794786 0.110116 0.083233 -0.035648 0.929338 
2.295706 0.358644 2.370305 0.969485 -0.163120 -0.100424 
-1.825237 -0.140232 1.375364 -0.614674 -0.203143 -0.745361 
-0.857874 -0.769067 0.632316 0.774524 -0.001924 0.618736 
2.227837 0.183573 2.637070 -0.960663 0.184808 -0.053742 
-1.446129 -0.766861 1.534996 -0.462517 -0.516499 -0.687344 
0.346619 -0.910219 0.150442 -0.175281 0.072531 0.963280 
2.218785 0.192412 2.713675 -0.960160 0.145032 -0.119404 
-1.943834 -0.742667 1.810691 0.447517 0.463614 0.729937 
-0.223535 0.885238 -0.070316 -0.666968 0.326242 -0.665282 
-0.470192 0.603215 0.019514 -0.782233 0.394441 -0.413899 
0.901592 0.501455 0.636239 -0.666766 0.282408 0.671218 
-2.446004 -0.390687 2.070343 0.728767 0.346775 0.548089 
1.585122 -0.391507 1.278053 0.680596 -0.376329 -0.610767 
0.202940 -1.285144 0.157372 0.245582 -0.184417 -0.896924 
1.989917 -0.373522 2.196972 0.810812 -0.527339 -0.233428 
-0.112218 1.150811 0.329333 0.220791 0.353043 0.859365 
-1.036750 0.261555 0.735338 -0.745878 -0.224425 -0.620114 
-2.304424 0.505588 1.615974 -0.656464 0.009294 -0.746782 
-0.685638 -0.224836 0.363316 -0.774593 -0.089812 -0.624482 
-0.625090 0.563815 0.382411 -0.728267 0.427723 -0.459275 
-2.308889 -0.220314 1.747130 -0.559111 -0.396045 -0.718220 
-1.632272 -0.560888 1.498151 -0.323792 -0.478647 -0.790514 
-1.229166 -0.267389 0.979853 -0.669564 -0.224021 -0.694177 
-1.752197 -0.659816 1.650650 0.205230 0.433884 0.832433 
-1.573615 0.359468 1.290437 0.583731 -0.114459 0.755297 
-0.918619 0.651414 0.657579 0.678176 0.076316 0.729046 
0.340914 0.257366 -0.182342 0.764952 -0.030917 -0.630833 
0.837922 -0.268724 0.556836 0.720742 -0.053974 -0.689904 
-0.680622 0.312593 0.304776 -0.820299 0.011465 -0.558274 
-1.634325 0.789904 1.248525 -0.450519 0.334757 -0.757051 
-0.319466 0.674397 0.327481 -0.608396 -0.130175 0.768612 
0.846268 -0.177179 0.560283 0.719756 -0.063366 -0.689363 
-2.073440 -0.513661 1.721381 -0.606914 -0.425648 -0.664408 
2.170959 0.211442 1.983011 0.727323 -0.394976 -0.546692 
-2.090816 0.715238 1.557658 0.456548 0.061228 0.877497 
-0.408202 -0.535677 0.077312 0.131097 -0.012657 0.964799 
1.320226 0.059740 0.989841 -0.637726 -0.005544 0.710734 
-2.863168 0.248505 2.339247 -0.894103 -0.198150 -0.385193 
-1.206349 -0.620552 1.074993 -0.725733 -0.276890 -0.611405 
-2.681413 0.020153 2.123365 0.724497 0.394530 0.531180 
-2.453087 -0.439258 2.124942 -0.677303 -0.445171 -0.559822 
1.702234 0.601053 1.338252 -0.619884 -0.317756 0.670822 
-1.465281 0.375066 1.150432 -0.633744 -0.311419 -0.703699 
1.375957 -0.345639 1.007021 0.738006 -0.227679 -0.628348 
2.243490 0.332282 2.273912 -0.940246 0.166381 0.185498 
0.235807 0.654976 -0.203221 0.486477 0.427882 -0.749185 
-1.756084 0.297989 1.309725 -0.673032 -0.151991 -0.709571 
2.122429 0.546610 1.895506 0.929854 -0.018918 -0.365038 
-0.751686 -0.732930 0.496485 0.681493 -0.034166 0.689221 
2.242833 0.463569 2.066590 0.924237 -0.008692 -0.380836 
-0.691090 -0.117376 0.368814 -0.788780 -0.080670 -0.606079 
-2.691870 0.082220 2.086643 0.738710 0.348151 0.542536 
-0.257817 -0.069437 0.170592 -0.360275 -0.180290 0.869856 
0.261081 -0.762325 -0.007967 0.078588 -0.362607 -0.871016 
0.553269 -0.049290 0.165021 0.782688 -0.076219 -0.608850 
1.740895 0.435182 1.306338 0.927628 -0.114490 -0.348401 
0.212559 0.442198 0.316292 0.173193 -0.248280 0.947206 
-2.913413 0.077178 2.681453 0.924685 0.234822 0.293125 
-0.503554 0.346560 0.343059 0.576623 -0.090544 0.786926 
0.119044 -0.961774 0.110071 0.057894 -0.091917 0.983724 
-1.702612 0.340518 1.345755 0.520327 -0.068371 0.785992 
0.401168 -0.880423 0.208231 -0.244354 0.065306 0.932783 
-1.085112 0.596315 0.788298 -0.518306 0.334623 -0.766209 
-1.333259 -0.272542 1.087785 -0.644755 -0.261821 -0.708676 
1.268283 0.104262 0.948668 -0.618362 -0.037868 0.728006 
0.114216 0.019222 -0.340082 0.508869 -0.075032 -0.837263 
-0.423923 0.649077 -0.025045 -0.703767 0.513732 -0.417377 
-1.234414 0.481963 0.978034 0.559164 -0.226014 0.783551 
-0.262214 1.023538 0.114522 -0.901382 0.362003 -0.100948 
-0.788298 -0.000821 0.498283 -0.772542 -0.114982 -0.621994 
0.453770 0.451729 0.346100 -0.618877 0.125457 0.765289 
0.585398 0.542158 0.301601 0.754574 0.458209 -0.419173 
2.224569 0.164784 2.212156 -0.879678 0.318046 0.265986 
0.192409 0.060807 -0.297564 0.577529 -0.072433 -0.786379 
-0.101211 -0.696337 0.140620 -0.224790 -0.145993 0.960324 
-0.058286 -0.265614 -0.301527 -0.395867 -0.291698 -0.842310 
-0.579100 0.412216 0.158817 -0.846625 0.104489 -0.496248 
1.114965 -0.024909 0.780281 0.724406 -0.179619 -0.656595 
-2.724677 0.144806 2.091748 -0.841558 -0.215462 -0.479766 
-0.647257 0.470946 0.348245 -0.729498 0.424251 -0.489777 
2.117032 0.049905 3.021629 0.932499 -0.311014 0.169696 
-0.584221 0.435124 0.413297 0.619309 0.313735 0.710326 
2.004591 0.210885 1.737807 -0.809835 0.041629 0.558326 
0.311371 0.672609 0.330941 0.592422 -0.132179 0.776975 
-0.048016 0.734864 -0.211992 -0.407403 0.351186 -0.834379 
-1.525182 -0.415362 1.340210 0.662438 0.331008 0.655797 
0.586602 0.138483 0.206462 0.799453 -0.087117 -0.585471 
0.589748 -0.141925 0.215789 0.763533 -0.079277 -0.633528 
2.122263 0.147605 1.924004 -0.859064 0.173970 0.466676 
-0.198224 -0.561017 -0.110773 -0.042903 -0.466512 -0.856072 
-0.324049 -0.756713 0.075158 0.015862 0.004884 0.970991 
0.653206 -0.444903 0.418344 -0.511488 0.011115 0.805229 
-0.165934 1.145508 0.282766 -0.854598 0.199914 -0.292004 
-0.134975 -1.146404 0.085885 -0.374667 -0.187174 -0.894150 
1.289219 0.507899 0.977253 -0.569170 -0.256385 0.762321 
2.067230 -0.079357 1.876573 0.828268 -0.357310 -0.411057 
-2.045954 -0.609291 1.767279 -0.605355 -0.458688 -0.647195 
-2.837290 0.092996 2.390162 -0.888373 -0.252141 -0.370864 
-0.987717 -0.770900 0.916754 0.808705 0.205228 0.543467 
1.161159 -0.766951 0.914116 0.757020 -0.259471 -0.578167 
0.153203 -0.826749 0.000310 0.007964 -0.389210 -0.917705 
-0.121910 -0.223234 -0.285522 -0.455921 -0.229770 -0.833254 
0.615308 -0.082254 0.251192 0.769494 -0.069566 -0.626468 
1.854164 -0.037307 1.507420 0.933702 -0.095881 -0.300182 
-0.832303 -0.708989 0.566272 -0.776256 -0.003901 -0.625348 
1.650620 0.700730 1.301974 -0.523782 -0.204915 0.811781 
1.881287 0.380296 1.571858 -0.738168 -0.121432 0.598057 
-0.150905 -0.431957 0.189625 -0.213180 -0.129747 0.965443 
-0.148531 0.458456 0.348240 -0.225457 -0.274596 0.933190 
-2.799455 0.164945 2.235322 -0.860248 -0.236221 -0.435556 
-0.403124 -0.651480 0.095304 -0.632731 -0.169949 -0.729737 
-0.028933 -0.708865 0.159535 -0.383234 -0.127744 0.912834 
1.541508 -0.508865 1.356403 0.656520 -0.478286 -0.552341 
0.489037 0.605896 0.076122 0.805351 0.418117 -0.364496 
0.425793 -0.134645 0.117317 -0.255314 -0.125442 0.915367 
1.728736 -0.409381 1.523729 0.867796 -0.451056 -0.203504 
-0.653995 0.387773 0.465612 0.623945 0.335992 0.697907 
0.983827 0.470135 0.752835 -0.669055 0.145510 0.719184 
-0.726112 0.262982 0.374278 -0.805119 -0.044662 -0.587592 
0.355454 -0.842005 0.132384 -0.160690 0.057983 0.966529 
0.466238 0.284432 0.030538 0.843001 -0.035441 -0.526858 
-0.105487 -0.055439 -0.330340 -0.487880 -0.117823 -0.841898 
1.323934 0.611924 0.913371 0.596770 0.137657 -0.782914 
1.947137 -0.437374 2.354854 -0.865435 0.442039 0.113574 
1.488188 -0.867201 1.828921 -0.724021 0.577602 0.359257 
0.361504 -0.696636 0.073611 -0.106991 0.025019 0.982803 
0.317668 -0.782621 0.031652 0.562123 -0.212091 -0.775915 
-0.455446 0.436650 0.342020 0.622227 0.092818 0.759960 
1.315674 -0.413606 0.981623 -0.740539 0.184017 0.637672 
-1.298907 0.186094 1.056778 0.579530 -0.047720 0.768427 
0.126568 -0.030386 0.210218 0.180620 -0.134476 0.968731 
-0.578940 -0.651429 0.360884 0.478414 0.031938 0.807804 
0.795959 -0.668584 0.524296 -0.646069 -0.046863 0.747835 
