-0.542873 -0.426141 0.259557 -0.756270 -0.134756 -0.616651 
-0.119233 0.595426 -0.279004 -0.434855 0.346892 -0.806276 
1.020960 -0.023603 0.882316 -0.736290 -0.014651 0.633107 
-2.503217 -0.053858 2.786747 0.928418 0.300939 0.217051 
-1.737285 0.636421 1.632183 0.496459 -0.011380 0.835167 
0.239030 0.592429 -0.237847 0.521053 0.319801 -0.769931 
-0.445245 -0.207505 0.129591 0.312547 -0.084587 0.886161 
0.700343 0.322571 0.371664 0.858395 0.017064 -0.499812 
0.246529 0.943836 -0.010474 0.755868 0.299209 -0.506631 
-2.248453 0.641860 1.967728 0.641647 0.180696 0.720193 
-1.820025 -0.056589 1.670741 0.503206 0.186064 0.825970 
-0.458567 0.633204 0.000480 -0.759274 0.478565 -0.364012 
1.351157 -0.785741 2.043029 -0.780978 0.576554 0.212784 
-2.272720 -0.089344 2.159463 0.872902 0.195052 0.400633 
-0.353329 0.214042 0.177987 0.066621 -0.246437 0.908948 
1.923915 0.115764 2.386616 -0.961720 0.145437 -0.035937 
0.711103 -0.930786 0.495321 0.692515 0.068439 -0.698036 
-1.516630 -0.113024 1.435428 -0.456164 -0.237077 -0.816073 
-1.879575 -0.237350 1.762305 0.489284 0.321331 0.765755 
0.530829 0.444148 0.392972 -0.684442 0.295600 0.656112 
-0.279371 -1.159671 0.152120 -0.209258 0.140883 0.798367 
-1.615443 0.353228 1.530254 0.398412 -0.129407 0.855065 
-0.000524 -0.504981 -0.199563 -0.154083 -0.729636 -0.664544 
-2.041035 -0.270440 1.953255 0.698891 0.314035 0.608374 
-0.118665 -0.373065 0.198904 -0.175596 -0.065504 0.979137 
0.190741 0.276998 0.265861 0.216209 -0.262149 0.938934 
-0.395733 -0.084799 -0.065841 -0.824552 -0.113602 -0.549575 
-1.023723 0.399251 0.858070 -0.812024 -0.271635 -0.513363 
-0.202236 0.555443 0.330040 -0.201341 -0.219910 0.948287 
-1.446825 0.799482 1.422269 0.678887 0.506014 0.356294 
1.887835 0.029018 2.306136 -0.951225 0.189192 0.000126 
0.406178 0.350567 -0.089458 0.811028 0.017664 -0.548713 
1.701401 0.097496 3.261697 0.892894 -0.298664 0.331140 
0.444491 -1.033552 0.223415 -0.395325 -0.102282 0.867148 
1.337349 -0.707075 1.861620 -0.682484 0.545735 0.398857 
0.573396 -0.177197 0.324174 -0.512340 -0.063990 0.781679 
-0.532329 0.074090 0.329909 0.614736 -0.148638 0.729768 
0.290665 0.716220 0.316685 0.535158 0.270830 0.791105 
-0.032679 1.368499 0.046980 -0.460191 0.767805 0.373503 
1.809353 0.481123 2.087118 -0.871892 0.056067 0.318030 
1.844692 0.078887 2.818779 0.929409 -0.272259 0.206758 
1.021100 0.528114 0.921616 -0.718161 -0.013926 0.666407 
-0.131151 0.752177 0.346274 -0.152127 0.065557 0.978812 
1.262372 -0.417351 1.142704 -0.821905 0.217733 0.519560 
-0.038842 0.170041 0.240959 -0.071639 -0.226444 0.964271 
-2.463041 0.538970 2.228359 0.698138 0.332537 0.577459 
-1.131452 0.361781 1.070989 0.665331 -0.149057 0.697544 
-0.455791 0.278466 0.003226 -0.865906 -0.051554 -0.489690 
-0.313768 0.739128 0.285166 -0.645619 0.301624 0.659302 
-1.764775 0.556905 1.605496 -0.593244 -0.359763 -0.695381 
0.056095 0.078352 0.210316 0.115969 -0.167905 0.976621 
-0.296960 -0.682421 -0.044411 -0.562257 -0.244379 -0.773106 
1.542107 0.741390 1.384431 0.911430 -0.158831 -0.307982 
-2.168363 -0.084079 2.002361 0.787948 0.217668 0.520292 
0.246846 -0.508586 0.133948 0.437639 -0.123649 0.886543 
0.440489 0.501148 0.313158 -0.677898 0.256621 0.680385 
1.728498 -0.132245 2.866380 -0.878844 0.433175 -0.139889 
1.233283 -0.760466 1.716579 -0.798505 0.548133 0.161762 
-1.922478 0.136294 1.714020 0.559898 0.053230 0.820062 
-0.800475 0.515574 0.614755 -0.702814 0.251331 -0.639927 
0.201978 1.079994 -0.015446 0.729994 0.333966 -0.533102 
1.768871 0.743129 1.911392 -0.756847 0.406604 0.412777 
-2.520212 0.237753 2.453882 -0.908895 -0.222847 -0.332803 
0.827377 -0.439460 0.680449 -0.792245 0.044067 0.598600 
1.650431 0.687361 1.752748 -0.783808 -0.021944 0.512662 
1.263890 -0.619804 1.433619 0.739309 -0.529261 -0.361581 
-0.707810 -0.834475 0.521344 0.736330 -0.044726 0.615111 
-1.145847 0.296793 1.029819 -0.773747 -0.292598 -0.554375 
1.306086 0.756047 1.180621 -0.677863 0.538508 0.356070 
0.181249 -0.747723 -0.035308 0.195870 -0.383714 -0.899329 
1.033475 -0.788395 0.928537 0.836533 -0.220317 -0.500924 
-2.183879 -0.325399 2.240366 0.802711 0.320598 0.444658 
-2.416237 -0.233081 2.734877 0.888700 0.358451 0.276002 
-0.268389 -0.264584 -0.211434 -0.545951 -0.236501 -0.787238 
-1.424358 0.730484 1.297765 -0.748474 -0.059829 -0.629571 
-1.857960 0.777971 1.690124 -0.644173 0.470294 -0.553291 
1.770647 -0.135385 1.907748 0.911424 -0.277885 -0.276755 
-0.634025 -0.735116 0.445253 -0.735656 -0.077456 -0.630129 
0.369905 0.689497 0.227838 0.563700 0.249837 0.663324 
0.656307 -0.102269 0.468143 -0.679403 -0.070480 0.693721 
1.734312 0.768672 1.839366 -0.720608 0.461417 0.440002 
0.553593 0.064409 0.188183 0.834755 -0.071036 -0.542277 
1.681896 -0.398427 2.383464 -0.877405 0.417303 0.020916 
1.187878 0.022253 1.018300 0.805340 -0.254423 -0.531077 
-2.578201 0.123603 3.019592 0.961567 0.227541 0.145312 
0.679894 0.090869 0.394069 0.823364 -0.110669 -0.552101 
0.445645 -0.823267 0.273992 -0.360495 0.052050 0.869626 
-0.096165 -0.303188 0.198599 -0.185725 0.008769 0.979523 
-1.035711 -0.716287 1.198190 -0.797129 -0.328777 -0.475693 
0.947142 0.509057 0.843953 -0.771648 0.169204 0.604417 
0.563166 0.138476 0.198777 0.838781 -0.091059 -0.532776 
-0.965901 0.096907 0.871852 0.720511 -0.058254 0.655065 
1.942342 0.503793 2.196130 0.969240 -0.018228 -0.243286 
-0.931500 0.151094 0.824122 0.719842 -0.097803 0.657542 
-2.350739 0.280029 2.079434 0.748081 0.125608 0.616869 
1.837123 0.034571 2.046053 -0.905039 0.232831 0.340744 
1.384394 -0.653317 1.860739 -0.669683 0.528700 0.429614 
0.593337 0.083712 0.252270 0.832099 -0.085186 -0.543711 
-1.830877 -0.230717 1.706904 -0.703328 -0.314211 -0.620348 
1.351678 -0.073860 1.201249 0.806760 -0.280755 -0.518903 
0.190764 -0.370016 0.179684 0.312175 -0.052101 0.939521 
-1.438510 0.489358 1.377260 -0.693399 -0.331361 -0.639686 
-1.195606 0.160557 1.166016 0.677216 -0.021343 0.683028 
-1.804638 0.615913 1.654713 0.450188 -0.041323 0.871438 
-0.196221 -0.713364 0.114694 -0.121328 -0.101867 0.934648 
1.109205 -0.228588 0.972013 -0.787517 0.111281 0.576291 
-1.144211 0.561764 0.972741 -0.781287 -0.104320 -0.577546 
-1.151652 -0.597559 1.366392 0.730787 0.362829 0.549957 
0.372303 0.749138 0.079498 0.865150 0.453419 -0.103233 
0.949859 -0.378584 0.784730 0.807304 -0.136547 -0.563283 
0.344230 -0.394839 0.093612 0.533247 -0.092356 0.771727 
0.539895 -0.303007 0.181986 0.784776 -0.112218 -0.606982 
-0.298789 0.418858 -0.257511 -0.641745 0.098145 -0.752663 
1.650527 -0.091439 1.713092 -0.794019 0.220561 0.532511 
-0.328845 0.187446 -0.216294 -0.714257 -0.057342 -0.676617 
1.077652 -0.201450 0.905832 0.803194 -0.177911 -0.555355 
0.740429 -0.448077 0.542733 0.755387 -0.052004 -0.639293 
-1.922648 0.607595 1.792006 0.540390 0.027290 0.757504 
0.032964 -0.939708 0.105126 0.347889 -0.121954 0.921331 
-1.547561 0.279873 1.437978 -0.487143 -0.257311 -0.790275 
-0.952232 -0.545855 0.956733 -0.826377 -0.220611 -0.495746 
-0.731560 -0.091159 0.507340 -0.836140 -0.100129 -0.538005 
-0.650943 -0.516044 0.464475 -0.747313 -0.107889 -0.619555 
0.482487 0.308766 0.038804 0.865480 -0.016013 -0.485127 
-1.095162 0.712109 0.972920 0.724424 0.276335 0.512225 
-2.260338 -0.406708 2.531250 -0.802932 -0.429665 -0.381369 
0.193465 -0.469546 0.161872 0.298345 -0.133024 0.942011 
-1.878937 0.260008 1.676713 -0.572183 -0.158461 -0.778599 
-0.455678 0.550807 0.295270 0.663369 0.313570 0.668016 
1.157265 -0.817071 1.621448 -0.785704 0.570575 0.184977 
1.398070 -0.460831 1.461227 0.733575 -0.455997 -0.468189 
-1.880464 -0.313061 1.813375 0.500753 0.347593 0.742737 
-0.203148 -1.134994 0.100691 -0.075473 -0.261032 -0.959851 
-0.528593 -0.261588 0.172788 -0.812711 -0.115924 -0.568414 
1.980253 0.400662 2.481090 -0.958092 0.181193 0.109108 
-0.254774 -0.524769 -0.123416 -0.070606 -0.392200 -0.853735 
-0.949499 0.029659 0.852878 0.734698 -0.030574 0.642626 
-0.892920 0.528153 0.755009 0.777159 0.311300 0.531463 
-1.520256 0.722715 1.415073 -0.837775 -0.190461 -0.503727 
1.110186 -0.735342 1.232230 0.796120 -0.459562 -0.316249 
-1.503834 -0.534831 1.676196 0.765593 0.416237 0.463694 
-2.061784 -0.578572 2.260960 0.717437 0.446597 0.511694 
0.933557 0.140760 0.792520 -0.694643 -0.121049 0.681331 
1.632599 -0.161616 1.670375 0.947844 -0.227037 -0.112640 
1.856361 0.527003 2.024353 0.972709 0.001791 -0.209415 
0.963054 -0.791537 0.853454 0.835006 -0.196764 -0.510674 
-0.423566 0.223981 0.196558 0.519152 -0.235063 0.803686 
0.257682 0.001557 -0.257966 0.598517 -0.118472 -0.765329 
-2.378931 0.570545 2.097457 0.710294 0.155375 0.666330 
0.783110 0.345298 0.670341 -0.724362 -0.005862 0.679129 
-0.222665 1.119173 0.369083 -0.597648 0.490476 -0.622494 
-0.785038 -0.551789 0.615800 -0.837525 -0.041600 -0.536919 
1.497796 0.700108 1.339868 0.770070 -0.287594 -0.569177 
0.525795 -0.994513 0.311988 -0.473378 -0.082964 0.820244 
1.781625 0.422546 1.883491 0.818877 -0.359562 -0.417032 
1.612941 0.725618 1.665580 -0.763193 -0.045512 0.565316 
1.280927 0.679369 1.117257 0.403625 0.513437 -0.637037 
-0.265183 0.891533 -0.009780 -0.782595 0.335379 -0.459423 
-0.298895 0.686779 -0.174436 -0.515030 0.504753 -0.680111 
1.155991 -0.295646 0.994763 0.806885 -0.195540 -0.543799 
1.848161 -0.038238 2.113856 0.863420 -0.388250 -0.285537 
-2.036353 0.491265 1.848825 0.587619 0.032823 0.743486 
-1.378568 -0.270722 1.389154 0.730790 0.235277 0.629878 
0.063054 -0.871350 0.117538 0.193787 -0.123070 0.947023 
-0.621444 -0.113624 0.321387 -0.835616 -0.092584 -0.539615 
0.160909 1.242963 0.315052 -0.395070 0.753246 0.438479 
0.598355 0.174813 0.254051 0.837354 -0.110034 -0.531511 
-0.722018 0.088982 0.477825 -0.835683 -0.132476 -0.530913 
1.939513 0.344586 2.186769 0.977045 0.123080 -0.136597 
0.135816 -0.719034 0.128785 0.073221 -0.102823 0.952309 
0.175650 0.453815 0.325378 0.228916 -0.258953 0.935285 
0.308822 0.044946 -0.223796 0.651619 -0.111814 -0.722417 
-1.694457 0.525896 1.575581 0.462670 -0.238433 0.807935 
-1.459040 0.717749 1.371778 -0.694806 -0.335199 -0.635518 
-0.320834 0.830237 0.050840 -0.852515 0.422250 -0.267387 
1.800036 0.603668 2.047305 -0.856288 0.066291 0.385087 
0.660171 -0.892513 0.463123 0.682619 -0.039682 -0.702695 
-1.981586 0.560146 1.845350 0.581571 0.045127 0.715774 
1.379164 -0.090439 1.264914 -0.790761 0.115409 0.541975 
-0.280638 -0.616547 -0.091968 -0.517130 -0.280746 -0.803631 
1.594071 -0.485632 1.999154 0.857115 -0.487037 -0.127971 
1.666867 -0.289409 2.777961 0.853217 -0.487195 0.094494 
1.759204 0.095275 3.112286 0.903378 -0.302927 0.286104 
0.173907 1.198617 0.074341 0.768148 0.564652 -0.234621 
-0.007524 -0.860721 0.134692 -0.514693 -0.114400 0.839514 
0.232387 0.900895 -0.067100 0.691687 0.333021 -0.633444 
0.248689 -1.197146 0.171578 0.382893 0.193142 0.739181 
-0.269822 -0.435705 -0.180263 -0.484444 -0.319813 -0.804539 
1.372638 0.279073 1.214077 0.791627 -0.280798 -0.541187 
1.706644 0.773211 1.768289 0.862580 0.356042 -0.195172 
0.476278 0.635383 0.058106 0.786562 0.499257 -0.307139 
-2.268427 0.476516 2.039545 0.701062 0.126774 0.642332 
-0.097844 0.395330 0.321077 -0.146889 -0.294485 0.936499 
0.367988 -0.525281 -0.025839 0.710244 -0.173303 -0.662252 
1.775206 0.147967 1.868901 0.873637 -0.100665 -0.451302 
-1.248420 0.659574 1.218373 0.728976 -0.001664 0.656010 
-1.966287 -0.650640 2.116597 -0.670229 -0.483583 -0.561536 
-2.535426 0.093305 2.743632 -0.935262 -0.259219 -0.218798 
-0.346588 -0.371314 -0.115393 -0.727828 -0.179680 -0.640533 
1.173940 0.402452 1.056579 -0.677006 -0.191480 0.670594 
-0.187531 1.196151 0.386732 0.485705 0.215585 0.811292 
-2.184719 0.111150 1.924757 -0.547945 -0.380014 -0.730011 
-2.418729 -0.087321 2.558958 0.839059 0.378187 0.348649 
-0.195830 -0.406460 0.178721 -0.310527 -0.111477 0.940781 
-1.208330 -0.478511 1.262868 -0.747667 -0.303313 -0.574148 
1.040905 0.086057 0.906440 -0.711191 -0.060147 0.652743 
1.060648 -0.706744 0.946878 0.831790 -0.218551 -0.507040 
-1.033037 -0.668878 1.113107 -0.820280 -0.276409 -0.479609 
1.416787 -0.347728 1.352291 -0.844517 0.285559 0.383829 
0.091340 -0.830832 -0.027365 0.125868 -0.325843 -0.916851 
-2.528685 0.196558 2.535890 -0.919551 -0.232522 -0.295388 
-0.954478 0.475022 0.747581 -0.689642 0.245457 -0.665465 
0.308351 0.434292 -0.251849 0.641033 0.103458 -0.755703 
-0.567476 0.007612 0.368800 0.635488 -0.114723 0.710248 
1.007735 -0.840794 1.022656 -0.825989 0.301148 0.413155 
-2.175444 0.024222 1.942630 -0.595889 -0.390981 -0.684873 
0.439011 -0.749397 0.264764 -0.352254 0.057654 0.872240 
1.844057 0.670837 2.023531 0.963180 0.022426 -0.257723 
0.379160 -0.848141 0.198674 0.539552 -0.219701 -0.790914 
-0.046003 -0.339584 -0.294846 -0.358869 -0.357291 -0.842676 
-1.847762 0.020873 1.673665 0.524769 0.116287 0.832923 
-0.860009 -0.434946 0.816267 0.827338 0.119587 0.528181 
0.174593 1.025307 0.334522 0.401734 -0.015815 0.862530 
1.118684 -0.735431 1.303464 0.785791 -0.522355 -0.266039 
-0.873419 0.376147 0.756949 0.686324 -0.195765 0.696650 
-1.610496 0.840355 1.528153 0.333310 0.458152 0.768623 
-0.444676 -0.367848 0.091363 0.221512 -0.031579 0.925548 
1.937000 0.658446 2.241583 0.936348 0.241660 -0.203131 
0.801817 -0.515396 0.609758 0.781859 -0.037281 -0.616100 
1.748660 -0.254864 2.153157 -0.894847 0.347525 0.154339 
-2.427138 0.315421 2.171791 -0.834270 -0.164338 -0.500172 
-0.531255 -0.284869 0.244636 0.411268 -0.029901 0.817741 
-0.250576 -1.342488 0.186599 -0.907643 0.000231 -0.011416 
-2.238646 0.404859 2.043978 0.723898 0.115337 0.596387 
-0.385466 0.694355 -0.053687 -0.620582 0.637615 -0.394363 
-0.298426 0.557848 0.285282 -0.268575 -0.177245 0.902891 
1.608613 -0.452476 2.608443 0.846314 -0.504305 0.036002 
0.212616 1.067995 0.266544 0.460284 0.782766 -0.070756 
1.284494 0.313581 1.115832 0.793302 -0.274729 -0.542099 
-1.713432 -0.644871 1.917788 0.440155 0.451807 0.715426 
-0.358772 0.374822 -0.171805 -0.729525 0.034434 -0.655078 
1.741649 0.023491 3.095666 -0.901341 0.315781 -0.278030 
0.215247 0.909683 0.311572 0.604218 0.107084 0.771479 
1.827985 -0.091167 2.534025 0.832685 -0.528002 -0.079243 
0.309318 0.252468 -0.262882 0.700529 -0.016077 -0.707129 
-0.429493 0.006969 -0.014352 -0.837240 -0.101625 -0.533236 
0.933875 0.221087 0.794845 -0.675767 -0.159030 0.698004 
-0.780436 -0.809541 0.601272 0.830548 -0.057682 0.550224 
0.943863 0.075541 0.750233 0.796143 -0.165842 -0.571863 
-1.521310 0.959366 1.461355 0.035248 0.083926 0.970498 
-0.632296 -0.811537 0.449729 0.636668 -0.014841 0.681854 
-1.344258 0.438212 1.263857 -0.719631 -0.318934 -0.611698 
-2.222618 0.052217 1.990285 -0.593495 -0.420005 -0.669124 
-1.354697 0.596382 1.329257 0.649007 -0.240622 0.699581 
-0.451323 0.142001 0.220404 0.518976 -0.198499 0.795406 
-1.343050 -0.924066 1.860322 0.575860 0.518047 0.615944 
-1.800466 0.495042 1.628426 -0.584893 -0.324591 -0.713947 
-2.002348 -0.625399 2.173648 -0.689139 -0.475722 -0.536308 
1.847332 0.154500 2.924385 0.925364 -0.279172 0.221264 
0.360337 0.498454 0.245371 -0.166488 0.025475 0.858590 
-0.695139 0.439460 0.485547 -0.736989 0.405448 -0.498627 
0.715764 -0.131057 0.547065 -0.741367 -0.047061 0.656660 
1.613839 -0.406540 1.940914 -0.733010 0.436857 0.412851 
0.094339 -0.277065 -0.291014 0.406218 -0.290953 -0.840121 
0.001466 -0.001585 0.211082 0.077864 -0.117495 0.986519 
1.374587 0.231288 1.267405 -0.751465 -0.063878 0.582334 
0.121195 0.128787 0.220714 0.159420 -0.210010 0.959719 
1.849098 0.265538 2.034258 -0.891076 0.078624 0.414048 
1.643836 -0.419651 2.047697 -0.808364 0.439655 0.294722 
-1.085539 -0.751579 1.485624 0.702704 0.474005 0.510116 
1.344980 -0.417907 1.303680 -0.823889 0.313841 0.422392 
0.679449 -0.824985 0.481801 0.697426 -0.037130 -0.690698 
1.676671 0.483052 1.716135 -0.790459 -0.171385 0.501054 
1.878812 0.217783 2.876552 -0.936390 0.153919 -0.235707 
-0.188673 -0.008303 0.188457 -0.301522 -0.170968 0.911185 
-0.176543 0.537855 -0.274220 -0.500666 0.256951 -0.795405 
-2.017065 -0.197760 1.868845 0.671984 0.296260 0.659108 
1.583773 0.755614 1.597582 -0.747122 -0.063868 0.606560 
-0.243348 0.817418 0.311444 -0.539355 0.225762 0.805546 
1.810612 0.127088 1.964140 -0.895191 0.121191 0.416771 
-1.285083 -0.758018 1.670726 -0.533742 -0.526583 -0.626112 
-0.863494 0.642355 0.706419 0.770820 0.106454 0.619474 
-0.184944 0.613088 -0.251656 -0.474122 0.358104 -0.784581 
1.101126 0.594404 0.917241 0.526662 0.405510 -0.692462 
-2.303771 0.156642 2.048019 -0.619148 -0.375748 -0.653201 
-0.024228 -0.301779 0.204780 -0.128013 0.031056 0.989150 
1.185675 -0.500993 1.068521 -0.824583 0.201417 0.521124 
0.387790 0.718308 0.151570 0.883091 0.403323 0.158418 
-0.196517 1.142355 0.024080 -0.813288 0.436674 -0.349612 
0.390234 0.667955 -0.079944 0.649375 0.531801 -0.474344 
1.811910 0.020890 2.852949 0.921329 -0.269906 0.247216 
1.404393 0.571964 1.240565 0.778566 -0.281801 -0.559881 
0.250868 0.831130 -0.081724 0.626046 0.449131 -0.604603 
-0.906075 -0.021491 0.797487 0.752485 -0.020729 0.628262 
1.049372 0.155330 0.862564 0.799286 -0.219291 -0.551798 
0.422425 0.231502 -0.039331 0.859314 -0.078181 -0.504661 
1.886672 0.552073 2.220301 -0.898705 0.117651 0.307464 
-1.326641 -0.469504 1.477695 0.735434 0.368092 0.546678 
-0.691410 -0.925121 0.491451 -0.764276 0.030924 -0.605453 
-0.438088 0.394519 0.297481 0.651542 -0.008527 0.723512 
1.342651 0.146761 1.231281 -0.752836 -0.022161 0.582897 
-2.350821 0.140815 2.116960 -0.908997 -0.058820 -0.380598 
1.520566 -0.296935 1.531882 0.701882 -0.380324 -0.575808 
-1.668540 -0.821201 2.021895 0.586729 0.496989 0.628560 
-1.361315 0.780584 1.282482 0.636186 0.661482 0.235260 
-1.551913 0.334367 1.492179 0.599210 -0.044029 0.725670 
0.707937 -0.212788 0.459571 0.794855 -0.071093 -0.600909 
-0.589158 -0.071882 0.263480 -0.838353 -0.092132 -0.535226 
0.853377 0.312364 0.615011 0.825962 -0.132547 -0.538351 
1.269475 -0.523818 1.275696 0.802889 -0.389457 -0.397640 
-2.351518 0.628319 2.033262 -0.739459 0.183880 -0.641332 
-1.933891 -0.344832 1.862342 -0.668450 -0.367977 -0.635590 
0.862419 -0.767571 0.706369 -0.789058 0.038823 0.595345 
-2.390688 0.257314 2.139663 0.779273 0.183907 0.561309 
1.452433 0.277834 1.302141 0.788886 -0.286176 -0.542230 
-0.269791 0.227593 -0.283507 -0.665841 -0.019977 -0.732584 
-0.616418 -0.017462 0.438675 0.702309 -0.089893 0.666729 
-0.205324 1.057445 -0.023634 -0.722498 0.310242 -0.565512 
-1.353060 0.471476 1.336905 0.656728 -0.169322 0.692641 
1.858172 0.701647 2.086301 -0.817336 0.347349 0.384438 
0.357908 -0.133545 -0.109925 0.731180 -0.168929 -0.622073 
1.961926 0.409344 2.228035 0.970863 0.039406 -0.206354 
-1.261703 -0.830529 1.712566 -0.554228 -0.536654 -0.608085 
-1.119341 -0.781401 1.556813 0.710164 0.511466 0.474347 
1.763127 -0.142091 2.713660 0.845477 -0.501506 0.029029 
1.190942 -0.231241 1.030464 0.807505 -0.218293 -0.536539 
-0.854367 -0.284730 0.719791 -0.819702 -0.129213 -0.546901 
-0.638182 -0.408521 0.432996 -0.755441 -0.124349 -0.613344 
-0.131314 0.038904 0.205452 -0.186370 -0.160618 0.966111 
1.257319 -0.701908 1.636754 -0.820148 0.525451 0.125704 
0.531423 -0.460989 0.278349 -0.401739 0.010267 0.836509 
0.538623 -0.518354 0.326992 -0.446576 0.023694 0.814949 
-1.513190 -0.463631 1.610917 -0.383069 -0.473841 -0.774240 
1.199489 0.339623 1.021297 0.795213 -0.268904 -0.542528 
1.183738 -0.155187 1.053857 -0.772818 0.100757 0.579631 
0.553101 0.536295 0.163188 0.849809 0.312163 -0.389043 
-0.689532 0.034631 0.426682 -0.839215 -0.113252 -0.529774 
-1.725610 -0.779034 2.029525 -0.615165 -0.505653 -0.597279 
-0.358114 -0.015214 0.111854 0.024360 -0.179005 0.946906 
0.464455 -0.075273 0.045128 0.816872 -0.102498 -0.561873 
-1.373745 0.538364 1.287643 -0.714183 -0.323260 -0.616478 
0.506446 -0.517454 0.237159 0.688783 -0.148791 -0.680628 
0.682923 -0.016790 0.406695 0.816203 -0.083752 -0.567490 
1.820897 -0.120921 2.264347 -0.927454 0.266060 0.034458 
0.285189 -0.682144 0.099424 0.248312 -0.054557 0.907840 
1.899479 0.206640 2.808640 0.942146 -0.258146 0.168766 
-0.367746 0.751814 0.038552 -0.833928 0.490640 -0.233631 
1.115310 0.602906 1.022415 -0.738415 0.275096 0.521643 
0.419546 0.690015 0.071225 0.577851 0.791411 -0.107215 
-1.264115 -0.640302 1.554663 -0.558331 -0.496373 -0.617953 
-1.035017 -0.587458 1.093003 0.811555 0.228480 0.513631 
-0.465559 -0.188226 0.060277 -0.817121 -0.115789 -0.561101 
1.271720 0.480524 1.163028 -0.694188 -0.218913 0.647066 
-1.667539 -0.754878 1.969832 0.516562 0.479153 0.670153 
-2.507339 0.453024 2.275599 -0.877613 -0.117507 -0.429494 
-0.034265 -0.954063 0.023023 -0.271940 -0.219661 -0.925310 
-2.097562 0.709416 1.855561 -0.686946 0.340176 -0.600836 
-0.133106 1.266971 0.145885 -0.479195 0.824304 0.158126 
1.024297 -0.845456 1.188147 -0.804635 0.456016 0.292086 
-0.527833 0.573841 0.167348 -0.855554 0.354037 -0.333354 
1.937382 0.249031 2.731356 0.954226 -0.240360 0.134793 
1.151331 -0.730757 1.381650 -0.814803 0.528710 0.164161 
1.372667 -0.376447 1.241203 0.816993 -0.283555 -0.499962 
-1.282309 -0.307383 1.285542 -0.711089 -0.295756 -0.633290 
0.590591 -0.078101 0.256708 0.814806 -0.079041 -0.569896 
1.223255 -0.841537 1.864929 0.756278 -0.604318 -0.222638 
-0.938167 -0.101445 0.797788 -0.802368 -0.172246 -0.557592 
0.369882 0.374735 -0.152556 0.746635 0.036508 -0.632071 
-1.355801 -0.068214 1.378051 0.693140 0.137795 0.659991 
1.408906 0.630219 1.313300 -0.713545 -0.279687 0.618900 
1.515545 0.594071 1.365587 0.764529 -0.279291 -0.577953 
-1.511695 -0.818487 1.901425 -0.589161 -0.511844 -0.612892 
-0.415853 -0.264968 0.070736 0.231670 -0.075437 0.929849 
-1.059896 0.448217 0.898886 -0.804161 -0.282296 -0.519495 
-1.114715 -0.230550 1.082109 0.737907 0.159352 0.630734 
-2.010643 -0.334958 1.955509 0.679520 0.343715 0.623047 
0.939685 -0.050086 0.794389 -0.739725 -0.028569 0.640615 
-0.852190 0.103347 0.722235 0.744138 -0.101113 0.639210 
1.716663 0.555982 1.761326 0.823021 -0.409295 -0.376282 
1.321740 0.142927 1.161899 0.798962 -0.277898 -0.531990 
0.101149 1.202682 0.296746 -0.295719 0.654520 0.659940 
-0.562588 0.129331 0.379355 0.660938 -0.161132 0.705984 
-0.137684 -0.173298 -0.297682 -0.475290 -0.194043 -0.834131 
-0.420809 -0.520546 0.077859 -0.722421 -0.158297 -0.648434 
1.689805 -0.230004 2.821101 -0.894298 0.385857 -0.171731 
0.581879 0.088255 0.395263 -0.653239 -0.153498 0.719702 
-0.406297 0.644698 0.175082 -0.336369 0.413019 0.761028 
-2.130997 0.080204 1.890273 0.668260 0.180896 0.700257 
0.826390 -0.106388 0.671344 -0.749072 -0.038777 0.647045 
1.036595 0.655065 0.870437 0.630398 0.269635 -0.682109 
1.518158 -0.358861 1.589198 0.682142 -0.457420 -0.554598 
-0.725348 -0.737773 0.535424 -0.799060 -0.020432 -0.576836 
-0.036849 -0.032942 -0.370583 -0.436140 -0.143028 -0.855858 
-1.510161 -0.738292 1.834063 -0.616905 -0.495416 -0.595601 
-2.181250 -0.183480 2.076978 -0.642451 -0.470775 -0.597436 
1.692529 -0.188501 2.901366 -0.876744 0.438222 -0.158430 
1.173773 0.461193 0.989381 0.791152 -0.266701 -0.549741 
-2.021545 0.250075 1.773416 -0.525283 -0.230682 -0.795682 
0.039295 -0.005846 -0.376229 0.442043 -0.122928 -0.857847 
0.092762 -0.760166 -0.053051 0.082135 -0.376018 -0.906099 
-1.125942 0.160084 1.022611 -0.774478 -0.286169 -0.556182 
-0.310856 0.665644 0.313666 -0.591276 -0.148155 0.772128 
-0.637955 0.143526 0.470263 0.694738 -0.152808 0.683547 
-1.175880 0.321693 1.129108 0.667436 -0.117526 0.693071 
-0.243446 0.142130 -0.286967 -0.627065 -0.052572 -0.755901 
1.033679 -0.651116 0.910613 0.827437 -0.201862 -0.517752 
-2.412299 0.040115 2.352301 -0.934078 -0.173725 -0.291381 
1.438598 0.572948 1.343765 -0.728343 -0.243078 0.601985 
0.341703 0.808227 0.113397 0.877746 0.413512 -0.027809 
-1.212426 -0.067767 1.204532 0.691164 0.112803 0.669354 
1.539845 0.302036 1.511150 -0.815556 -0.033635 0.456331 
0.002017 -0.521210 0.194065 0.307135 -0.131793 0.916555 
-2.065454 -0.204404 1.941541 0.713119 0.285457 0.601083 
1.514006 -0.657090 2.146978 0.816774 -0.554161 -0.140938 
-0.317487 -0.428020 0.111376 -0.586491 -0.110954 0.773260 
-1.288424 0.168331 1.280349 0.675967 -0.007945 0.678829 
0.193746 -1.143932 0.166744 -0.093423 0.254826 0.926382 
-0.176016 1.192695 0.069452 -0.789244 0.539040 -0.236571 
0.004568 0.248727 0.268942 0.015384 -0.274732 0.956311 
1.417088 -0.522057 1.635324 0.686541 -0.537444 -0.469912 
-0.978320 -0.588369 1.008404 -0.824759 -0.239219 -0.489748 
-0.413458 0.693607 0.079970 -0.549478 0.822824 -0.076154 
1.003375 -0.070025 0.820224 0.799461 -0.167917 -0.565049 
-1.846424 0.549000 1.693390 0.554350 -0.071767 0.801917 
0.500608 0.539106 0.325343 -0.650165 0.344975 0.666271 
-1.526866 0.877733 1.432847 -0.394588 0.239342 -0.825887 
1.518588 -0.618056 2.085359 -0.761009 0.524891 0.273419 
0.756950 -0.901610 0.550494 0.730830 0.033896 -0.672695 
1.477591 -0.502990 1.774684 -0.596870 0.478329 0.581087 
-0.663914 -0.210142 0.467275 0.672565 -0.009940 0.665244 
1.207233 -0.291405 1.075724 -0.805653 0.172993 0.547506 
-1.228508 0.558985 1.175896 0.652359 -0.243455 0.703781 
0.194383 -0.626448 -0.087535 0.118667 -0.423281 -0.877577 
1.833076 -0.044689 2.038026 0.867927 -0.351654 -0.327417 
0.288277 -0.487932 -0.143003 0.535620 -0.285627 -0.782724 
0.181768 0.533448 0.337327 0.222593 -0.234771 0.941629 
1.311861 -0.428385 1.195772 -0.825918 0.238478 0.509464 
-1.090906 -0.148853 1.047278 0.730557 0.109885 0.638914 
1.757919 -0.221940 2.083138 -0.895641 0.337548 0.208720 
-0.152528 0.477200 -0.311976 -0.528346 0.210296 -0.806567 
-0.115866 1.246861 0.234693 0.084474 0.890643 0.356079 
-0.007885 -1.025630 0.033974 -0.529891 -0.149098 -0.815608 
-1.101476 0.587874 1.051646 0.755919 0.051347 0.631093 
0.822300 -0.200122 0.627204 0.794011 -0.077196 -0.599323 
-0.890905 0.180792 0.769190 0.724389 -0.127353 0.655455 
0.591143 0.174913 0.407273 -0.648054 -0.182446 0.724349 
-0.348756 -0.046492 -0.119804 -0.705982 -0.180725 -0.634229 
-1.573595 0.717048 1.479007 -0.647741 -0.394614 -0.637141 
-0.138047 -0.768402 0.121281 -0.033295 -0.086061 0.955334 
-1.485821 1.024280 1.450034 0.854149 0.210942 0.204681 
-1.098708 0.063940 0.996436 -0.775111 -0.262401 -0.563037 
0.060153 0.325732 -0.395790 0.513508 0.103630 -0.834208 
-0.576605 -0.724380 0.401365 0.565221 0.017088 0.731327 
-0.000412 -1.102443 0.098581 -0.650856 -0.223928 0.666068 
1.673219 0.414474 1.677606 0.869375 -0.231015 -0.379738 
-0.271546 0.340263 -0.277047 -0.662560 0.056298 -0.729573 
1.537911 1.104428 1.454269 -0.807012 0.232337 0.377868 
-0.131178 0.201089 0.248514 -0.177350 -0.236003 0.949636 
-2.079886 0.536188 1.814148 -0.747558 -0.008838 -0.656972 
0.069152 -0.771606 0.133135 0.210798 -0.133799 0.946073 
1.504607 0.766334 1.315165 0.682228 0.183670 -0.702007 
-1.607080 -0.758760 1.929214 0.469797 0.477349 0.697899 
-0.314717 -0.313463 0.130429 -0.619556 -0.124146 0.751066 
-0.112759 -1.189442 0.069896 -0.508789 -0.181138 -0.821198 
-0.119593 0.171868 -0.367174 -0.549036 -0.015734 -0.818251 
-0.494640 0.281396 0.064354 -0.865384 -0.044923 -0.491058 
0.969493 -0.448308 0.814994 0.812410 -0.152641 -0.551895 
-1.577423 0.217471 1.454579 -0.429374 -0.236422 -0.832460 
0.856544 0.202341 0.709695 -0.689987 -0.160609 0.693051 
1.600808 0.327789 1.475017 0.950030 -0.130935 -0.262794 
-0.481984 0.346120 0.029836 -0.872288 0.020495 -0.464883 
-0.453732 0.473888 -0.043188 -0.817330 0.147420 -0.509942 
0.216408 -0.789373 0.105260 0.043593 -0.038521 0.907233 
0.614588 0.498928 0.363574 0.772290 0.450583 -0.399778 
-0.605045 -0.391809 0.359842 -0.766827 -0.124721 -0.605737 
1.676312 0.006948 1.678095 0.956103 -0.072001 -0.214679 
-2.109862 -0.343682 2.092851 -0.650756 -0.478679 -0.584697 
0.238310 1.021511 0.016012 0.805461 0.331710 -0.413871 
0.372156 -0.251422 0.042528 -0.018780 -0.090104 0.982556 
-0.932292 -0.850144 1.138075 0.839597 0.304714 0.423273 
1.921504 0.186122 2.694793 0.951830 -0.248862 0.132148 
0.622233 0.291558 0.480390 -0.664979 -0.109433 0.727326 
0.380268 -0.165844 0.069411 -0.102024 -0.116761 0.953192 
-2.092038 -0.412393 2.118545 -0.653584 -0.493447 -0.572806 
-1.173152 -0.432802 1.211056 0.756224 0.247367 0.588144 
-1.939712 -0.211003 1.793336 0.579507 0.311285 0.728182 
-1.278110 0.304916 1.197801 -0.734849 -0.309705 -0.596657 
-0.949883 -0.340398 0.866569 -0.801242 -0.176104 -0.553129 
-2.295533 0.247670 2.016070 -0.844404 0.051369 -0.497981 
-1.524731 0.488164 1.420146 -0.563184 -0.287977 -0.733634 
1.351663 -0.743196 1.962293 -0.735403 0.560454 0.299810 
-0.773545 0.299460 0.654232 0.708645 -0.137428 0.687985 
-2.152659 -0.250662 2.096466 0.790478 0.277414 0.485647 
1.446754 0.069439 1.348070 -0.812037 0.025408 0.484217 
1.782677 -0.044248 2.839028 0.914029 -0.296570 0.232194 
-0.434819 -0.434296 0.056272 -0.762954 -0.144875 -0.615868 
1.427821 -0.450517 1.539613 -0.884325 0.409694 0.068890 
-0.163776 0.104808 0.206323 -0.197868 -0.195159 0.960170 
-0.164734 0.120955 -0.332002 -0.567792 -0.046812 -0.799916 
-1.387048 -0.529341 1.562767 -0.488541 -0.469291 -0.693707 
1.789262 -0.185296 2.435598 -0.921439 0.297459 -0.068886 
-1.604727 0.530879 1.519901 0.417977 -0.260956 0.825268 
1.669024 -0.444495 2.202337 0.843776 -0.496039 -0.165875 
0.155884 0.374663 -0.326846 0.573626 0.129495 -0.778344 
-1.272763 -0.956426 1.828054 0.574742 0.533491 0.608794 
-0.673370 0.281207 0.556534 0.703579 -0.084491 0.700619 
0.725707 0.150492 0.465154 0.822288 -0.138546 -0.548730 
-0.813926 -0.734805 0.727986 0.843861 0.042750 0.511356 
-0.954131 0.230223 0.782714 -0.818134 -0.220441 -0.522123 
0.138433 -1.169748 0.079710 0.630585 -0.222281 -0.698966 
0.951936 0.661048 0.786169 -0.755925 0.120652 0.636860 
-1.211753 -0.761987 1.613508 -0.572731 -0.532623 -0.584377 
0.476664 -0.267636 0.155464 -0.315740 -0.055382 0.885038 
-0.137474 1.182196 -0.028379 -0.642732 0.416542 -0.595214 
1.923333 0.411936 2.908140 -0.834645 0.500416 -0.025536 
1.497311 0.383847 1.416539 -0.810418 -0.153111 0.450873 
-1.240903 0.058624 1.184446 -0.737795 -0.303623 -0.596291 
-0.039368 0.618365 -0.301589 -0.369117 0.395717 -0.827766 
-1.577063 0.785290 1.455546 -0.663496 -0.137191 -0.729711 
-0.535496 -0.674196 0.348632 -0.667226 -0.149819 -0.687443 
0.694446 -0.745792 0.496634 0.710761 -0.038891 -0.679169 
1.627322 -0.309726 2.916631 -0.872632 0.449039 -0.173447 
-1.172621 -0.346249 1.178797 0.742852 0.226045 0.615107 
0.227551 -0.686588 -0.052722 -0.031222 -0.412092 -0.890647 
0.155882 0.841330 0.350464 0.311151 -0.011116 0.937637 
0.096801 -0.496556 -0.189745 0.225148 -0.539651 -0.805329 
-0.291464 -1.000494 0.099131 -0.501933 -0.237242 -0.827791 
0.634941 0.077215 0.321132 0.827269 -0.094874 -0.549134 
-1.469038 -0.883177 1.925925 0.483803 0.504222 0.689655 
0.539197 -0.595968 0.373310 -0.486646 0.039916 0.796556 
-0.303602 -0.103683 0.146139 -0.404883 -0.175858 0.847237 
-0.784113 0.264240 0.535602 -0.852174 -0.056946 -0.516083 
0.194866 0.774195 -0.155159 0.517065 0.461866 -0.705143 
1.329296 -0.278166 1.207121 -0.806732 0.206476 0.530706 
0.217033 0.160160 0.205938 0.187297 -0.228091 0.954018 
0.662627 0.304924 0.544015 -0.699828 -0.040531 0.706314 
-2.429199 0.031176 2.420584 -0.932878 -0.195582 -0.278691 
0.799380 0.369896 0.584511 0.676834 0.405613 -0.607102 
-0.712045 0.630501 0.526685 -0.760112 0.140498 -0.596650 
1.096321 -0.356259 0.962715 -0.806312 0.144341 0.556798 
1.752859 -0.175782 2.650204 -0.913817 0.325982 -0.138051 
1.249509 -0.514188 1.123906 0.823678 -0.256871 -0.503503 
1.437850 -0.518743 1.718377 -0.575573 0.481471 0.616375 
1.835847 -0.100831 2.195644 0.861832 -0.437154 -0.217152 
-0.095425 -0.594982 -0.131266 -0.043837 -0.446751 -0.892845 
-1.026740 -0.171247 0.963269 0.748550 0.097842 0.625471 
-1.622609 -0.498600 1.720629 -0.706565 -0.447346 -0.540045 
-0.745000 0.260385 0.474479 -0.852909 -0.061489 -0.514660 
-1.221595 -0.698389 1.568165 -0.568610 -0.518976 -0.592899 
0.447920 0.356391 -0.024568 0.868114 0.029583 -0.468525 
-1.912306 0.517877 1.690907 -0.537422 -0.282264 -0.781884 
0.602699 -0.903002 0.412225 -0.532470 -0.011192 0.778434 
0.132915 0.745438 -0.193059 0.465461 0.426428 -0.753987 
0.093202 -0.357992 -0.272417 0.382530 -0.349475 -0.837312 
-2.124742 0.227424 1.843765 -0.493871 -0.277042 -0.808349 
-2.501492 -0.001713 2.708298 0.923037 0.274881 0.245037 
-0.797306 -0.183489 0.616522 -0.829980 -0.100991 -0.545609 
-1.050874 0.512573 0.858761 -0.762987 -0.057331 -0.601049 
1.624377 -0.109317 1.620414 0.970214 -0.158693 -0.089445 
-1.201635 -0.538236 1.414147 0.707376 0.373150 0.578861 
-0.638867 -0.655724 0.465964 0.649955 0.004776 0.676606 
0.878947 0.385438 0.636555 0.738100 0.181665 -0.615838 
-0.694023 -0.138867 0.446973 -0.837339 -0.087294 -0.538881 
1.678861 0.652220 1.823587 -0.800310 -0.003556 0.465395 
-0.810136 -0.653620 0.727480 0.841939 0.053262 0.515202 
0.314016 -0.167037 -0.163313 0.617097 -0.216150 -0.715951 
1.718065 0.161066 1.760134 0.898262 -0.070032 -0.406194 
1.104710 0.136477 0.923592 0.801427 -0.238383 -0.542708 
0.647780 0.013438 0.470473 -0.692946 -0.112923 0.691603 
-2.038774 0.704482 1.801083 -0.702321 0.165379 -0.656364 
0.531165 -0.825451 0.344006 0.618872 -0.129683 -0.740200 
0.862796 -0.628436 0.701906 0.801492 -0.096494 -0.576796 
-0.357585 0.735854 0.206435 -0.801611 0.365760 0.356921 
-1.554243 -0.671709 1.812200 -0.642551 -0.482176 -0.579743 
-1.340630 -0.649855 1.625390 -0.492317 -0.509986 -0.664692 
0.470562 -0.154385 0.058975 0.805990 -0.109660 -0.576345 
-1.301571 0.474322 1.204260 -0.733455 -0.313614 -0.596222 
0.075686 -0.005745 0.206553 0.140594 -0.131574 0.975781 
-0.636959 0.449559 0.316979 -0.793860 0.352426 -0.460634 
1.754000 0.568197 1.828458 0.979204 0.039772 -0.155192 
1.762372 -0.261070 2.265679 0.841249 -0.499916 -0.171202 
0.728678 0.392616 0.550443 -0.696636 0.350830 0.611744 
1.834430 -0.104683 2.332542 -0.935465 0.250536 -0.027201 
-1.615293 0.768777 1.552134 0.373029 -0.062705 0.899197 
-1.005042 0.582357 0.885322 0.780059 0.369019 0.473602 
-0.301556 -0.094007 -0.206208 -0.617089 -0.171119 -0.739173 
0.047838 1.353045 0.051774 0.556122 0.748632 0.317806 
1.499041 -0.006244 1.374056 0.761769 -0.250679 -0.585868 
1.411240 -0.323690 1.275876 0.809912 -0.280419 -0.512290 
-0.603869 -0.464217 0.398329 -0.731756 -0.135111 -0.633460 
1.706778 -0.255915 1.934503 -0.820318 0.364841 0.366593 
-0.863282 -0.840264 0.878958 -0.863511 -0.168725 -0.448193 
0.352702 0.525446 -0.184710 0.651302 0.207620 -0.701005 
1.542400 0.827263 1.518021 -0.818373 0.064096 0.530550 
0.398317 0.600816 0.189800 0.154454 0.338537 0.782844 
0.525263 -0.025117 0.288693 -0.524766 -0.127315 0.784848 
-0.792127 -0.738298 0.652475 0.834987 -0.011602 0.536377 
0.260172 0.873416 0.266265 0.735611 0.215636 0.589695 
0.216157 -0.718155 0.111207 0.150267 -0.078065 0.908032 
-0.552222 -0.096454 0.320960 0.551796 -0.085342 0.750893 
-2.579224 0.176472 2.938865 0.963881 0.183864 0.156865 
-1.203791 -0.823300 1.658638 -0.583848 -0.540240 -0.575812 
0.089854 -0.591296 -0.132389 0.058861 -0.450617 -0.889129 
0.303009 0.114753 0.159563 0.183851 -0.234888 0.944212 
-2.145685 -0.458222 2.311740 -0.726596 -0.462336 -0.480846 
-2.338640 -0.287546 2.569758 -0.807689 -0.429790 -0.369735 
-0.106748 0.840542 -0.164859 -0.489445 0.391449 -0.763714 
-0.217475 -0.781142 0.103298 -0.067116 -0.051821 0.918435 
-2.524508 0.025337 2.794493 -0.934420 -0.281872 -0.202615 
-1.775679 -0.646433 1.963910 0.494114 0.455156 0.683414 
-2.381747 -0.172442 2.538378 -0.895696 -0.296762 -0.298712 
1.857294 -0.048647 2.294780 -0.942855 0.225154 -0.004763 
-0.771185 -0.291250 0.649432 0.824378 0.046100 0.557637 
0.981934 0.612444 0.828151 -0.771081 0.236576 0.573895 
-2.459538 0.065548 2.485291 0.855106 0.314470 0.363870 
0.276165 -0.579121 0.103967 0.429170 -0.111835 0.872275 
-0.628237 -0.335778 0.413474 0.586749 0.015258 0.712300 
-0.728802 -0.525021 0.541276 -0.801373 -0.058019 -0.574140 
0.253951 0.583034 0.313772 0.286961 -0.189528 0.904860 
1.488029 0.683227 1.411168 -0.707620 -0.258722 0.614397 
-0.332962 -0.535613 -0.071358 -0.681199 -0.191704 -0.681499 
-0.194082 -0.441661 -0.203107 -0.421213 -0.374253 -0.813037 
-0.516414 -0.121375 0.259758 0.478598 -0.089153 0.793204 
-1.778414 -0.187255 1.682833 0.403763 0.274743 0.833430 
-1.263925 0.173856 1.197872 -0.734754 -0.307193 -0.598273 
1.323451 0.564271 1.151497 0.781711 -0.276380 -0.558265 
-2.238670 0.427225 1.921635 -0.747947 0.033361 -0.652880 
1.590476 -0.572818 2.359471 0.833260 -0.533890 -0.074558 
1.832103 0.191072 2.986182 -0.924327 0.170337 -0.277898 
-1.073903 -0.838900 1.565672 0.695735 0.533089 0.476729 
-1.011359 -0.242544 0.945809 0.763138 0.127916 0.612602 
0.134920 -0.519501 0.162996 0.212698 -0.149103 0.964811 
-1.819930 0.676552 1.705138 0.476167 -0.003316 0.818141 
0.395724 0.434667 0.263652 -0.649089 0.052540 0.724705 
-0.612426 -0.199924 0.389999 0.593187 -0.030701 0.714938 
-1.643741 0.169161 1.550461 0.390758 0.006251 0.881198 
-0.186354 0.685381 -0.215141 -0.431379 0.474916 -0.747715 
0.131773 -0.933866 0.024825 0.142865 -0.286645 -0.935602 
1.431755 -0.659347 1.975551 -0.721916 0.534362 0.336323 
-2.079784 0.278400 1.813601 -0.504283 -0.289215 -0.794865 
0.407992 -0.744776 0.189507 0.588219 -0.199383 -0.754744 
1.618397 0.739625 1.527092 0.926549 -0.122729 -0.346171 
1.748838 0.197919 1.819277 0.876115 -0.116991 -0.435322 
-0.467363 -1.081627 0.194432 0.480541 -0.270080 0.821433 
0.450945 -0.684697 0.234865 0.611673 -0.183158 -0.737779 
-0.463215 -0.791590 0.275892 -0.617090 -0.172641 -0.730006 
-0.555404 0.256022 0.170225 -0.859026 -0.074357 -0.504519 
-1.958424 0.557226 1.733278 -0.774951 0.020499 -0.620753 
-0.778694 -0.040364 0.635445 0.778773 -0.049579 0.611525 
0.485778 0.545047 0.001940 0.829085 0.231058 -0.469866 
-1.893541 -0.695109 2.086631 0.644072 0.473759 0.594475 
-0.782241 -0.448897 0.609388 -0.836268 -0.056686 -0.539346 
0.142772 0.683257 -0.231038 0.400621 0.470653 -0.768111 
-1.508918 -0.042465 1.429398 -0.481890 -0.247454 -0.796910 
-0.206707 0.962659 0.314864 -0.577479 0.050310 0.775298 
1.555334 0.532931 1.501829 -0.714940 -0.258408 0.584121 
-0.214870 0.238187 0.238929 -0.201788 -0.253065 0.944315 
-1.920415 0.729586 1.708860 -0.698760 0.048649 -0.709228 
0.234439 0.988264 0.288420 0.741227 0.040676 0.645127 
-1.712793 0.814558 1.593178 0.348033 0.503263 0.742492 
0.358857 -0.098260 0.086312 0.009852 -0.148771 0.966012 
0.353693 -0.470460 -0.084646 0.730118 -0.173216 -0.646535 
0.268550 -0.746763 -0.030138 0.379967 -0.307955 -0.836400 
-2.118923 0.481870 1.841171 -0.759887 0.028758 -0.638582 
-1.273461 0.024992 1.272924 0.684936 0.071361 0.671519 
1.970418 0.307931 2.410276 0.973276 -0.063489 -0.033873 
-1.587874 0.384275 1.448902 -0.772231 -0.163516 -0.596931 
1.745389 -0.082486 1.843853 0.921280 -0.209231 -0.273538 
-2.433640 -0.110099 2.626130 -0.911154 -0.295178 -0.260632 
-0.374605 -0.913117 0.193941 0.291310 0.061819 0.908978 
1.646066 -0.381827 2.615248 -0.870550 0.444306 -0.055975 
0.111448 0.971878 -0.112813 0.512628 0.320115 -0.778440 
1.118669 0.164167 0.991871 -0.695497 -0.071851 0.656546 
-2.141924 -0.508136 2.369191 0.758371 0.426440 0.458916 
-1.872170 -0.426713 1.868577 -0.683578 -0.405993 -0.595453 
-1.480726 -0.935188 1.974621 0.547995 0.518722 0.651599 
-1.155545 -0.296977 1.113357 -0.741020 -0.242381 -0.612572 
-2.281274 -0.235680 2.366662 0.853106 0.293411 0.380895 
0.288388 0.293755 0.218544 0.142084 -0.238748 0.957041 
-0.078733 0.602791 0.378460 -0.170673 -0.246485 0.947067 
0.524848 -0.377497 0.215391 -0.344829 -0.008665 0.863513 
-1.544717 -0.900246 1.993730 -0.562686 -0.528870 -0.629479 
-0.369611 -0.557590 0.000213 -0.709464 -0.167807 -0.660786 
-2.339744 -0.022540 2.220984 -0.659206 -0.500146 -0.546116 
1.447155 -0.718118 2.121413 0.798077 -0.572345 -0.164963 
-1.009160 0.497066 0.794947 -0.728966 0.086293 -0.660635 
-0.193623 -0.366820 -0.230040 -0.465201 -0.304840 -0.817667 
-0.229396 -0.071033 0.171759 -0.368643 -0.165374 0.875059 
0.402973 -0.668247 0.144063 -0.233568 0.034615 0.931711 
1.046520 -0.273074 0.874416 0.802691 -0.155221 -0.562327 
1.935146 0.148775 2.586363 0.962678 -0.187825 0.158624 
0.887437 -0.827023 0.736607 0.799119 -0.096465 -0.574134 
1.323849 -0.481021 1.330250 0.784866 -0.397782 -0.428125 
0.167116 1.130361 0.281403 0.836963 0.272342 -0.275652 
-2.263507 0.498576 1.940721 -0.723190 -0.021614 -0.689363 
-1.329803 -0.984491 1.898650 -0.535844 -0.549069 -0.636399 
1.736260 -0.231664 2.594961 0.840042 -0.514407 -0.017020 
1.886842 0.367606 2.115000 -0.905030 0.041471 0.378227 
0.777403 -0.332066 0.578404 0.782867 -0.045212 -0.617398 
-1.220486 -0.282250 1.199229 -0.726791 -0.272092 -0.621047 
1.570783 -0.076272 1.583765 -0.945153 0.125625 0.251758 
1.311193 -0.647049 1.639154 0.704326 -0.565122 -0.395636 
-1.224606 0.484144 1.104490 -0.756567 -0.303735 -0.570930 
0.358103 -0.810690 0.134393 0.562998 -0.217651 -0.772928 
-0.281635 0.247963 0.208436 -0.160469 -0.249650 0.952470 
0.502733 -0.064130 0.108788 0.817884 -0.094119 -0.562168 
-0.168944 -1.197028 0.153250 0.545812 0.067922 0.602315 
-0.885659 -0.846860 0.957409 0.873634 0.191457 0.429781 
0.353141 0.760158 0.201326 0.825891 0.373233 0.331712 
-0.014314 0.402507 0.319796 -0.020413 -0.311715 0.946534 
0.778904 0.195842 0.549393 0.819520 -0.164762 -0.548158 
1.877338 0.409333 2.308188 -0.914522 0.121634 0.147809 
1.975819 0.634059 2.317016 0.955730 0.189851 -0.208807 
-0.865401 -0.171839 0.707244 -0.814990 -0.131951 -0.554602 
0.602067 0.478920 0.216451 0.825435 0.297983 -0.451232 
1.279632 0.235694 1.112740 0.796650 -0.274703 -0.537178 
1.180046 0.083423 1.055784 -0.716589 -0.013576 0.629901 
-0.235784 0.369563 0.272085 -0.173055 -0.250247 0.947198 
1.607474 -0.483467 2.526722 0.841821 -0.514334 -0.002048 
1.101428 -0.147621 0.965660 -0.768213 0.070359 0.594394 
1.421643 -0.120322 1.314009 -0.819024 0.131487 0.491260 
1.658534 -0.417203 2.450516 -0.870291 0.439293 0.006836 
1.800126 0.127549 3.021512 -0.915911 0.224285 -0.276895 
0.122571 0.222405 -0.372870 0.563012 0.006407 -0.810884 
-0.755815 0.338854 0.548199 -0.704742 0.417726 -0.568460 
0.570420 -0.400611 0.320636 -0.454102 0.003421 0.807008 
-0.202862 1.076233 0.263609 -0.470605 0.749848 -0.093388 
0.004542 -1.186459 0.044324 0.388074 -0.096575 -0.894730 
-0.519502 0.564420 0.069515 -0.871724 0.286466 -0.368665 
0.160232 1.058513 -0.069878 0.559662 0.276670 -0.772298 
0.420956 0.074571 0.155270 -0.423093 -0.185685 0.848008 
-0.073439 -0.031367 0.206001 -0.140532 -0.119575 0.976896 
0.621550 -0.378864 0.372794 0.739929 -0.108662 -0.643976 
-1.928303 0.286459 1.724192 0.551430 -0.019426 0.802206 
1.626540 -0.335388 2.847764 -0.870157 0.453482 -0.143423 
0.208721 0.484899 -0.283741 0.555717 0.191628 -0.790976 
0.025242 0.992354 -0.123936 0.312856 0.318343 -0.882354 
-0.001960 1.301847 -0.078921 0.459386 -0.107452 -0.823998 
0.738220 0.352391 0.491621 0.713010 0.407251 -0.560044 
-1.685167 -0.610491 1.859996 -0.671333 -0.470799 -0.562171 
-2.396055 -0.034058 2.398727 -0.920138 -0.212173 -0.298611 
1.404613 0.786089 1.289900 -0.653250 0.658576 0.273222 
-0.778301 -0.624349 0.622506 0.828821 -0.017726 0.551530 
-1.203788 -0.932831 1.751096 0.606513 0.536972 0.572171 
1.180271 -0.823607 1.714208 -0.779336 0.572855 0.194667 
-2.235692 -0.159835 2.141883 -0.641007 -0.505605 -0.575691 
0.115235 1.253275 0.221391 -0.016745 0.914667 0.327600 
-0.101148 0.135804 0.224680 -0.139762 -0.211268 0.961296 
1.347865 0.684982 1.145677 0.663835 0.196330 -0.699000 
-1.969267 0.744691 1.768189 0.456131 0.412816 0.738290 
1.759755 0.545522 2.010870 -0.846654 0.042129 0.345752 
1.416740 0.334680 1.261107 0.787815 -0.283552 -0.545271 
-1.605798 -0.862251 2.008239 -0.579388 -0.521630 -0.619240 
-2.234691 -0.254641 2.265134 -0.693569 -0.480681 -0.513300 
0.517492 0.464576 0.060091 0.880665 0.146534 -0.427068 
-1.914086 0.436511 1.720773 0.536765 -0.100530 0.787182 
-2.556370 0.270425 2.552354 -0.932078 -0.203140 -0.280747 
-0.141167 -0.983916 0.043690 -0.119403 -0.259480 -0.951473 
1.937049 0.383794 2.427734 -0.942982 0.159170 0.096835 
-0.138000 0.323372 0.296608 -0.197813 -0.279536 0.934089 
1.445970 -0.355742 1.435911 -0.867690 0.314847 0.257070 
-0.080645 -0.820165 0.122030 -0.179202 -0.129875 0.957343 
-0.630618 -0.279388 0.348143 -0.817164 -0.106862 -0.564649 
1.745845 0.370292 1.842514 -0.835034 -0.059433 0.466269 
-1.983520 -0.408822 1.955650 -0.659714 -0.395353 -0.628403 
-1.152261 0.446548 1.017214 -0.776756 -0.294205 -0.549369 
0.610973 -0.024984 0.418506 -0.654211 -0.107498 0.712856 
0.614200 0.568578 0.406824 -0.661980 0.331924 0.649424 
0.088398 -0.208887 -0.309364 0.421067 -0.244945 -0.843462 
-2.197029 0.609071 1.910572 -0.750324 -0.003188 -0.659490 
-0.319028 0.861926 0.163625 -0.889591 0.338682 0.157517 
1.675435 0.340889 1.706834 -0.813461 -0.107490 0.502353 
0.538368 0.290174 0.365226 -0.614334 -0.186183 0.756388 
1.639548 -0.066684 1.558488 0.942217 -0.159471 -0.274065 
-1.261682 -0.120646 1.269621 0.694019 0.152597 0.663921 
-0.608981 -0.114337 0.404606 0.635583 -0.060259 0.697712 
-0.304638 0.318760 0.215227 -0.119223 -0.224734 0.963672 
0.283051 0.206113 0.195908 0.171334 -0.259063 0.949440 
-1.196951 0.388622 1.082402 -0.761625 -0.299669 -0.566522 
1.127059 0.384275 1.005983 -0.666489 -0.189014 0.684199 
-0.838416 -0.769450 0.794652 -0.855327 -0.123901 -0.476558 
-0.465554 -0.444617 0.121209 -0.754910 -0.143794 -0.620938 
-1.009348 -0.339606 0.970120 0.778721 0.157528 0.586269 
0.675692 -0.482793 0.504720 -0.651854 0.001910 0.704851 
-2.302371 0.316863 2.035800 0.722638 0.093113 0.646013 
1.477826 -0.631275 2.021955 -0.735984 0.526999 0.315681 
-0.159992 -0.255358 0.191768 -0.251859 -0.036550 0.956039 
0.394477 0.279095 -0.093641 0.830346 -0.053159 -0.538688 
0.590804 -0.218586 0.263477 0.795623 -0.093761 -0.594961 
-1.666638 -0.028003 1.494913 -0.620182 -0.153969 -0.749116 
-1.870731 0.185724 1.669544 -0.579152 -0.087176 -0.795632 
-1.712380 -0.029449 1.560455 -0.799305 -0.085357 -0.582273 
-1.817013 0.227666 1.646307 0.521004 -0.037231 0.824531 
0.288343 -0.787449 0.100333 0.099347 -0.004085 0.936246 
-1.515878 0.198081 1.425102 -0.519059 -0.265930 -0.767997 
-0.114482 0.057471 -0.353351 -0.517877 -0.065143 -0.833489 
-0.057383 0.948732 -0.140365 -0.421367 0.361142 -0.814447 
-0.532340 0.340942 0.395866 0.665529 -0.059565 0.719130 
-2.516579 0.081345 2.647335 -0.922842 -0.269103 -0.255607 
-0.997725 0.222670 0.842452 -0.807657 -0.238393 -0.529594 
1.086249 -0.901310 1.616338 0.744354 -0.620603 -0.236675 
-0.734719 0.021867 0.504350 -0.834976 -0.122872 -0.534403 
-1.718278 -0.190391 1.619512 -0.766563 -0.243072 -0.566536 
-1.137083 0.635349 1.003112 -0.482103 0.495709 -0.675421 
1.007873 0.509896 0.781263 0.666769 0.213341 -0.703129 
0.547689 0.207545 0.357434 -0.623722 -0.203246 0.741400 
0.390444 -0.569401 0.060002 -0.156049 0.011459 0.968999 
-1.785326 0.687378 1.615855 -0.769477 -0.036741 -0.632390 
-0.384728 0.639723 -0.104535 -0.651270 0.420933 -0.567463 
-0.047702 0.914262 0.372071 -0.179043 -0.007205 0.972047 
1.240800 0.370983 1.127417 -0.698793 -0.163149 0.644269 
-0.183604 0.193091 -0.331143 -0.598206 -0.018654 -0.782018 
0.362674 0.029320 -0.107144 0.739640 -0.155136 -0.604706 
-0.351035 0.306501 -0.190541 -0.752896 -0.009340 -0.640246 
-0.090852 -1.024542 0.085327 -0.079639 -0.108623 0.977490 
0.132470 1.269729 0.122244 0.616666 0.756111 0.032057 
