1.232308 -0.011099 1.232695 0.848697 -0.283937 -0.444822 
0.234022 0.822582 0.308744 0.534141 0.183317 0.816237 
1.421084 -0.403095 2.644444 0.833437 -0.519877 0.082937 
0.286678 -0.241264 -0.209879 0.548393 -0.237177 -0.782590 
-0.988346 0.586222 1.020807 0.791433 0.304625 0.415824 
0.427102 0.584050 0.243084 -0.527462 0.351871 0.652132 
0.793837 -0.345222 0.684483 0.845355 -0.098475 -0.517720 
-0.029018 0.754059 0.342987 -0.069324 0.006467 0.996075 
0.203521 0.630648 0.342746 0.379806 -0.202903 0.878023 
1.389745 -0.366793 2.814673 0.835523 -0.496353 0.170797 
-0.395251 -0.166207 -0.070594 -0.826784 -0.128867 -0.543191 
-0.579188 0.639732 0.386515 0.722818 0.282810 0.597644 
-0.190225 -0.455939 0.162961 -0.293671 -0.134535 0.943340 
0.598492 -0.197676 0.316555 0.828107 -0.093060 -0.549270 
1.434598 0.172774 1.630665 -0.881990 0.033313 0.352373 
0.058351 0.487499 -0.358173 0.469182 0.259239 -0.832431 
1.399546 -0.438227 1.865549 0.871795 -0.486912 0.005308 
-0.155971 0.846001 0.344508 -0.330462 -0.036353 0.929198 
-2.136539 -0.123436 2.518053 0.916885 0.247598 0.265971 
1.170595 0.230570 1.201143 -0.772886 -0.076421 0.553985 
-0.108663 -0.349651 0.195400 -0.176496 -0.013842 0.981019 
-0.635868 0.074987 0.507288 0.763256 -0.113402 0.608197 
0.905135 -0.081948 0.805732 0.841340 -0.152142 -0.505509 
0.614937 -0.975539 0.423425 0.666897 0.128742 -0.697986 
1.751034 0.583715 2.402162 -0.942661 0.151080 0.239529 
1.447124 -0.331796 1.848899 -0.680095 0.421641 0.535259 
0.748460 0.467772 0.594162 0.752665 0.279923 -0.568328 
0.616822 0.066271 0.329468 0.855191 -0.095852 -0.506380 
-0.629834 -0.961182 0.449397 -0.739347 0.115436 -0.603814 
0.138862 0.708744 -0.225765 0.385307 0.522518 -0.742963 
0.334270 -0.753551 0.061870 0.613352 -0.218062 -0.730419 
0.034802 0.512881 0.350321 0.079554 -0.272616 0.953937 
1.479148 -0.432992 2.231581 -0.870029 0.457224 0.120262 
0.147580 0.030806 -0.335298 0.525875 -0.089052 -0.823304 
1.601967 0.340651 1.924606 0.883387 -0.247695 -0.337954 
0.971098 -0.045168 0.938408 -0.793664 0.006789 0.558818 
-2.149825 0.445476 2.123987 -0.783906 -0.024677 -0.613394 
-0.756202 -0.615210 0.722314 0.875497 0.040523 0.459298 
0.174058 0.444994 -0.314008 0.554751 0.174394 -0.792256 
1.364313 -0.287750 3.046515 0.838547 -0.464455 0.284425 
1.750130 0.240155 2.448514 -0.937387 0.202799 0.130568 
-0.139420 1.102392 0.181323 -0.698144 0.325566 0.427520 
-0.445705 -0.329368 0.045117 -0.817504 -0.138675 -0.555696 
-0.744489 0.146967 0.583216 -0.867862 -0.162302 -0.468382 
0.223704 0.390477 -0.298654 0.607232 0.112446 -0.762753 
0.376534 -0.402227 0.029919 0.124556 -0.044157 0.906309 
1.736382 0.132302 2.617765 0.949466 -0.141366 0.271411 
0.102888 -0.070226 0.198937 0.172331 -0.102380 0.973210 
0.226265 1.013482 -0.012548 0.743763 0.312425 -0.517345 
0.238085 0.991669 0.281035 0.758303 0.026835 0.623665 
0.444498 0.532319 0.293966 -0.705100 0.297685 0.632329 
-2.030020 0.250646 2.037697 0.700699 0.119601 0.701114 
1.219194 -0.558139 1.623043 -0.863313 0.478133 -0.038557 
-0.143812 1.255518 0.125182 -0.632455 0.737453 -0.012930 
-1.763558 0.400841 1.822244 0.602793 -0.082256 0.743913 
0.558572 0.395985 0.144090 0.889820 0.075311 -0.423423 
-0.512248 0.613753 0.255069 -0.844163 0.467176 -0.222640 
-1.466541 -0.237537 1.660989 0.864299 0.233813 0.405962 
-0.263277 -0.432450 -0.189471 -0.491335 -0.325978 -0.804430 
0.089811 1.296276 0.018580 0.693357 0.582581 -0.225123 
1.314457 0.238902 1.331939 0.836896 -0.288262 -0.463352 
1.360097 -0.145815 1.456529 -0.905228 0.137535 0.289393 
-0.322232 0.813404 0.024907 -0.817803 0.453232 -0.290551 
0.724919 0.631974 0.583167 -0.812436 0.057415 0.578645 
1.250417 0.280590 1.304686 -0.788750 -0.089675 0.528625 
-0.395074 0.074222 0.136218 0.318762 -0.187908 0.862574 
-0.342845 -0.024551 -0.151000 -0.692892 -0.167670 -0.652038 
-0.154404 -0.200719 -0.289313 -0.476785 -0.210566 -0.831341 
-1.423659 -0.530221 1.783912 -0.593016 -0.489384 -0.633309 
-1.174900 0.419784 1.293256 0.719570 -0.150387 0.633247 
0.528969 0.489816 0.374379 -0.708151 0.347582 0.602953 
-1.104910 -0.095308 1.234040 0.755115 0.126663 0.597158 
-0.709431 0.006163 0.527618 -0.869498 -0.124840 -0.475968 
-1.028011 -0.613190 1.384588 0.788739 0.355346 0.466311 
1.498915 -0.061329 2.993114 -0.861442 0.414096 -0.248985 
0.735464 -0.245076 0.592557 0.826401 -0.067918 -0.553149 
-0.832387 0.296645 0.785046 0.758929 -0.175131 0.615315 
-0.978670 0.081662 1.022801 0.759925 -0.014909 0.601772 
1.719171 0.379663 2.531263 -0.941309 0.154982 -0.008420 
-0.241445 -1.337701 0.191755 -0.901132 0.039890 0.141295 
-1.535004 -0.231888 1.726944 0.326484 0.293611 0.872513 
-1.305477 -0.381132 1.564306 0.801655 0.343703 0.467163 
1.087753 -0.754818 1.783137 -0.803882 0.558140 0.082126 
-0.420378 0.207142 0.179123 0.539464 -0.223782 0.789315 
-2.346533 0.320881 2.632346 -0.949906 -0.195243 -0.225218 
1.435667 0.773274 1.493984 0.935369 -0.266614 -0.149346 
-0.244182 1.063163 0.052203 -0.876431 0.390756 -0.250357 
-0.573859 0.374146 0.181557 -0.892226 0.053420 -0.423304 
-0.979319 -0.148564 1.035821 0.791222 0.101878 0.566334 
0.330351 0.680690 -0.159879 0.558443 0.493122 -0.635028 
-2.166533 0.524688 2.144900 -0.790075 -0.007961 -0.611388 
-0.333939 -0.006980 0.119731 -0.188450 -0.188817 0.930028 
-1.155639 -0.704816 1.704528 0.754430 0.487206 0.412860 
0.975628 0.104334 0.947516 -0.762414 -0.063106 0.591459 
-1.718190 -0.363492 1.953701 0.549402 0.374231 0.687123 
-0.918189 -0.094890 0.884381 -0.836680 -0.193222 -0.496055 
0.532507 -0.157074 0.290395 -0.522039 -0.069269 0.767573 
-2.115216 -0.320774 2.781933 0.884784 0.379391 0.246082 
0.387244 0.669883 0.201352 0.451754 0.295524 0.736457 
-0.684021 0.338489 0.394590 -0.895613 0.027098 -0.428372 
-0.302943 0.901996 0.134870 -0.911693 0.292836 0.057892 
-1.852838 0.069033 1.885706 -0.640034 -0.192882 -0.722716 
-0.516835 0.242961 0.125340 -0.871150 -0.110726 -0.476446 
-0.250559 0.809994 -0.117567 -0.578918 0.492584 -0.639628 
0.133540 0.502460 0.342446 0.238738 -0.256792 0.933167 
1.615091 0.021768 2.801782 0.910263 -0.226752 0.311728 
0.146527 0.780841 0.334538 0.220280 0.041025 0.957673 
-1.092036 0.638024 1.193419 0.817722 0.094417 0.553340 
0.079225 -1.000456 0.077553 0.047870 -0.110528 0.960345 
-1.563593 -0.348165 1.768240 -0.767537 -0.405919 -0.486228 
-1.611042 0.698096 1.748928 0.515888 -0.024025 0.796091 
-0.669882 -0.047574 0.454582 -0.870546 -0.102652 -0.480211 
1.301343 0.539785 1.375163 -0.774766 -0.224971 0.543166 
1.610607 -0.120896 2.550669 -0.917807 0.271043 -0.180372 
-2.363807 0.463483 2.597324 0.807934 0.412435 0.347709 
-2.122967 -0.071171 2.360685 -0.705890 -0.504076 -0.481700 
1.547257 0.418014 1.828534 -0.847272 -0.126565 0.422011 
1.034468 0.711623 0.996410 0.650608 0.294514 -0.600618 
-1.842885 -0.558313 2.270328 0.748154 0.431971 0.474322 
-0.172776 0.668780 -0.242596 -0.436713 0.425303 -0.777777 
-1.430853 0.374310 1.582634 0.614228 -0.033054 0.725555 
0.653570 0.248647 0.366864 0.872753 -0.096554 -0.474215 
-0.518695 0.323936 0.094684 -0.884547 -0.003199 -0.446746 
0.965588 -0.795904 1.233379 0.821991 -0.456269 -0.235953 
-0.037897 -0.405488 -0.285587 -0.328708 -0.412453 -0.841872 
0.169077 -0.803486 0.112362 -0.106723 -0.057306 0.929480 
-0.095801 -0.077022 -0.341922 -0.466315 -0.150746 -0.845617 
0.529365 0.425311 0.412039 -0.734297 0.300175 0.597586 
1.769562 0.489575 2.646628 -0.949681 0.096588 -0.033030 
-2.327703 0.226843 2.907693 0.972376 0.133299 0.104896 
0.558301 -0.026518 0.225329 0.846316 -0.082772 -0.523317 
0.110006 1.122106 0.331849 -0.133129 0.253723 0.900129 
1.184035 -0.079207 1.212395 -0.809305 0.098927 0.506704 
0.128662 -1.124419 0.056476 0.569476 -0.214762 -0.744589 
-1.486418 0.243102 1.619950 0.445704 0.003946 0.860241 
-0.621211 0.621976 0.444964 -0.817937 0.277377 -0.410120 
1.647720 -0.055193 2.575867 0.832577 -0.543483 -0.036386 
1.509533 -0.355042 2.154850 -0.865183 0.421932 0.182925 
-1.482016 0.628301 1.579940 -0.706894 -0.340706 -0.589004 
-1.216265 -0.581367 1.642570 -0.558922 -0.497414 -0.614446 
-0.572191 0.299178 0.457586 0.715775 -0.109362 0.671584 
1.658502 0.494198 2.310895 -0.906597 0.101887 0.150697 
0.696187 -0.237719 0.507554 0.830039 -0.076452 -0.550830 
-0.138005 -0.653721 -0.093291 -0.102385 -0.420527 -0.894611 
-0.522828 0.344318 0.407021 0.717640 -0.041983 0.667388 
-0.848744 -0.667216 0.998320 -0.886324 -0.238574 -0.375928 
0.143731 -0.706369 0.125123 0.067441 -0.112703 0.942702 
0.769306 0.422946 0.662763 -0.772994 0.355324 0.511860 
1.015199 -0.498837 1.012088 -0.862421 0.169520 0.461560 
0.040724 0.580959 -0.327115 0.397455 0.352391 -0.833655 
-0.103027 0.754470 0.339420 -0.118936 0.025723 0.991384 
1.003507 -0.379285 0.985454 -0.851766 0.145397 0.483597 
1.524106 0.172325 3.176483 0.880136 -0.273122 0.369182 
0.947673 -0.741003 0.944754 0.875265 -0.213140 -0.429436 
1.532556 -0.251753 2.560012 -0.891423 0.353812 -0.137579 
0.101264 -0.640203 0.137111 0.228492 -0.161496 0.954695 
-0.951708 0.440020 0.868654 -0.859044 -0.271686 -0.431821 
1.198193 -0.480891 1.293487 0.849283 -0.331636 -0.374440 
-0.464624 -0.340398 0.137292 0.316662 -0.023286 0.874650 
0.320074 -1.157254 0.171447 0.020831 -0.012491 0.777901 
-1.095972 -0.055698 1.170213 -0.797733 -0.285764 -0.519982 
0.294220 -0.637864 -0.065760 0.559575 -0.264500 -0.766471 
0.397071 -0.776282 0.218385 0.594021 -0.208130 -0.743482 
-0.468492 0.450176 -0.026843 -0.852019 0.121059 -0.460345 
-2.292648 0.051435 3.052400 0.957023 0.261610 0.093705 
0.158896 0.871813 -0.131216 0.575234 0.373232 -0.708742 
-0.103566 1.254832 0.209167 -0.079137 0.918381 0.364567 
-0.555078 0.094493 0.214985 -0.871365 -0.095337 -0.480553 
-1.969416 0.483710 1.971857 -0.815677 0.029802 -0.565294 
0.484375 0.027795 0.249024 -0.542288 -0.145804 0.771493 
0.293061 0.911233 0.051788 0.878695 0.318623 -0.272595 
1.416009 0.208009 1.545986 -0.906119 -0.066946 0.237816 
0.509402 0.586069 0.305656 -0.672331 0.400038 0.616784 
-0.523080 -0.309920 0.194312 -0.830488 -0.127141 -0.538024 
0.877982 0.415465 0.705797 0.791408 0.130918 -0.570002 
-1.008459 -0.381574 1.132528 0.815286 0.206258 0.517397 
1.141517 0.546924 1.090698 0.832682 -0.272282 -0.481456 
-0.792998 -0.862200 0.857449 -0.892279 -0.130839 -0.393814 
-0.405539 -0.607226 0.114926 -0.699768 -0.177371 -0.656825 
-0.007221 0.918886 -0.178941 -0.348765 0.426029 -0.831035 
-1.031951 -0.629800 1.473058 0.758839 0.410241 0.474712 
-0.382932 -0.840595 0.218785 0.343020 0.065327 0.874929 
0.278272 0.763573 -0.135453 0.578789 0.529579 -0.609003 
-0.190964 -0.281110 -0.255719 -0.482408 -0.250179 -0.822307 
1.303422 -0.284675 1.364901 -0.869540 0.230553 0.408784 
-1.505474 -0.314772 1.734897 0.244942 0.342583 0.890918 
-0.494206 0.154914 0.300585 0.647693 -0.178784 0.706593 
-2.313815 0.247771 2.646731 0.952383 0.122967 0.202225 
0.412659 -0.127628 -0.046262 0.823681 -0.125328 -0.547304 
-0.295419 -0.849775 0.031805 -0.571119 -0.229414 -0.770767 
0.022617 0.812406 0.357998 0.098512 -0.102669 0.986078 
-0.810040 -0.093466 0.762046 0.822560 0.004256 0.544381 
-0.020778 -1.163905 0.038068 -0.387204 -0.128306 -0.888199 
0.558239 0.541445 0.239405 0.844515 0.377068 -0.328489 
-0.341268 0.754258 -0.024433 -0.743677 0.513683 -0.365996 
-1.330654 -0.317245 1.527591 -0.601859 -0.350698 -0.677744 
-2.349981 0.391371 2.726440 0.921251 0.252832 0.243605 
0.421086 -0.685948 0.207659 0.637302 -0.191392 -0.709192 
1.637705 0.284066 2.039363 -0.904957 0.030922 0.360733 
-0.757608 -0.451025 0.688400 -0.877534 -0.097683 -0.455384 
1.466165 0.288216 1.659672 -0.800028 -0.071717 0.515872 
-1.564707 0.617394 1.668833 0.523404 -0.281126 0.756941 
1.416377 -0.318298 1.764441 -0.643337 0.401355 0.620943 
1.025485 0.180738 0.951942 0.844878 -0.242487 -0.470224 
1.039401 0.454338 1.036905 -0.714358 -0.225399 0.637027 
-0.367273 -0.347522 0.046262 -0.140373 -0.071286 0.908227 
-0.474127 -0.734153 0.326820 0.481778 0.048033 0.775973 
-2.147932 0.045340 2.286213 0.937005 0.139565 0.294104 
0.851706 -0.526590 0.787493 0.858752 -0.146199 -0.479619 
-2.293656 0.174920 2.666841 0.936783 0.192520 0.229245 
1.622243 0.650510 1.974391 0.990289 -0.038418 -0.126511 
1.556575 0.173309 3.102369 -0.886575 0.196336 -0.370509 
1.404278 0.480730 1.446493 0.813757 -0.278806 -0.504743 
-2.028510 -0.074445 2.178607 0.850522 0.214591 0.412959 
0.541231 -0.084944 0.322829 -0.577085 -0.092127 0.738814 
0.455602 -0.545080 0.200274 -0.340065 0.024836 0.869339 
0.787067 0.644530 0.666644 -0.811406 0.078272 0.575525 
-0.810018 -0.853477 0.946598 0.902234 0.163163 0.367052 
-0.695571 0.041331 0.592446 0.805403 -0.086755 0.570892 
-0.316325 0.732420 -0.108384 -0.635076 0.546660 -0.509057 
-2.350316 0.294112 2.880979 -0.964298 -0.192551 -0.136877 
1.608736 0.530073 2.141994 -0.881451 0.050193 0.251902 
0.169071 0.796761 -0.162525 0.506498 0.444474 -0.725533 
-2.342791 0.488415 2.529628 0.845527 0.314856 0.364340 
0.279080 0.834220 -0.035191 0.718677 0.444248 -0.461129 
1.520336 -0.205056 1.904647 -0.799034 0.338103 0.414929 
-0.489609 0.009425 0.095429 -0.857948 -0.099831 -0.500882 
-2.067291 -0.009391 2.169816 -0.687785 -0.447404 -0.559253 
0.902720 -0.621553 0.868103 0.866274 -0.179097 -0.455805 
-1.954408 -0.377638 2.338018 0.814092 0.350865 0.398474 
-0.408687 0.478416 0.301975 0.740491 0.216997 0.631135 
-1.255607 0.753424 1.349659 0.659779 0.663524 0.171764 
-0.324588 0.064483 0.139886 -0.231563 -0.216451 0.923466 
-2.146443 -0.081890 2.460485 -0.738093 -0.487684 -0.432574 
0.099821 1.296438 0.122025 0.466764 0.805901 0.305686 
-0.914378 -0.857639 1.601213 -0.713382 -0.564732 -0.411819 
0.154916 -0.483684 0.164311 0.219218 -0.144269 0.963116 
0.232654 0.853659 -0.107052 0.607067 0.431469 -0.660529 
-0.934367 0.542462 0.972605 0.829793 0.104013 0.538494 
0.823951 -0.189312 0.703998 0.838682 -0.101057 -0.527147 
-0.401029 0.401536 0.242208 0.672515 -0.015164 0.697856 
-0.026663 -0.265942 -0.323511 -0.359409 -0.318532 -0.849197 
-0.017219 -0.480307 -0.225578 -0.168377 -0.597145 -0.765446 
0.789858 0.237711 0.707550 -0.749472 -0.168693 0.630990 
0.960150 0.229755 0.930280 -0.735574 -0.128721 0.622744 
-0.007557 0.343114 0.293501 0.001573 -0.325387 0.943772 
-0.250064 -0.838267 0.113187 -0.122983 0.044399 0.935104 
0.316433 -0.019918 -0.203583 0.642516 -0.150034 -0.714932 
0.587250 -0.900216 0.434403 0.691706 -0.069902 -0.679171 
0.269042 0.281620 0.217560 0.174154 -0.245172 0.950441 
1.260653 -0.593590 1.868929 0.830359 -0.537107 -0.052904 
-0.113081 -0.152790 0.196476 -0.186309 -0.067382 0.974018 
0.166811 1.189191 0.373035 -0.416072 0.237051 0.843162 
0.771131 -0.859439 0.641286 0.806432 0.007670 -0.582083 
-1.302404 0.519173 1.398340 -0.756937 -0.330346 -0.560891 
0.351298 -0.000692 -0.139327 0.707445 -0.162708 -0.634849 
1.671253 0.281184 2.120047 -0.918699 0.068100 0.338446 
1.677551 0.569480 2.103231 0.988337 -0.025533 -0.134590 
-2.254042 -0.026942 2.860008 0.917883 0.326891 0.175392 
-1.699730 -0.636696 2.138634 -0.715661 -0.486434 -0.497378 
1.280337 -0.166228 1.302386 0.852291 -0.288949 -0.435031 
1.773314 0.574457 2.615806 -0.910354 0.312115 0.120216 
0.706579 -0.143904 0.519733 0.841197 -0.069777 -0.535152 
1.116734 0.299925 1.067403 0.842217 -0.272391 -0.464120 
-1.515609 0.346116 1.603351 -0.778894 -0.235551 -0.539755 
-1.118389 -0.473760 1.402284 0.775817 0.321834 0.521570 
0.973503 0.049383 0.889587 0.843420 -0.200939 -0.486019 
1.196381 -0.606686 1.669283 0.734671 -0.566842 -0.330521 
-0.457040 0.544673 -0.046561 -0.792876 0.226573 -0.505710 
0.643125 0.320282 0.554026 -0.754077 0.078127 0.618584 
0.887489 0.516292 0.771660 0.674988 0.355413 -0.636289 
1.394257 0.707539 1.419600 0.817569 -0.290602 -0.496808 
0.795996 0.505997 0.657138 0.729454 0.282051 -0.597409 
1.647359 -0.099237 2.349895 0.865959 -0.467544 -0.115734 
-2.177339 -0.053499 2.557024 0.816993 0.425790 0.355650 
-1.758265 -0.268339 1.901224 -0.727951 -0.351856 -0.577381 
-0.175583 -0.380906 0.181580 -0.272571 -0.074891 0.954408 
1.426757 -0.461486 2.514948 0.831852 -0.536572 0.023226 
0.438038 0.303767 -0.045487 0.876286 -0.029251 -0.464432 
0.746026 -0.804594 0.599640 0.796473 0.022312 -0.600127 
-1.673048 0.331363 1.730334 -0.658239 -0.177559 -0.698620 
-2.059790 0.206018 2.094841 0.754943 0.125915 0.608703 
-1.249920 -0.215713 1.446424 0.765401 0.221838 0.578103 
-0.239924 -0.588012 -0.091651 0.130738 -0.426733 -0.883164 
-2.110325 0.655700 2.122611 0.679170 0.241926 0.669838 
-0.333031 -0.582511 0.049489 -0.057302 -0.038361 0.946987 
-0.036892 -0.861560 -0.017103 -0.254343 -0.278076 -0.912582 
1.061634 -0.265159 1.019196 0.847982 -0.195539 -0.475884 
-0.914234 -0.770401 1.291512 0.828692 0.352037 0.391910 
-0.292286 0.806170 -0.042854 -0.703686 0.476766 -0.454325 
-0.220210 1.064810 0.242105 -0.264906 0.880941 0.118042 
0.436874 0.209562 -0.027304 0.866803 -0.082794 -0.490891 
1.737078 0.337173 2.601908 -0.952087 0.170816 -0.063742 
-0.456283 0.631403 -0.014505 -0.758799 0.459082 -0.376276 
-0.313972 -0.500611 0.072391 -0.317344 -0.093768 0.885992 
1.453924 0.083380 3.254154 0.859438 -0.315046 0.393950 
1.673390 0.382799 2.997603 -0.914807 0.016642 -0.375013 
0.604818 -0.171968 0.414591 -0.637713 -0.045677 0.691895 
1.699651 0.466853 2.413712 -0.926924 0.131842 0.105938 
-0.407680 0.005151 0.118506 0.381289 -0.160472 0.859891 
-1.591756 -0.411405 1.866522 0.355796 0.393196 0.791190 
1.638847 0.501985 2.001156 0.985383 -0.000920 -0.101017 
-0.216617 -0.382329 -0.221377 -0.473699 -0.309872 -0.814194 
0.209664 0.213334 -0.324679 0.614627 -0.018498 -0.771230 
-0.429532 0.141889 -0.035874 -0.862759 -0.094245 -0.494440 
-0.297784 -0.935793 0.085672 -0.547751 -0.230937 -0.790880 
-0.333367 -0.394466 0.105206 -0.592399 -0.102484 0.756379 
-0.253355 0.063137 -0.275192 -0.608159 -0.093352 -0.764628 
-0.325675 0.307609 -0.257034 -0.704890 0.004937 -0.704844 
-1.849645 0.404657 1.875950 -0.591605 -0.350677 -0.705342 
1.079258 -0.676466 1.431875 0.783486 -0.538259 -0.230810 
1.545650 0.216386 1.787642 0.934479 -0.121678 -0.256107 
0.055143 1.073867 0.358805 0.016738 0.190497 0.941589 
-0.953029 -0.722120 1.326118 -0.806133 -0.381517 -0.411233 
0.206220 -0.592660 -0.102337 0.016615 -0.448076 -0.865828 
0.814259 0.472124 0.722538 -0.791842 0.342105 0.491182 
0.896431 -0.510451 0.842552 0.858783 -0.160997 -0.473705 
1.623920 -0.157722 2.180674 0.897564 -0.390071 -0.162263 
1.681007 0.492911 2.114023 0.987689 0.049674 -0.078516 
-0.566043 -0.929191 0.414261 0.605701 -0.015962 0.681986 
0.531757 -0.301335 0.196794 0.810693 -0.118904 -0.569643 
-1.455807 -0.310943 1.684191 0.859577 0.303751 0.379184 
0.936947 -0.882832 1.553627 0.768164 -0.623904 -0.134184 
-0.040385 0.155604 0.230906 -0.080514 -0.212254 0.966995 
-1.836729 -0.448746 2.155239 0.733655 0.392657 0.526256 
-1.910018 -0.123541 2.014544 0.756272 0.266955 0.560631 
0.545077 0.317358 0.141748 0.882057 -0.006137 -0.454314 
-2.138913 0.149952 2.237208 0.796235 0.267911 0.468109 
1.292481 -0.485554 1.690604 -0.879568 0.449231 -0.073239 
-0.170553 1.230812 0.277002 -0.906950 -0.327237 -0.181443 
-1.931136 0.535040 1.939947 -0.806575 -0.004137 -0.581906 
-0.879119 0.435533 0.855090 0.730235 -0.217614 0.645125 
1.222628 -0.524293 1.547873 -0.863894 0.443146 0.039246 
0.339465 0.760212 0.221575 0.781898 0.342322 0.441191 
-1.939664 -0.434989 2.379495 -0.742242 -0.480431 -0.443966 
0.121500 1.035666 -0.085989 0.487629 0.303206 -0.795053 
0.164526 1.237425 0.147558 0.624102 0.757091 -0.075623 
0.334707 0.696638 0.268930 0.663204 0.294154 0.631004 
0.180139 -0.091789 0.184750 0.289654 -0.121443 0.925496 
1.261885 -0.494863 1.600989 -0.874714 0.441142 -0.019543 
-1.017519 0.409477 1.059643 0.722427 -0.179200 0.641545 
1.272786 -0.379985 1.317705 0.856944 -0.296065 -0.415347 
0.128415 0.260726 -0.381295 0.572597 0.017879 -0.807451 
0.141872 1.176758 0.230848 0.977934 -0.163196 0.008526 
-2.125381 0.380606 2.109695 -0.817874 0.044111 -0.554802 
-0.824694 0.013575 0.717030 -0.864430 -0.159485 -0.466650 
0.813088 0.168346 0.737935 -0.751978 -0.142581 0.627742 
0.736291 0.243535 0.636111 -0.762812 -0.171174 0.621488 
-2.061184 -0.254282 2.487220 0.871282 0.308662 0.315369 
-0.569773 -0.021128 0.397692 0.690165 -0.091522 0.653958 
-0.070644 0.997072 0.369573 -0.187531 0.032620 0.974238 
1.457252 -0.210862 1.706423 0.936274 -0.281332 -0.022076 
-0.619462 -0.685662 0.487173 0.693573 0.000129 0.622196 
1.750803 0.315331 2.290748 -0.956417 0.053523 0.276237 
0.127366 -0.405138 0.193507 0.176031 -0.123106 0.976353 
-2.019830 0.384750 2.014732 -0.839806 0.105516 -0.522564 
1.454450 0.052671 1.551960 0.774220 -0.219258 -0.584296 
1.697027 0.109741 2.268353 -0.939245 0.200696 0.170925 
-0.074360 0.839245 0.357903 -0.189036 -0.111230 0.970080 
0.709179 0.561517 0.552781 0.784294 0.187903 -0.554954 
1.147669 -0.678332 1.732197 0.734090 -0.584766 -0.303062 
0.537975 -0.741518 0.395443 -0.533623 0.021617 0.758022 
-0.370655 -0.270614 -0.101013 -0.792131 -0.153055 -0.577119 
0.617734 0.479552 0.398503 0.792937 0.446297 -0.369873 
-0.071914 -1.087727 0.065556 -0.028577 -0.054724 0.901889 
-0.390236 0.501251 -0.149967 -0.712486 0.170619 -0.636758 
-1.775913 -0.186292 1.862753 -0.733585 -0.304531 -0.596451 
0.094442 0.355637 0.301200 0.138933 -0.301120 0.933736 
-0.239838 -0.011293 0.166391 -0.314373 -0.178168 0.900310 
1.580836 -0.221637 2.137711 -0.907172 0.354924 0.166952 
1.522367 0.694606 1.723670 0.990791 -0.019447 -0.084716 
-0.097359 0.681116 0.356636 -0.098558 0.124549 0.981653 
-1.251312 -0.615497 1.719338 0.781676 0.456302 0.396320 
-1.270497 0.288308 1.386873 -0.759026 -0.325517 -0.560843 
1.473013 -0.400165 2.078131 0.875688 -0.455668 -0.078333 
1.603593 0.156202 1.927622 0.919723 -0.080936 -0.361021 
1.529453 0.069274 1.745469 0.967241 -0.093459 -0.124603 
-2.221768 0.027753 2.611799 0.842578 0.390347 0.309889 
1.387287 -0.412471 2.735615 0.834556 -0.506155 0.136665 
1.316727 -0.369379 1.495637 -0.878881 0.329707 0.197481 
0.438322 0.101717 -0.015703 0.853656 -0.094418 -0.508464 
-0.164165 0.541868 -0.286462 -0.491088 0.259954 -0.802114 
-1.450911 -0.382613 1.694658 -0.418587 -0.452845 -0.779623 
-0.622351 0.547337 0.456164 0.735893 0.308723 0.573409 
-0.264950 -0.394385 0.147139 -0.493225 -0.110511 0.838994 
-0.519934 -0.207268 0.266537 0.493732 -0.047478 0.767660 
-1.057795 -0.498939 1.241472 -0.814170 -0.287809 -0.480770 
-0.115504 1.008531 -0.098766 -0.494189 0.316241 -0.785939 
0.351494 0.101354 -0.162726 0.727373 -0.114178 -0.634236 
-0.476325 0.362599 0.005492 -0.885437 0.032510 -0.435274 
0.635358 0.129288 0.359272 0.858208 -0.117571 -0.496246 
-0.045764 1.003715 -0.118922 -0.350396 0.336411 -0.854832 
0.359051 -0.113791 0.074870 0.007633 -0.134383 0.968129 
-0.338261 0.401213 -0.228661 -0.680517 0.065178 -0.716137 
-1.090491 -0.770909 1.699234 0.732873 0.509338 0.427389 
-2.221231 0.050187 2.532829 -0.955588 -0.184890 -0.199312 
0.446470 -0.053715 0.012663 0.835132 -0.109866 -0.533482 
-0.148948 1.140865 0.361338 0.242345 0.178638 0.875314 
-0.954079 0.146009 0.911336 -0.841938 -0.238853 -0.470523 
-0.365054 -0.421982 0.041555 -0.187796 -0.056505 0.889339 
0.566406 0.642956 0.362364 -0.702920 0.306392 0.612182 
0.402467 -0.962935 0.242436 0.572946 -0.184439 -0.766679 
1.498578 -0.215547 2.740901 -0.884238 0.360985 -0.206631 
0.978082 -0.283718 0.943811 -0.842314 0.119250 0.504667 
-0.476865 0.100744 0.060951 -0.865348 -0.092416 -0.490877 
1.125670 -0.565683 1.212641 -0.863202 0.277604 0.387909 
0.857596 -0.787827 0.808327 0.854934 -0.135456 -0.479535 
1.743656 0.449057 2.266329 0.986564 0.035138 -0.107574 
0.747240 -0.091919 0.647732 -0.801546 -0.045461 0.586580 
0.454405 0.431198 -0.044467 0.840166 0.101063 -0.483544 
-0.148318 -1.314142 0.175141 0.838350 -0.238205 0.227541 
-1.884251 0.600641 1.982281 0.639590 0.062298 0.691496 
-0.197840 0.383929 0.291452 -0.217446 -0.262327 0.936000 
1.340540 -0.024444 1.424179 -0.866122 0.081633 0.382281 
-0.377271 0.149110 0.154725 0.222407 -0.219066 0.872031 
-0.505422 0.231573 0.322117 0.658662 -0.207577 0.705310 
0.156332 -1.201333 0.183739 -0.275058 0.272297 0.914214 
0.792606 -0.248577 0.667716 0.838942 -0.084349 -0.532499 
0.928376 0.540139 0.924686 -0.817542 0.199209 0.506625 
0.259960 -0.077442 -0.250618 0.572953 -0.158564 -0.777968 
1.376237 -0.512382 1.999947 0.853571 -0.514853 -0.015432 
1.447173 0.702667 1.490163 0.988560 -0.109393 -0.097841 
0.001859 1.147267 -0.101931 0.405174 0.203514 -0.869138 
0.645285 -0.254642 0.411128 0.824391 -0.089287 -0.556201 
0.151926 0.106776 -0.343984 0.548450 -0.055701 -0.812611 
-0.210005 1.106307 0.175130 -0.344738 0.530823 0.574076 
-1.088928 0.589953 1.016973 -0.784485 0.096243 -0.602255 
-0.006863 -0.311672 0.202441 -0.113153 0.042926 0.991883 
-1.012189 -0.675954 1.529748 0.741406 0.456484 0.466767 
1.604957 -0.067843 2.670008 -0.918783 0.257667 -0.236116 
0.358741 0.354822 -0.186461 0.734887 0.020724 -0.651332 
0.193593 -0.330253 0.172780 0.338036 -0.023210 0.912862 
-0.782701 -0.596689 0.861972 0.890055 0.141758 0.407418 
-0.278345 -1.007424 0.088270 -0.514444 -0.242167 -0.819809 
1.616017 -0.085703 2.047355 -0.920578 0.268458 0.254991 
-2.294512 0.221705 2.572356 0.926558 0.184939 0.280520 
-0.084368 1.136856 0.329273 0.212671 0.355573 0.881425 
-0.056275 0.211827 -0.417897 -0.512740 0.008830 -0.849385 
0.747121 -0.729584 0.601293 0.802043 0.011899 -0.592719 
-0.191002 -0.115018 -0.286174 -0.524530 -0.160656 -0.813985 
0.629164 0.079268 0.487641 -0.735469 -0.129154 0.643454 
-2.066499 -0.116790 2.278916 0.887768 0.216186 0.340848 
-0.878420 0.134399 0.789026 -0.858798 -0.200056 -0.459679 
-1.290362 0.646586 1.358940 -0.764747 -0.328596 -0.549285 
-1.673753 0.152243 1.744859 0.576319 0.020689 0.793508 
-0.147982 -0.767769 0.116858 0.008736 -0.086017 0.942989 
-0.026942 -0.399065 0.202330 -0.082101 -0.155177 0.983487 
0.388077 -0.560822 0.044729 0.705378 -0.181824 -0.657425 
-1.205838 -0.372309 1.458772 0.763597 0.316223 0.552487 
0.379633 -0.184813 -0.098777 0.795853 -0.147349 -0.571669 
-2.273376 -0.010404 2.952521 0.947249 0.284867 0.123378 
-2.317250 0.159553 2.932588 -0.956545 -0.240508 -0.120910 
1.655763 0.245254 2.954181 0.917239 -0.243708 0.285870 
-2.105438 0.560576 2.149097 0.718593 0.128653 0.648725 
-1.357888 -0.514324 1.734312 0.812982 0.421531 0.376856 
0.823668 -0.327418 0.752685 -0.836986 0.060335 0.530703 
1.388299 -0.220185 3.077563 0.842758 -0.438966 0.305315 
1.566078 -0.029706 2.845518 -0.865206 0.445863 -0.160384 
-2.201175 0.167449 2.303426 -0.936194 -0.102609 -0.300252 
0.498742 0.561460 0.015184 0.845847 0.248059 -0.429125 
0.605444 -0.125923 0.324046 0.837410 -0.083621 -0.537174 
-0.968548 -0.191178 0.979519 -0.819600 -0.207015 -0.516827 
-0.765287 -0.019036 0.689224 0.820819 -0.048714 0.550187 
-0.237740 1.243355 0.422349 0.656021 0.506626 0.546535 
0.376081 -0.724301 0.137529 -0.248814 0.048353 0.929372 
0.302911 0.550346 0.270443 0.261228 -0.179451 0.905092 
0.212164 0.288174 -0.328584 0.629492 0.022033 -0.761975 
-2.107296 -0.054003 2.282608 -0.682676 -0.512172 -0.519687 
0.270484 0.083051 -0.268151 0.621541 -0.088356 -0.754691 
-1.924441 -0.380604 2.243066 -0.700355 -0.494581 -0.511963 
-1.017818 0.198553 1.079370 0.734972 -0.057941 0.626868 
1.376735 0.003657 1.482959 -0.898501 0.053719 0.287534 
-0.170712 1.092998 -0.054518 -0.594600 0.324417 -0.709523 
1.280913 0.334246 1.344916 -0.791147 -0.114018 0.523605 
-1.851552 0.257458 1.888232 0.641574 0.029471 0.743182 
-1.613105 -0.102721 1.737574 0.488330 0.223143 0.819771 
1.375734 0.763137 1.373742 0.665375 0.272731 -0.627742 
-0.389262 -0.945457 0.221858 0.349977 0.048685 0.868417 
0.456798 0.037757 0.025029 0.847094 -0.097518 -0.517986 
-0.860315 -0.434214 0.902039 -0.860219 -0.190198 -0.449305 
-2.067217 0.129221 2.115176 -0.613713 -0.414273 -0.652782 
1.073559 -0.497599 1.068626 0.862279 -0.226820 -0.442595 
-0.065359 0.454055 0.332285 -0.115695 -0.281141 0.945144 
-1.896582 -0.542145 2.423354 0.771421 0.443511 0.422840 
0.062484 -1.157669 0.063078 0.104244 -0.226306 0.710738 
1.517754 -0.108688 2.868111 -0.859668 0.459573 -0.172256 
0.888693 -0.744121 0.876242 -0.875537 0.154778 0.448678 
-0.309066 -0.677486 0.074186 -0.086464 -0.031703 0.936981 
1.000204 -0.745422 1.283306 -0.827021 0.449355 0.232917 
-0.879192 -0.572439 0.999263 -0.868869 -0.229693 -0.412425 
-0.956567 0.252865 0.978521 0.741616 -0.110662 0.624234 
-0.157963 0.643893 0.360329 -0.176061 0.219294 0.946288 
-1.261927 0.359431 1.428604 0.721669 -0.096280 0.624343 
0.502243 -0.238907 0.217630 -0.424680 -0.048523 0.822629 
-0.801322 -0.786787 0.916417 0.898202 0.151820 0.380619 
1.593027 0.074573 1.909623 0.935420 -0.070741 -0.316249 
0.834799 -0.456518 0.779554 -0.848405 0.085747 0.507227 
1.343271 -0.304159 1.436029 0.820029 -0.310543 -0.461415 
0.924472 -0.251641 0.838647 0.842733 -0.136745 -0.506404 
0.123038 1.033981 0.360221 0.185552 -0.043789 0.978955 
-1.298750 0.594739 1.461520 0.708027 -0.224141 0.637616 
-1.388100 -0.108548 1.507454 -0.552257 -0.251709 -0.748326 
1.308471 -0.363044 1.409327 0.828972 -0.342978 -0.423515 
-0.183223 -1.052010 0.112637 0.339228 0.100394 0.926795 
0.341876 0.605617 -0.187067 0.603593 0.310701 -0.710810 
0.156929 -1.047770 0.069996 0.344302 -0.265736 -0.855158 
-0.482163 0.058632 0.257501 0.571639 -0.150897 0.747476 
0.435878 -0.821023 0.286363 -0.397580 0.052387 0.842219 
0.572188 0.023972 0.403211 -0.690686 -0.122114 0.675804 
0.668502 0.137720 0.421860 0.857815 -0.129855 -0.493873 
-0.369085 -0.720516 0.110240 0.235878 0.035766 0.938547 
-0.671537 0.055217 0.448334 -0.869753 -0.122839 -0.475994 
1.407802 0.472605 1.553872 -0.792566 -0.101895 0.467764 
1.202291 -0.501205 1.403947 0.814551 -0.421004 -0.335222 
-0.505727 0.610240 0.173178 -0.862802 0.404126 -0.250602 
-0.469675 -0.193175 0.179084 0.408094 -0.070896 0.829583 
0.636639 -0.086998 0.380806 0.844379 -0.072595 -0.529210 
0.352463 -0.573728 -0.025644 0.703140 -0.190827 -0.660251 
1.412195 0.401745 1.573916 -0.817624 -0.067702 0.438847 
0.196321 -0.345053 -0.239535 0.457783 -0.296061 -0.823967 
-1.668619 -0.144277 1.792024 0.523655 0.260526 0.776260 
-0.425938 -0.879828 0.265628 0.405795 0.044568 0.828838 
0.403357 -0.047543 -0.070686 0.832867 -0.118468 -0.534675 
1.340340 0.502916 1.424557 -0.789019 -0.197233 0.522489 
-0.499803 0.502955 0.012680 -0.873166 0.178286 -0.416903 
-1.023654 0.227790 1.014427 -0.830438 -0.282754 -0.471228 
0.401725 0.144786 -0.082122 0.834488 -0.107694 -0.519060 
0.248641 -0.389210 -0.208841 0.483941 -0.302914 -0.814981 
1.596860 0.547802 2.063186 -0.874590 0.025934 0.318707 
1.152184 0.231112 1.117074 0.843279 -0.275714 -0.460021 
-2.076952 -0.345989 2.692627 -0.833019 -0.435968 -0.299481 
-2.216863 0.264603 2.299850 -0.899162 -0.105904 -0.380066 
-2.047914 0.374534 2.095887 0.726006 0.066510 0.634720 
-0.447239 0.150242 0.214899 0.557723 -0.194672 0.769123 
1.755080 0.280681 2.742321 -0.963540 0.195013 -0.157659 
1.496770 0.218020 1.668007 0.954275 -0.175281 -0.102653 
-1.357592 -0.248407 1.518927 -0.573041 -0.301014 -0.716111 
0.688026 0.476537 0.544131 -0.756134 0.282017 0.562123 
1.436092 0.624718 1.579652 -0.760778 -0.319430 0.507604 
-1.066530 -0.553508 1.391134 0.783565 0.340423 0.489794 
0.240464 -0.601279 0.110945 0.373383 -0.127915 0.882434 
-1.166896 -0.276948 1.315503 -0.768855 -0.295283 -0.560398 
-1.988356 0.553420 1.987301 -0.789697 -0.034630 -0.610478 
-0.426624 -0.131392 -0.012923 -0.834766 -0.121537 -0.532346 
0.618971 0.640255 0.435480 -0.739977 0.220043 0.601683 
-0.201539 0.359848 -0.313024 -0.604337 0.096807 -0.763032 
1.302705 -0.623633 2.102045 -0.755900 0.538511 0.240602 
-1.482740 0.425777 1.608076 0.471074 -0.175258 0.808893 
-0.670221 -0.733601 0.539161 0.764663 -0.026288 0.569428 
0.577969 0.132692 0.249296 0.859886 -0.100885 -0.497635 
1.555134 -0.003717 1.869928 -0.884473 0.155352 0.409124 
1.484497 0.147419 3.230170 -0.874844 0.242196 -0.390429 
-1.703819 -0.234001 1.827587 -0.747633 -0.331585 -0.558768 
0.673925 0.395115 0.530976 -0.729513 0.395147 0.551724 
1.576645 -0.207611 1.986487 0.915251 -0.355053 -0.150613 
-1.965534 -0.433723 2.470791 0.811796 0.395711 0.375251 
-1.368313 -0.356770 1.590429 -0.541673 -0.399249 -0.706100 
0.129078 0.360259 -0.353238 0.553031 0.116909 -0.798739 
-0.086426 1.302471 0.002755 -0.677849 0.579848 -0.374700 
0.138200 1.245766 0.072124 0.704330 0.637049 -0.092158 
-0.131864 0.415504 0.322236 -0.213492 -0.275598 0.933266 
0.276377 -0.451825 -0.177415 0.495172 -0.317043 -0.807524 
-0.003347 -0.631538 0.177296 -0.491843 -0.133585 0.859298 
0.733476 -0.614687 0.602788 -0.791710 -0.039880 0.599000 
-1.193050 -0.039241 1.320972 -0.771718 -0.313871 -0.548151 
-1.448827 -0.796254 2.057441 -0.648758 -0.517466 -0.546582 
-0.473079 -0.636638 0.303239 0.458507 0.048115 0.789986 
-0.362821 0.055037 -0.130834 -0.741479 -0.142913 -0.606860 
-1.997335 -0.303765 2.356714 0.839992 0.316554 0.370193 
-0.567266 0.468285 0.142041 -0.900109 0.149344 -0.387884 
1.489322 0.279478 1.579416 0.975844 -0.131883 -0.157018 
0.336908 -0.648136 -0.007367 0.666972 -0.203746 -0.688768 
1.537913 0.360375 1.771084 0.911949 -0.178883 -0.305957 
-1.888145 -0.478886 2.287421 0.775645 0.394696 0.444829 
-1.908234 -0.259239 2.104693 -0.703529 -0.414129 -0.564706 
0.430617 -0.292538 0.078469 -0.272093 -0.048115 0.915748 
-0.138757 1.164713 -0.043034 -0.594920 0.395932 -0.666601 
1.519321 0.176329 1.722501 0.952406 -0.137802 -0.151090 
0.200565 0.728738 0.332221 0.337406 0.213640 0.891309 
-1.631656 -0.666967 2.109343 0.594796 0.471153 0.601084 
-0.086442 1.313998 0.090045 -0.615836 0.737363 0.215663 
-1.582846 -0.622598 2.029386 0.506270 0.456535 0.665097 
1.726002 0.158178 2.447381 -0.950746 0.149480 -0.024801 
0.336079 0.186705 -0.213012 0.716675 -0.063828 -0.669494 
0.294354 -0.573167 -0.098179 0.557033 -0.272137 -0.766362 
-0.441186 -0.649954 0.221099 -0.677973 -0.178850 -0.670621 
0.491175 -0.325882 0.120821 0.804832 -0.130361 -0.575733 
-1.525990 -0.632480 1.978294 -0.706602 -0.483901 -0.503874 
1.757346 0.344263 2.798822 0.951589 -0.201003 0.217163 
-0.659531 0.590808 0.506204 0.772342 0.196586 0.571966 
-0.544380 -0.851802 0.390056 -0.715822 -0.099059 -0.631477 
1.043666 -0.734082 1.455527 0.767956 -0.584417 -0.199646 
-0.145104 -0.015740 0.198648 -0.208511 -0.133112 0.965005 
0.432502 -0.209904 -0.001405 0.814965 -0.130160 -0.559753 
1.331240 0.715409 1.313886 0.778684 0.008291 -0.582649 
0.040778 0.011452 0.204068 0.109381 -0.130417 0.981133 
1.538785 0.795254 1.793930 0.878390 0.337285 -0.131674 
-2.096873 0.308795 2.095776 0.729380 0.050568 0.670508 
-1.050514 0.617514 1.138792 0.829694 0.124205 0.540343 
-0.617714 -0.062406 0.353343 -0.868944 -0.090986 -0.485839 
1.470275 -0.132679 2.970019 -0.856925 0.438179 -0.233382 
-0.014736 1.356456 0.069295 -0.327635 0.718005 0.561020 
1.433486 -0.267806 2.862074 0.836099 -0.493267 0.174686 
-0.320847 -0.385475 -0.145089 -0.646866 -0.237141 -0.693904 
1.437607 0.710296 1.579848 -0.756092 -0.376426 0.497525 
0.689520 0.192096 0.572225 -0.762578 -0.156879 0.621997 
-1.248358 -0.683267 1.777961 0.743801 0.470676 0.437110 
0.212126 1.256887 0.354175 -0.509166 0.714490 0.376672 
1.239227 -0.095325 1.283004 -0.825652 0.118059 0.482315 
-1.129411 0.250870 1.175396 -0.800448 -0.304491 -0.507516 
1.469918 0.513415 1.652586 -0.795259 -0.239336 0.480826 
-0.045593 0.535466 0.358176 -0.102318 -0.263762 0.954245 
-0.712884 -0.554251 0.577539 -0.847713 -0.044674 -0.507158 
-0.002982 1.119956 0.347428 -0.101189 0.423299 0.879178 
0.290497 0.466227 0.253842 0.107169 -0.202490 0.968353 
-0.769803 -0.087503 0.642237 -0.868867 -0.123704 -0.474524 
1.509105 0.479073 1.702566 0.902666 -0.248544 -0.278280 
1.508085 0.342725 1.697841 0.927495 -0.201826 -0.206499 
-0.766212 -0.247058 0.706573 0.853412 0.059439 0.509574 
-1.184275 0.659852 1.160445 -0.720558 0.197168 -0.603028 
0.220404 0.121309 0.181614 0.188634 -0.208487 0.958829 
-1.388508 -0.018691 1.504269 -0.568768 -0.259692 -0.733256 
-0.282525 0.593823 0.293477 -0.364472 -0.180448 0.867365 
1.015565 -0.782133 1.529720 -0.807986 0.567890 0.077431 
0.373776 -0.102217 -0.104615 0.769705 -0.156125 -0.584307 
-1.128029 0.573174 1.209076 0.711705 -0.249394 0.645939 
-0.215617 1.136230 0.095441 -0.871643 0.447729 -0.153312 
0.193657 1.144745 0.150298 0.546558 0.126232 0.741706 
0.468392 -0.202241 0.066932 0.818423 -0.121583 -0.556665 
1.104742 -0.693015 1.580492 0.750393 -0.582914 -0.255842 
-0.753861 0.457610 0.613737 -0.753442 0.302179 -0.557521 
-0.078780 0.017639 0.202573 -0.144416 -0.138713 0.974863 
0.572258 0.547031 0.378023 -0.687628 0.401507 0.595630 
0.557023 -0.447794 0.341643 0.742503 -0.132344 -0.623468 
-1.169783 -0.549294 1.567926 -0.642167 -0.454693 -0.569981 
0.515200 0.264254 0.103119 0.875935 -0.062938 -0.476126 
0.222792 -0.397611 0.165091 0.374353 -0.096420 0.911578 
-0.199516 -0.225457 0.173629 -0.347678 -0.077712 0.901230 
-0.690659 0.438027 0.563402 0.764138 0.309405 0.540884 
-0.151583 -1.103914 0.065028 -0.447581 -0.248803 -0.810940 
1.639200 0.105132 2.051630 -0.926565 0.134848 0.331525 
-1.600756 -0.185098 1.727706 -0.808373 -0.251252 -0.500765 
1.511907 -0.063118 1.659349 0.966457 -0.156609 -0.153813 
-2.107390 0.006808 2.228216 -0.683315 -0.480351 -0.541247 
-1.497739 0.280342 1.556025 -0.818084 -0.155690 -0.535650 
0.564016 0.096426 0.397845 -0.693981 -0.150025 0.677948 
0.527196 0.500961 0.059081 0.898097 0.179792 -0.384433 
-0.350870 0.120024 -0.169437 -0.731379 -0.104719 -0.635393 
-1.034331 -0.782192 1.649585 -0.646952 -0.546852 -0.493201 
0.891291 -0.010399 0.836187 -0.783781 -0.038736 0.582774 
-0.607659 0.489969 0.401085 -0.799063 0.456457 -0.345679 
1.784273 0.498426 2.571128 0.979311 -0.062067 0.003211 
-0.106510 1.208941 0.299035 0.309170 0.681572 0.630984 
0.180086 0.059816 0.189950 0.240794 -0.182095 0.941538 
-0.055899 -0.678324 0.146324 -0.298981 -0.152225 0.927005 
1.597871 -0.040992 1.982682 -0.915143 0.204802 0.308021 
1.613368 0.145502 2.957290 -0.914313 0.263703 -0.262003 
-0.152875 -0.864891 0.104801 0.137460 -0.043789 0.940844 
1.172728 0.163362 1.146938 0.844865 -0.277869 -0.455737 
-0.611747 -0.003536 0.471890 0.760099 -0.084287 0.605960 
-0.891278 -0.832127 1.388720 0.797952 0.425904 0.384823 
0.866972 -0.046990 0.754111 0.839759 -0.140188 -0.513034 
1.708206 0.135204 2.202492 0.855777 -0.362593 -0.345640 
-2.160774 0.611907 2.152260 -0.801659 0.061542 -0.592179 
-0.501169 0.426337 0.032651 -0.892510 0.100182 -0.409020 
1.400899 -0.142274 1.522913 -0.946182 0.120693 0.173995 
-2.093125 -0.240835 2.560690 -0.782831 -0.462807 -0.371587 
1.281724 0.379078 1.283107 0.833247 -0.284562 -0.472383 
-0.814789 0.083089 0.760459 0.797355 -0.083144 0.572502 
-1.315539 -0.093633 1.488067 0.786333 0.136810 0.559045 
-1.584845 0.537448 1.662120 -0.672324 -0.308646 -0.637326 
-0.973078 -0.465056 1.113847 0.833862 0.211309 0.482029 
-0.691757 -0.035957 0.586151 0.814672 -0.054067 0.558350 
-1.781222 0.477013 1.821406 -0.609453 -0.373919 -0.678686 
1.612585 -0.166582 2.033317 0.923076 -0.327980 -0.184008 
1.598830 0.264853 1.916720 0.900252 -0.174006 -0.345674 
-0.341075 -0.266557 0.100479 -0.407998 -0.122273 0.827011 
0.705588 0.141929 0.492356 0.857086 -0.142270 -0.492008 
-1.633309 0.795246 1.734974 0.489186 0.351294 0.724428 
0.597468 -0.292802 0.373090 -0.557955 -0.005534 0.732071 
-1.464360 0.419958 1.530075 -0.757118 -0.174684 -0.565907 
-0.330040 0.056275 -0.194998 -0.683958 -0.121477 -0.682757 
1.450844 -0.443265 2.142959 -0.808186 0.465609 0.227628 
-1.740650 0.567458 1.765462 -0.726947 -0.119490 -0.673114 
-1.165376 0.749795 1.209935 0.701874 0.512292 0.282697 
-2.345388 0.293771 2.728352 -0.955225 -0.200181 -0.189149 
-1.063632 0.648662 1.049428 -0.553906 0.470438 -0.626975 
1.452985 0.130932 1.544764 0.776775 -0.225158 -0.578891 
0.717608 -0.156105 0.607250 -0.810457 -0.023287 0.579328 
0.339033 -0.392521 0.101851 0.599000 -0.099261 0.748764 
-0.351909 -0.201151 -0.120541 -0.721612 -0.187913 -0.625334 
1.106307 0.088456 1.062079 0.848299 -0.265228 -0.454853 
-0.628244 0.220153 0.497929 0.736661 -0.177789 0.639429 
-1.565344 0.750003 1.698034 0.481268 -0.037367 0.839102 
0.420465 0.371569 -0.086452 0.818894 0.036889 -0.528505 
1.018351 -0.857296 1.861866 -0.773126 0.599804 0.144642 
1.132532 0.586738 1.159151 -0.725015 -0.282182 0.617446 
-0.757148 -0.480137 0.756215 0.877395 0.084555 0.451055 
-1.307705 0.515981 1.482220 0.712285 -0.176645 0.631961 
0.143585 -0.683369 -0.076129 0.116399 -0.420263 -0.893045 
-0.244408 0.576014 -0.248955 -0.532027 0.286920 -0.774566 
1.685150 0.176428 2.800441 -0.924301 0.296051 -0.164915 
-0.285981 0.327191 0.219050 -0.144437 -0.228965 0.958473 
0.184403 1.005118 0.326172 0.457637 -0.017149 0.833672 
-0.789212 0.166925 0.724043 0.785630 -0.125689 0.588701 
1.123798 -0.641629 1.506181 -0.842266 0.503873 0.033919 
-2.030118 -0.388726 2.611396 0.842841 0.391339 0.318729 
-0.134759 -0.885365 -0.001087 -0.118873 -0.316780 -0.929318 
1.572799 0.768802 1.866659 0.923441 0.205200 -0.162745 
-1.277677 -0.548035 1.684479 0.813593 0.438942 0.365213 
0.085304 -0.878462 0.102125 0.057217 -0.126611 0.959189 
-1.813869 -0.433086 2.089041 -0.712597 -0.407832 -0.558836 
-0.278868 -0.663137 -0.073738 -0.517640 -0.281367 -0.803401 
1.512787 -0.235572 2.667642 0.833713 -0.523008 0.057272 
-0.549515 0.544577 0.190375 -0.864418 0.336072 -0.328646 
-0.470172 -0.272579 0.162350 0.364773 -0.044021 0.849684 
-0.034062 1.380753 0.002810 -0.585915 0.694007 -0.200412 
-2.262828 0.285743 2.368171 -0.900010 -0.184317 -0.372723 
1.657507 0.456322 2.183654 -0.907102 0.047937 0.270012 
-0.536848 0.486459 0.080795 -0.899906 0.165154 -0.383306 
-0.135667 1.045183 0.358023 -0.183733 -0.061972 0.980423 
-1.859042 -0.485608 2.218329 -0.706805 -0.482092 -0.513397 
-1.579247 -0.274874 1.773809 0.348741 0.329875 0.837391 
1.179742 -0.163933 1.169645 0.852063 -0.262099 -0.446107 
0.038372 1.229756 0.253058 -0.082884 0.773088 0.605535 
1.718285 0.159799 2.363828 -0.946147 0.165542 0.086925 
0.353493 0.616145 0.239411 0.403289 0.029239 0.805887 
1.211253 0.687182 1.294872 -0.768395 -0.026121 0.619100 
1.257977 -0.544680 1.791106 -0.673567 0.506571 0.480145 
0.126891 0.502763 -0.322339 0.498237 0.241143 -0.815642 
-1.311736 -0.194788 1.485732 0.795939 0.190478 0.549474 
0.060062 0.005500 -0.376096 0.457875 -0.109791 -0.856388 
-0.470047 0.171821 0.040179 -0.871550 -0.086259 -0.482488 
-0.369050 0.589439 -0.154487 -0.649281 0.288441 -0.662268 
1.607224 -0.018137 2.743492 -0.867120 0.470400 -0.098904 
-0.075350 -0.999247 0.077939 -0.105167 -0.110425 0.960607 
-0.405793 -0.021324 -0.065171 -0.842907 -0.113280 -0.521348 
1.772811 0.380594 2.688152 0.964352 -0.163736 0.124992 
0.640246 0.434614 0.343874 0.809965 0.350046 -0.440824 
1.023393 -0.877640 1.931693 0.754779 -0.629174 -0.162374 
0.852187 0.236480 0.790726 -0.733263 -0.167884 0.642657 
0.960383 0.301424 0.932144 -0.720531 -0.162929 0.638784 
-0.343495 0.215724 0.166897 0.001889 -0.235314 0.922494 
0.950709 0.593118 0.862830 0.672397 0.315790 -0.652641 
0.921691 0.268432 0.881498 -0.726208 -0.161149 0.639209 
-0.544233 0.170729 0.186539 -0.870974 -0.106678 -0.478062 
1.184552 0.094787 1.165272 0.846808 -0.279353 -0.451247 
0.548416 0.256094 0.378027 -0.670356 -0.211893 0.698895 
1.764403 0.319398 2.360351 0.982538 0.106079 -0.010138 
-1.093390 -0.527697 1.456800 0.759517 0.369282 0.510344 
-0.652346 0.419684 0.397526 -0.800323 0.376422 -0.437555 
-0.774885 -0.681574 0.769798 -0.884719 -0.107110 -0.425920 
1.674404 0.157958 2.136405 -0.933148 0.145194 0.312838 
0.821005 -0.252255 0.741874 -0.830559 0.047170 0.543551 
0.222753 -0.933552 0.117454 -0.034293 0.113106 0.948179 
-2.255004 0.006944 2.797762 0.910649 0.319162 0.205500 
1.505794 0.412313 1.728859 -0.831216 -0.166979 0.450136 
-0.417908 -0.263579 0.070153 0.272568 -0.066473 0.915555 
1.422975 0.996338 1.525743 0.943189 0.019275 0.297930 
-0.158491 -0.086320 0.193461 -0.237221 -0.108339 0.955116 
1.742184 0.247450 2.369164 -0.894894 0.265030 0.232482 
-0.120297 -1.172023 0.059553 -0.566156 -0.210654 -0.768204 
1.782682 0.430700 2.542264 0.976999 -0.094945 -0.013664 
0.760632 -0.183092 0.663820 -0.815821 -0.003402 0.570454 
1.673795 0.070915 2.163392 -0.932122 0.222520 0.264128 
1.100686 -0.602856 1.285017 -0.844053 0.366033 0.314889 
1.495393 -0.332355 2.041884 -0.804725 0.414911 0.308109 
-1.627617 0.105276 1.690474 -0.764922 -0.099359 -0.601597 
1.423656 -0.351713 2.729836 -0.858426 0.443706 -0.155619 
1.673342 0.027489 2.625158 -0.941007 0.191131 -0.255429 
-0.638699 0.072957 0.381920 -0.870158 -0.116361 -0.477012 
-0.801639 -0.151067 0.701020 -0.860495 -0.129028 -0.484341 
0.544426 -0.178660 0.211108 0.826652 -0.102599 -0.548921 
1.532800 -0.005241 1.755562 0.977298 -0.083446 -0.089953 
-1.217176 0.689324 1.219759 -0.645227 0.296568 -0.598420 
1.070402 0.620711 1.120772 -0.809929 0.134175 0.545364 
-0.284803 -0.460082 0.122501 -0.545111 -0.120386 0.815636 
-0.693194 -0.260814 0.586585 0.812647 0.032076 0.541764 
-2.223790 0.503873 2.259124 -0.841805 -0.057595 -0.507964 
-0.176703 -0.306397 0.180205 -0.296409 -0.024459 0.934702 
-0.542831 -0.415587 0.328671 0.510527 0.021346 0.745380 
1.580741 0.523110 1.946630 -0.909671 -0.008698 0.369172 
1.459700 -0.094676 3.061510 0.860570 -0.368576 0.331089 
-2.217614 0.333443 2.332439 0.858944 0.171324 0.432991 
-0.712545 0.516801 0.565515 -0.784448 0.224072 -0.543664 
0.697367 0.367185 0.456654 0.789175 0.331072 -0.485255 
1.358830 0.601267 1.376741 0.822604 -0.288724 -0.488922 
-0.051801 1.072569 -0.103119 -0.361258 0.306956 -0.868641 
-0.467656 -0.103418 0.195375 0.454354 -0.101818 0.808761 
0.075522 -0.647977 -0.094619 0.111507 -0.423434 -0.890388 
0.016756 0.678075 0.358644 0.043180 0.115791 0.986139 
-0.014248 0.057353 0.206585 -0.081640 -0.147396 0.984253 
0.148517 -0.970218 0.090922 -0.266422 -0.019537 0.935959 
-0.399839 -0.482181 0.022615 -0.759527 -0.162147 -0.609228 
-0.170173 0.313188 0.283219 -0.242973 -0.262827 0.932571 
0.325860 -0.595837 0.055582 0.095306 -0.034927 0.938824 
0.443934 -0.167960 0.131394 -0.364163 -0.088039 0.868004 
-1.672938 0.597102 1.774219 0.546154 0.050169 0.797143 
-1.263373 -0.140589 1.454919 0.763931 0.178453 0.579880 
1.584472 0.143508 3.027653 0.894983 -0.291773 0.310943 
1.326290 -0.562463 1.985698 0.839973 -0.530395 -0.035782 
0.032432 0.084476 -0.405685 0.460179 -0.066377 -0.863264 
1.173969 0.447237 1.137589 0.834931 -0.275626 -0.475191 
1.391714 -0.262058 1.715412 -0.856548 0.337194 0.314134 
-1.449039 0.760272 1.610969 0.575511 -0.167255 0.790225 
-0.079993 0.367165 0.304385 -0.119639 -0.301258 0.936273 
-0.276815 -0.746562 0.105128 -0.196944 -0.045923 0.912327 
-2.305265 0.091859 3.118097 0.963423 0.246466 0.074218 
-2.121914 0.484212 2.196558 0.760060 0.136796 0.576690 
0.063847 -0.569379 -0.143469 0.146369 -0.461495 -0.863766 
0.495960 0.644471 0.263814 0.838265 0.504824 -0.194209 
-0.168270 -0.009778 -0.315999 -0.534428 -0.109897 -0.814943 
1.161822 -0.632709 1.607871 0.742867 -0.570523 -0.299255 
1.049079 0.393384 0.974077 0.841511 -0.266363 -0.469352 
0.157723 -0.171576 0.191372 0.239531 -0.068213 0.959082 
-1.472384 0.075404 1.587706 0.850484 -0.002829 0.499562 
-0.385074 -0.088423 -0.092138 -0.813240 -0.132957 -0.548943 
-2.313997 0.155833 2.860252 -0.951959 -0.245460 -0.145729 
