1.218681 -0.004864 0.033441 0.255211 -0.101226 0.956227 
-0.550819 -0.538480 0.093398 -0.347054 -0.054057 0.925823 
1.157841 0.286129 0.071171 0.390540 -0.146181 0.890439 
1.384611 -0.585583 -0.113152 0.274595 -0.150032 0.949161 
0.075581 0.152886 -0.277288 0.570995 0.017720 -0.805857 
-0.046317 0.145156 0.337874 -0.059924 -0.249260 0.961714 
-0.017524 -0.106783 0.305656 -0.098897 -0.090984 0.983887 
0.917715 -0.047979 0.107613 0.295380 -0.157801 0.935145 
0.218593 -0.371102 -0.116379 0.550044 -0.219565 -0.798524 
2.513724 1.257236 -0.150051 0.012149 -0.022539 0.956148 
-1.541056 0.269923 -0.093985 -0.472967 -0.030831 0.858298 
2.318964 1.347090 -0.135047 0.105915 -0.031466 0.947522 
-2.201579 0.305399 -0.518133 0.723581 -0.360782 -0.580219 
-1.879125 1.015267 -0.322206 0.437529 -0.102037 -0.859442 
3.238865 0.745685 -0.028489 0.360959 -0.015760 -0.924923 
-2.634630 0.315378 -0.851354 -0.577904 0.237312 0.750280 
0.562070 -0.104667 0.163447 0.324060 -0.197079 0.908376 
1.596258 1.470309 -0.098545 -0.827560 -0.088724 -0.443848 
1.909467 0.640552 -0.182332 -0.226303 -0.153244 -0.952340 
-1.534578 0.613823 -0.097974 0.335631 -0.132692 -0.915303 
-2.338372 0.010306 -0.514103 0.633296 -0.313160 -0.686880 
-2.253721 0.318032 -0.568679 0.430760 -0.133069 -0.888939 
-1.712674 -0.160810 -0.147165 -0.351131 0.009406 0.923389 
1.534523 0.731041 -0.049004 0.348313 -0.125693 0.885058 
1.396419 0.780511 0.004537 0.437572 -0.164039 0.848457 
-1.726543 1.387723 -0.177137 0.490062 0.013147 -0.869617 
-2.090226 0.119432 -0.358727 0.570476 -0.243050 -0.753371 
2.404907 -0.228051 0.016873 0.022084 0.272063 0.946776 
-2.381528 0.281473 -0.651362 0.459871 -0.162585 -0.866933 
-1.951879 0.991535 -0.367740 -0.799119 -0.015641 0.542483 
-2.423994 0.506737 -0.761538 0.526444 -0.159747 -0.828717 
-0.402260 -1.424317 0.170334 0.388647 -0.834489 0.056129 
-0.300631 0.734393 0.444267 -0.509338 0.347534 0.771535 
1.308496 0.670095 0.038158 0.466787 -0.141629 0.837856 
-0.276601 -0.516833 -0.056606 -0.495244 -0.211149 -0.818350 
0.999684 0.373484 0.143123 0.456576 -0.178943 0.866772 
-0.971346 0.314093 0.159978 -0.434143 -0.207411 0.873176 
-1.780856 0.925733 -0.160665 -0.590646 -0.171937 0.759349 
-1.075764 0.459212 0.077671 0.154588 -0.031772 -0.983932 
-1.034962 -0.826568 -0.022011 0.144628 -0.052656 -0.957565 
-0.152583 0.837224 0.480593 -0.298576 -0.024789 0.942741 
-2.045864 -0.291964 -0.228898 0.399964 -0.162982 -0.892986 
-0.474687 -1.168539 0.138491 -0.455937 0.329107 0.779155 
-0.685877 -1.017361 0.083536 0.089775 -0.277236 -0.949096 
0.285419 0.008839 0.276366 0.253624 -0.248754 0.901591 
1.394954 -0.506037 -0.104744 -0.219559 0.109495 -0.966492 
0.458805 -0.315782 0.101609 0.411923 -0.132970 0.893834 
1.588387 0.433547 -0.071785 0.255738 -0.023350 0.926422 
0.381884 -0.330069 0.113384 0.414890 -0.139139 0.887980 
0.973647 -0.851487 0.002907 0.197695 0.062952 0.957026 
-0.918489 -0.634734 0.027212 -0.248506 -0.069181 0.958435 
-0.013745 1.188686 0.424802 0.021554 0.659871 0.727621 
0.341522 0.198599 0.067759 0.615163 0.050324 -0.781459 
-0.546441 0.058854 0.062444 -0.384997 0.054736 -0.841743 
-0.329081 0.833109 0.313243 -0.866439 0.400485 0.225263 
-0.296680 0.933256 0.258194 -0.924935 0.334384 -0.039461 
-0.427068 -0.714785 0.068431 -0.213687 -0.095505 -0.936139 
-2.808965 0.528694 -0.986884 -0.473327 0.135134 0.859150 
3.465771 0.905743 0.043991 0.393443 -0.049630 -0.917521 
-1.887169 0.914106 -0.353398 0.430533 0.028012 -0.888859 
0.170157 0.418218 -0.182877 0.654552 0.170918 -0.701920 
-0.853432 0.334623 0.122420 0.020616 0.069284 -0.970009 
-2.084246 0.807632 -0.535271 0.576547 0.043109 -0.795403 
-1.277077 1.083676 0.064190 -0.056658 0.235141 0.880305 
1.108541 0.205881 0.049505 -0.171689 0.013622 -0.979989 
0.449910 0.005695 0.052532 0.464142 0.046169 -0.837979 
0.223795 -0.688669 0.195746 0.243476 -0.142787 0.937813 
3.293943 0.987503 -0.029263 -0.324834 0.036694 0.939006 
-1.031638 0.567653 0.183085 -0.387696 -0.089334 0.905691 
0.289771 0.062026 -0.082879 0.688136 -0.039292 -0.698968 
-0.023353 -0.434846 0.291516 -0.101066 -0.206230 0.967727 
2.448041 0.734726 -0.204287 0.016392 0.066580 0.995659 
3.320835 0.750026 0.004837 -0.309164 0.116221 0.934137 
2.994753 1.435623 -0.134914 -0.161541 0.214336 0.936998 
1.828708 0.076819 -0.119188 0.027967 -0.134706 -0.971796 
-0.447686 -0.652497 0.098168 -0.351000 -0.032535 0.924354 
0.380670 -0.256270 0.138878 0.370610 -0.166727 0.897036 
-1.904400 -0.316854 -0.191732 0.339509 -0.093981 -0.923826 
2.084892 0.378015 -0.167082 -0.208365 -0.239582 -0.941087 
0.225673 0.183399 -0.175622 0.708010 0.004898 -0.681446 
-1.357523 0.773682 0.031642 -0.588680 -0.208478 0.768411 
2.253860 1.299135 -0.137912 0.145587 -0.032728 0.945602 
-2.454658 0.029261 -0.605459 -0.679191 0.314073 0.613096 
-2.356317 0.133135 -0.544912 -0.672597 0.268769 0.683580 
0.761967 0.477396 0.157716 -0.149735 0.450016 -0.731557 
0.178459 -0.933522 0.101512 -0.139378 -0.404014 -0.894257 
-1.801218 1.379627 -0.209295 -0.850523 0.056079 0.501846 
-1.108954 0.946611 0.126153 -0.250086 0.083896 0.925324 
-1.856981 -0.179395 -0.194496 -0.373928 0.050531 0.912909 
0.531063 -0.186805 0.137362 0.358102 -0.170556 0.903357 
-0.566194 -0.802757 0.092832 -0.023036 -0.112671 -0.980033 
-1.414338 0.405048 -0.061789 0.295691 -0.079026 -0.932358 
-0.113241 -0.094979 0.301067 -0.155898 -0.124800 0.971466 
-1.624793 0.392938 -0.148372 0.382106 -0.110602 -0.898601 
0.346806 0.760859 0.171494 0.876036 0.386382 -0.273871 
-2.864761 0.694360 -1.034087 -0.430652 0.073787 0.886586 
2.906835 0.381973 -0.092611 -0.196885 0.121503 0.961281 
-1.474347 0.921857 -0.004365 -0.606902 -0.229214 0.746418 
-0.321162 -0.416131 0.178605 -0.580284 -0.122452 0.797372 
-0.320916 -1.239428 0.146307 0.501066 -0.256618 -0.818435 
2.253583 1.415608 -0.143473 0.157721 -0.022245 0.955898 
0.061023 -0.790560 0.054858 0.161530 -0.422378 -0.877197 
-0.631713 0.137764 0.247501 -0.204445 -0.286799 0.923106 
2.634264 1.185505 -0.217668 0.105235 0.140968 -0.977315 
-1.781698 0.641494 -0.193771 0.439662 -0.166098 -0.875138 
1.776388 0.030832 -0.138266 0.038230 0.056807 0.986853 
2.635343 0.623362 -0.177672 -0.102471 0.067099 0.978950 
2.584528 1.122295 -0.216166 0.059878 0.020886 0.994640 
1.388774 1.207266 -0.009161 -0.711850 0.460529 -0.391982 
-0.091036 -1.120412 0.220067 -0.347032 0.218795 0.893131 
1.404479 0.126687 -0.024121 0.219368 -0.051735 0.960921 
0.252171 0.153468 0.314941 0.131076 -0.288250 0.947377 
2.909878 0.575574 -0.121693 0.112499 -0.266868 -0.946591 
-0.236225 1.160696 0.537419 -0.258590 -0.538415 0.788104 
0.314352 -0.994343 0.105438 -0.114963 -0.266240 -0.944272 
1.608205 0.060993 -0.114944 -0.094762 -0.031462 -0.990598 
-0.318240 0.146320 0.018664 -0.653712 0.010731 -0.743580 
0.894274 0.364145 0.117287 -0.079452 0.047252 -0.984200 
0.254241 -0.225622 -0.111764 0.621108 -0.155458 -0.748261 
-0.140941 1.126938 0.067643 -0.546016 0.306083 -0.771059 
0.004423 0.041648 -0.293097 0.475598 -0.081071 -0.841745 
3.431123 1.084389 0.029860 -0.392253 -0.053978 0.908721 
2.643263 0.864694 -0.197492 -0.115770 -0.012849 0.975939 
-2.908920 1.558648 -1.125076 0.315035 0.302417 -0.877611 
2.117721 0.506958 -0.135248 0.010264 0.046305 0.974121 
-1.014890 0.022520 0.069495 0.135407 0.064914 -0.973993 
1.643264 0.574520 -0.091548 0.255156 -0.056708 0.924400 
-0.646582 0.057975 0.063962 -0.282019 0.060681 -0.864576 
1.774309 1.380190 -0.148095 -0.000040 -0.099487 -0.985566 
0.175816 1.233191 0.324983 0.891726 -0.256669 0.269540 
0.958835 -0.572325 0.011746 -0.114080 0.000860 -0.972546 
-1.966111 0.445827 -0.338271 -0.496604 -0.001472 0.858819 
0.325250 -0.315564 0.003136 0.519718 -0.004797 -0.851786 
-1.457315 0.724258 -0.016241 -0.582716 -0.167096 0.775725 
-1.903626 0.461960 -0.256817 -0.535385 0.015697 0.827013 
0.305266 -0.578816 -0.013779 0.415149 -0.169286 -0.860038 
-2.118176 1.351977 -0.596396 0.574256 0.035791 -0.810329 
-2.014262 1.266217 -0.480445 0.582902 -0.292589 -0.736895 
-2.427250 0.803096 -0.822327 -0.558870 0.081612 0.807608 
-3.185867 0.966771 -1.193171 -0.340992 0.067108 0.935049 
-0.656540 -0.284255 0.030432 -0.182160 0.017940 -0.915872 
0.161096 0.737163 -0.060543 0.498717 0.470690 -0.695180 
-0.443939 0.509809 0.391653 -0.185015 0.059139 0.928849 
0.403252 0.444920 0.140395 0.646755 0.239034 -0.704951 
0.711087 -0.108293 0.129074 0.323230 -0.170000 0.918640 
-2.409022 0.130530 -0.616197 0.490984 -0.192775 -0.839529 
-1.960755 -0.093055 -0.235958 0.424010 -0.132536 -0.885496 
0.144597 0.524141 -0.165779 0.571389 0.244922 -0.747834 
3.552881 1.050916 0.088861 -0.408545 -0.012240 0.908143 
0.955071 -0.764172 -0.014588 -0.102422 -0.013706 -0.968848 
0.127841 -0.138619 -0.203239 0.535258 -0.121032 -0.815925 
-0.624239 -0.521231 0.064113 -0.090852 -0.044850 -0.949764 
-0.949595 -0.498359 0.025257 0.107910 0.021694 -0.976224 
1.676449 1.260603 -0.083207 0.386669 -0.198865 0.848184 
-0.515871 -0.117388 0.171053 -0.321681 -0.205805 0.904324 
-2.289102 0.462449 -0.626615 -0.763438 0.329691 0.486703 
-2.511479 0.328764 -0.758295 -0.656741 0.289226 0.629245 
-0.234478 -0.655578 0.011738 -0.024280 -0.331231 -0.931417 
0.323083 0.322519 -0.008647 0.672448 0.073609 -0.730030 
1.864059 -0.169810 -0.030926 -0.196332 0.191908 0.940864 
0.215991 -0.023786 -0.160162 0.643280 -0.072396 -0.734239 
-2.214485 1.069111 -0.669035 -0.704749 0.025481 0.698798 
-0.251612 -0.365206 0.240623 -0.514081 -0.088343 0.820796 
2.762205 1.476868 -0.178334 -0.044365 0.215939 0.963007 
-0.261642 0.467722 -0.128159 -0.698493 0.106281 -0.698819 
-2.249216 0.656538 -0.672617 0.542477 -0.094935 -0.822696 
0.109764 0.305162 -0.258791 0.630542 0.085509 -0.747852 
3.169754 1.213158 -0.097485 0.321258 -0.007368 -0.944825 
-1.710051 0.011046 -0.174288 0.376754 -0.061124 -0.906754 
1.172259 0.912094 0.089887 0.044208 0.232857 0.930743 
-2.480558 -0.116127 -0.577222 0.618832 -0.303355 -0.715964 
0.281403 0.374333 0.399166 0.119472 -0.269859 0.951692 
-0.234200 1.256462 0.531639 -0.776337 -0.432735 -0.451745 
-0.076479 0.384327 -0.251953 -0.585198 0.172560 -0.762418 
-0.315010 -0.488047 0.162332 -0.514126 -0.114712 0.846236 
0.279834 -1.244911 0.174490 -0.625894 -0.255127 0.323112 
-0.356976 -0.550702 0.032554 -0.383778 -0.051688 -0.890310 
-0.691407 -0.019422 0.174419 -0.273064 -0.214982 0.921546 
0.753943 -0.834571 0.046219 0.254184 -0.002384 0.960770 
-0.329853 0.348338 0.020089 -0.671407 0.087992 -0.730490 
-2.323898 0.508994 -0.687231 0.504260 -0.139938 -0.844542 
-3.034214 1.233318 -1.161480 0.343969 -0.037264 -0.935637 
-2.460448 0.569960 -0.810157 0.564213 -0.167484 -0.804604 
0.973909 -0.212777 0.078983 0.283992 -0.093198 0.950464 
-0.921632 -0.205126 0.053720 0.081300 0.037969 -0.966062 
0.143983 1.049280 0.488798 0.194270 -0.072876 0.967518 
-0.130814 1.200917 0.109912 -0.666238 0.443823 -0.555660 
0.569326 0.465414 0.394558 0.158472 0.021660 0.971658 
-0.355589 0.333299 0.086519 -0.656221 0.118660 -0.735770 
2.277230 0.067894 -0.084570 0.013287 -0.253943 -0.962394 
1.934633 0.550953 -0.163833 -0.116898 -0.101283 0.954949 
-0.279079 0.066568 -0.117634 -0.723365 -0.046398 -0.664339 
-1.374576 -0.423951 -0.066930 -0.251605 -0.135533 0.955195 
0.649848 -0.737043 0.078475 -0.013047 -0.096629 -0.977277 
2.766904 0.204492 -0.103152 0.158111 -0.197664 -0.966541 
-2.945579 1.324732 -1.133973 -0.358984 -0.065571 0.920018 
-1.293031 0.826675 0.012763 0.226563 -0.132172 -0.956366 
1.112925 0.816418 0.038639 -0.451605 0.100680 -0.870542 
0.174209 0.587698 -0.132129 0.554389 0.301311 -0.736282 
-2.768151 1.084371 -1.049973 0.353727 0.078732 -0.928273 
-0.065149 -0.104756 -0.236558 -0.492863 -0.138959 -0.827679 
1.078379 0.134667 0.094363 0.355716 -0.148377 0.914965 
0.315485 -0.670139 0.175351 0.447834 -0.064482 0.879359 
0.174365 0.308641 0.402320 0.117407 -0.325307 0.937443 
3.662289 1.082246 0.142926 -0.426232 -0.001156 0.903901 
2.306154 0.006082 -0.045214 0.133900 0.263010 0.932762 
-2.935273 1.404652 -1.132437 -0.342758 -0.130446 0.921044 
0.003009 -0.362873 0.304163 0.224703 0.100931 0.966073 
2.327816 0.138217 -0.100326 0.196940 -0.166337 -0.957793 
-0.197050 0.989891 0.450045 -0.531293 0.009813 0.795090 
0.334337 0.261147 0.026250 0.660629 0.064229 -0.739234 
-0.152811 1.037255 0.479437 -0.268107 -0.039179 0.935017 
0.704125 0.692645 0.264060 0.202213 0.104330 0.932674 
-0.676995 -0.944621 0.064189 -0.210482 0.066722 0.962669 
-2.295754 -0.271225 -0.375299 -0.487591 0.213562 0.839348 
-1.970632 0.546452 -0.399834 0.737501 -0.241468 -0.581940 
2.901227 0.686224 -0.141072 0.084217 -0.296018 -0.941845 
-2.904991 1.043181 -1.092017 -0.425661 0.183170 0.868482 
0.480742 -0.132899 0.170093 0.336857 -0.200137 0.901723 
2.127062 0.316449 -0.158111 -0.190124 -0.274261 -0.938765 
0.301947 -0.347377 0.219465 0.626224 -0.137367 0.754948 
0.872229 -0.245832 0.079000 0.313425 -0.096232 0.939067 
3.319641 0.487913 0.033621 0.322545 -0.127286 -0.935579 
1.304047 0.516719 0.032545 0.414308 -0.122296 0.865745 
2.061519 1.417125 -0.158047 0.130903 0.055510 -0.987337 
-1.668842 0.878029 -0.132260 0.384484 -0.184217 -0.895353 
3.116407 0.543738 -0.043264 -0.282430 0.073571 0.945858 
0.156372 1.209012 0.479029 -0.441149 0.546531 0.655993 
-1.563029 0.548701 -0.113873 0.349711 -0.127389 -0.910165 
1.533440 1.203371 -0.047032 0.440838 -0.281708 0.842534 
1.201598 -0.272267 -0.000147 0.281307 -0.132507 0.949532 
2.985934 0.379572 -0.066269 0.190880 -0.197674 -0.952773 
0.230308 0.258483 -0.180437 0.732435 0.032726 -0.661429 
1.548402 -0.459413 -0.134084 -0.098665 0.051185 -0.987081 
-1.823763 1.461974 -0.232551 -0.677559 0.245650 0.630275 
-0.941461 0.402904 0.207852 -0.465755 -0.171615 0.866560 
-2.124761 1.266336 -0.576398 -0.758637 0.096233 0.625410 
1.692726 0.052191 -0.143188 -0.076229 -0.047021 -0.992898 
2.686085 0.045369 -0.057404 -0.093260 0.216045 0.967409 
0.191912 1.052743 0.086187 0.662274 0.286680 -0.659252 
-0.757062 0.173517 0.224451 -0.231939 -0.266302 0.922388 
-2.768480 0.887381 -1.021046 -0.406175 -0.021973 0.903301 
0.031141 0.161835 0.345189 0.047621 -0.257813 0.959626 
0.948070 0.592578 0.132017 -0.509301 0.412496 -0.740671 
-0.810668 0.053610 0.066623 -0.108511 0.068254 -0.905135 
2.734846 1.300665 -0.206138 0.102481 0.038206 -0.988634 
3.487068 0.972387 0.053995 0.399989 -0.035093 -0.914637 
-0.397102 0.409824 0.381173 -0.118796 -0.204905 0.969138 
-2.589133 1.598112 -0.981711 0.442339 0.376026 -0.781224 
-3.085223 1.397016 -1.177374 0.318427 -0.002783 -0.944860 
-1.932149 1.173933 -0.361431 -0.781265 -0.134902 0.556356 
-1.825879 0.131460 -0.227772 0.444171 -0.098000 -0.878132 
-2.775415 0.610310 -0.984391 -0.461856 0.095721 0.866895 
1.743860 1.017532 -0.111099 0.195119 -0.230544 0.890742 
1.877916 1.262786 -0.125449 0.310144 -0.278207 0.871848 
0.342384 0.412863 0.396239 0.119371 -0.218249 0.965555 
1.061634 -0.030884 0.047915 -0.146957 0.076307 -0.970977 
3.146538 0.681782 -0.051838 -0.322914 0.017188 0.938866 
0.935747 -0.293485 0.081533 0.275448 -0.075767 0.953774 
0.059882 -0.702392 0.019507 0.157852 -0.419819 -0.880389 
-0.163289 1.129224 0.404281 -0.856167 0.228275 -0.233476 
-0.343909 -0.055024 0.043155 -0.568208 0.030652 -0.811528 
-0.928937 0.692894 0.192467 -0.235562 0.103813 0.949945 
1.984035 0.098029 -0.096888 -0.226871 0.109777 0.941678 
-0.349556 -1.168566 0.169425 0.114651 0.072671 0.982333 
-3.159693 0.821317 -1.172330 -0.368408 0.099629 0.921434 
-0.985572 0.588274 0.105871 0.406302 0.296926 -0.832836 
-2.532710 0.162344 -0.721083 0.507486 -0.210144 -0.828879 
2.239319 1.215371 -0.198245 -0.021679 -0.054283 -0.991645 
3.029126 0.954879 -0.131196 0.359439 0.086765 -0.924265 
-1.879544 0.644763 -0.297033 0.593097 -0.212060 -0.722931 
0.298725 -0.179753 -0.013600 0.572475 -0.082306 -0.802903 
2.958846 1.124472 -0.170945 0.278122 0.019513 -0.956266 
1.629905 1.381807 -0.129665 0.213401 -0.069318 -0.960095 
1.121379 0.018803 0.069277 0.303787 -0.131420 0.939500 
0.237830 -0.868032 0.163184 0.089514 -0.057170 0.983529 
-0.799716 -0.047134 0.142146 -0.282472 -0.185965 0.928741 
1.696028 1.123672 -0.098492 0.274100 -0.257959 0.876179 
-0.688323 0.496839 0.196381 -0.020359 0.494955 -0.704744 
1.001895 0.013838 0.055161 -0.085347 0.075037 -0.956626 
0.782496 -0.969386 0.061086 -0.117831 -0.228952 -0.952280 
-2.323640 1.302537 -0.747673 -0.648495 0.062384 0.724525 
0.579032 0.364742 0.339608 0.199492 -0.203112 0.930592 
-2.056644 1.151389 -0.514599 0.600320 -0.231497 -0.731921 
-0.300019 -0.223195 -0.010473 -0.575058 -0.062352 -0.805157 
-1.064883 -0.512912 0.001851 -0.251197 -0.111742 0.955562 
0.387300 0.631667 0.376912 0.491193 0.181550 0.778809 
-0.850931 -0.212631 0.045324 0.003652 0.036237 -0.950282 
-1.622153 -0.100476 -0.119057 -0.357418 -0.005747 0.919905 
-1.386230 0.313936 -0.022337 -0.467052 -0.091706 0.854929 
-1.649556 0.997817 -0.116091 0.372612 -0.197943 -0.899404 
-0.434511 -0.009598 0.051010 -0.485054 0.040850 -0.825806 
1.616369 1.536412 -0.082698 0.172159 0.204623 0.865174 
-0.352194 0.726981 0.380548 -0.718586 0.396996 0.459777 
-0.277927 0.167983 0.314943 -0.133646 -0.299843 0.943664 
-1.320502 0.573955 -0.015147 0.247298 -0.098494 -0.949695 
0.342042 -0.797518 0.045912 0.251519 -0.191099 -0.915400 
-1.067189 0.083668 0.063450 0.173743 0.044968 -0.981584 
0.206156 1.151093 0.274319 0.508180 0.143737 0.778518 
0.485614 -0.387792 0.080188 0.420047 -0.102833 0.897794 
0.126075 -1.108390 0.213821 0.243142 0.244554 0.931231 
-1.051164 -0.167453 0.069791 -0.279544 -0.116146 0.951312 
-0.013327 1.161828 0.043236 -0.423140 0.186752 -0.873500 
-1.443969 1.072818 0.038346 -0.445006 -0.085445 0.867054 
-0.342412 -0.888261 0.155872 -0.203376 -0.005233 0.953528 
0.263880 -0.314968 -0.075761 0.581483 -0.184020 -0.783493 
-2.033243 0.538046 -0.449935 0.771431 -0.289873 -0.537621 
-0.378163 -0.386928 0.095816 -0.449970 -0.121729 0.880514 
0.419728 -1.167969 0.150121 0.498108 0.296472 0.764163 
-2.756112 1.283906 -1.065511 0.420028 -0.043062 -0.902991 
0.937786 0.527524 0.102651 -0.287772 0.222288 -0.895457 
-2.136164 1.540926 -0.590805 -0.590300 0.305872 0.689727 
2.110887 0.979474 -0.175389 -0.018243 -0.029395 -0.978384 
2.011573 0.399783 -0.174072 -0.197018 -0.192267 -0.951673 
2.428967 0.508121 -0.175391 0.127630 0.172920 0.940829 
0.903959 0.650946 0.161176 -0.492448 0.310037 -0.787910 
-0.699182 -0.139538 0.126076 -0.326540 -0.166431 0.917464 
2.646594 1.080446 -0.210915 0.030161 0.073877 0.988641 
0.359178 0.591982 0.437146 0.438720 -0.078730 0.853466 
2.505096 -0.172446 0.001763 0.077867 -0.259746 -0.959418 
0.659619 0.315110 0.276422 0.266111 -0.298228 0.901362 
0.998927 0.484177 0.095858 -0.121880 -0.033294 -0.989052 
0.726905 0.188491 0.239581 0.218598 -0.275924 0.925880 
-0.086083 1.302859 0.192526 -0.648731 0.696081 0.156958 
0.388657 0.680765 0.163216 0.801394 0.524316 -0.222059 
0.454755 -0.862557 0.099212 0.087165 -0.147913 -0.969205 
0.203255 0.482646 -0.153448 0.647326 0.167250 -0.722625 
-2.711412 0.329419 -0.917260 -0.529434 0.204357 0.823262 
1.854505 1.411522 -0.139744 0.157189 0.048666 -0.984274 
-2.247657 0.850932 -0.699078 0.658680 -0.113863 -0.736043 
0.963930 0.868007 0.159219 -0.473318 0.157056 -0.863034 
3.373168 1.227686 -0.003301 0.376813 0.007728 -0.923367 
-0.001772 1.320650 0.239064 -0.202668 0.797629 0.549532 
-0.300220 0.854232 0.161556 -0.844650 0.353131 -0.341756 
-0.006236 0.615066 -0.199445 -0.398643 0.417215 -0.810252 
1.363945 0.039828 -0.035680 -0.141872 0.018468 -0.984814 
-2.423467 0.918742 -0.849267 0.598933 -0.260486 -0.745480 
3.098466 0.621685 -0.060019 -0.297646 0.038096 0.943360 
1.791924 1.209128 -0.135469 0.152124 -0.198172 -0.941362 
-0.706141 -0.517543 0.094575 -0.292120 -0.041351 0.947490 
0.166965 0.347834 -0.205643 0.672987 0.117393 -0.696961 
-0.900561 -0.140021 0.085959 -0.321218 -0.132559 0.932828 
1.039368 -0.415516 0.027136 0.273462 -0.089325 0.953134 
-1.668673 1.247230 -0.135380 0.372042 -0.132458 -0.883720 
0.309597 -0.484322 -0.012580 0.462938 -0.102241 -0.857084 
2.054215 0.459550 -0.177318 -0.240191 -0.208761 -0.939955 
-1.104753 0.016356 0.045600 0.193091 0.050827 -0.976336 
0.405260 -0.303672 0.005086 0.443289 0.001419 -0.867106 
-1.801021 0.739385 -0.209994 0.471745 -0.189640 -0.840001 
0.436892 0.619724 0.240850 0.560768 0.511116 -0.552689 
-3.022590 1.140486 -1.147665 0.330944 -0.002741 -0.939562 
-0.522454 0.238201 0.091805 -0.415776 0.057270 -0.833196 
0.553645 0.337214 0.105800 0.358242 0.127564 -0.846121 
0.391781 0.690682 0.323107 0.638135 0.481288 0.518874 
-0.916358 0.048523 0.151891 -0.253530 -0.199152 0.937136 
3.225306 0.996739 -0.056001 -0.292701 0.059929 0.943664 
2.224344 0.207913 -0.101669 -0.099201 0.146634 0.946905 
-0.125537 1.121738 0.294619 -0.817984 0.035925 0.566959 
1.931026 0.051610 -0.087784 -0.175852 0.127145 0.948335 
0.399778 -0.151943 0.174430 0.323266 -0.203981 0.904791 
0.291489 0.730482 0.451554 0.479166 0.335857 0.805087 
0.801902 0.376087 0.109356 0.015262 0.119522 -0.954219 
-1.037622 0.195070 0.120495 -0.387290 -0.178088 0.895220 
-0.135865 -1.023390 0.145289 0.113535 -0.458180 -0.876949 
0.012603 0.134506 -0.308941 0.510055 -0.011195 -0.838371 
0.920470 -0.507388 0.049402 0.268141 -0.058539 0.955672 
0.138959 -0.824365 0.198809 0.158934 -0.044809 0.972142 
0.212803 1.083581 0.483990 0.373022 -0.379627 0.767126 
-0.368997 -0.648303 0.049865 -0.316900 -0.077642 -0.910394 
-0.921035 0.110548 0.083495 0.042682 0.058223 -0.955574 
-0.259048 -0.882501 0.153792 -0.087589 -0.058069 0.981997 
0.512041 -0.770806 0.091408 0.073125 -0.122831 -0.967108 
0.937575 -0.375197 0.066798 0.272805 -0.070781 0.954382 
-1.039007 -0.099413 0.052677 0.159585 0.065599 -0.975846 
0.121979 -0.668618 -0.002760 0.026576 -0.387268 -0.915953 
2.366906 1.163391 -0.207756 -0.068381 -0.143661 -0.975703 
-1.629413 1.450091 -0.039030 0.005998 -0.158708 0.896665 
-0.141384 0.144990 -0.230036 -0.630443 0.003709 -0.751393 
-2.023590 0.380650 -0.372889 -0.460875 0.029133 0.877749 
-2.409072 0.721177 -0.796875 -0.590171 0.130367 0.787510 
2.187635 0.508977 -0.157606 0.332105 0.203873 0.900499 
-2.250017 1.580443 -0.721005 0.641578 0.290230 -0.689227 
-0.184905 -0.338492 0.269467 -0.341021 -0.039307 0.912028 
1.222895 0.768970 0.071568 0.535384 -0.187904 0.809065 
-0.411348 -1.021710 0.112579 -0.071251 -0.183632 -0.978322 
-0.871652 0.003971 0.060079 -0.039305 0.068620 -0.923073 
2.283246 0.746199 -0.185900 0.122079 0.059809 0.983140 
0.170924 -1.014753 0.137958 -0.144034 -0.427186 -0.883912 
1.196397 1.052230 0.066771 -0.591629 0.306023 -0.639565 
2.295786 0.202261 -0.108717 0.320070 0.295303 0.867581 
2.482350 -0.238274 0.020998 0.060759 -0.273057 -0.958613 
0.697799 -0.016505 0.049531 0.214959 0.057376 -0.892792 
-1.742717 1.249093 -0.139737 -0.849103 -0.145823 0.454399 
-0.297853 0.083259 0.285343 -0.181819 -0.275412 0.928982 
0.226161 0.487672 0.446597 0.137073 -0.253776 0.954646 
-1.523334 0.751944 -0.042043 -0.586157 -0.159994 0.771608 
0.728963 -0.171166 0.099916 0.348642 -0.142531 0.917700 
-0.109460 -0.206878 -0.196266 -0.505467 -0.177923 -0.817757 
2.352303 -0.329438 0.042973 -0.067088 0.266150 0.957366 
3.297286 1.222124 -0.041746 0.359296 0.001334 -0.930916 
2.226515 1.068585 -0.185342 -0.055746 -0.148971 -0.966058 
0.006372 -0.849455 0.068540 0.569832 -0.352203 -0.714554 
-1.842228 1.081036 -0.246109 -0.830169 -0.091943 0.477624 
0.355181 0.697531 0.096696 0.740085 0.552359 -0.318640 
-2.089469 1.470555 -0.563246 0.571335 0.019160 -0.815562 
2.358030 0.522810 -0.180321 0.195812 0.186834 0.924797 
0.619281 -0.508679 0.060963 0.097193 -0.051006 -0.948278 
0.456999 0.653753 0.313597 0.411219 0.669322 -0.528420 
-1.075151 -0.035370 0.084112 -0.299473 -0.135886 0.942652 
2.039912 1.217643 -0.146305 0.243155 -0.214362 0.902946 
-2.427763 0.310664 -0.696970 0.463036 -0.166195 -0.865693 
1.983950 -0.268804 0.006044 0.217857 -0.264363 -0.924229 
1.258170 0.954432 -0.005954 -0.287331 -0.013992 -0.931186 
-0.122711 -0.666961 -0.004482 -0.022984 -0.382376 -0.917536 
-2.120661 0.053922 -0.359205 0.564801 -0.255565 -0.752489 
-3.001307 0.657454 -1.086416 -0.416843 0.109885 0.894562 
0.100586 0.056284 0.309148 0.110223 -0.204294 0.970039 
3.170835 0.615971 -0.037020 0.225176 -0.201150 -0.935175 
-1.186824 0.238013 0.058565 -0.411469 -0.147289 0.879155 
0.903184 0.819407 0.183361 -0.462009 0.143923 -0.871343 
-2.285281 0.789051 -0.732542 0.633399 -0.125540 -0.759785 
2.752643 0.994905 -0.208703 0.072144 -0.133900 -0.972260 
-1.991807 -0.351826 -0.207770 0.362639 -0.134010 -0.910902 
-0.018462 0.559208 0.496295 -0.050342 -0.306244 0.950005 
-0.400458 -0.000203 0.231314 -0.243161 -0.262611 0.915767 
-1.007685 -0.421340 0.019741 0.131101 0.042728 -0.976093 
-2.388624 0.568071 -0.740006 -0.655466 0.222826 0.679420 
-0.124406 1.271382 0.268141 -0.481300 0.818570 0.190548 
0.200058 1.069343 0.382208 0.430460 0.787102 -0.016227 
-2.272530 1.073382 -0.742247 0.682609 -0.234391 -0.679108 
-0.769918 -0.620534 0.078271 -0.256820 -0.029229 0.959606 
3.234789 1.194538 -0.062989 -0.362420 -0.133522 0.910027 
-0.366391 0.487056 0.055129 -0.698612 0.200767 -0.675581 
-0.231342 1.098875 0.242458 -0.886527 0.415602 -0.103219 
-0.168258 -1.167129 0.223704 0.243852 -0.426996 -0.865544 
-2.967613 0.591590 -1.062793 -0.435611 0.132541 0.882565 
0.580485 -0.275005 0.014417 0.271525 0.013420 -0.900905 
0.228041 -0.444149 -0.082546 0.468236 -0.287197 -0.806942 
-0.091249 0.773224 -0.067119 -0.452978 0.405330 -0.779497 
-2.051823 0.195624 -0.341073 -0.456928 0.095119 0.877884 
0.564624 0.077770 0.063753 0.366104 0.062584 -0.853096 
-0.152363 1.173716 0.337228 -0.912092 -0.105122 0.178111 
-1.137320 0.285655 0.084354 -0.421720 -0.172530 0.870846 
0.167078 0.856783 0.005117 0.570352 0.390418 -0.704610 
0.137365 1.110340 0.302202 0.733060 0.207116 0.503755 
0.783491 0.481584 0.244247 0.152704 0.286547 0.933221 
-2.520772 1.585320 -0.927131 -0.538811 0.153126 0.808406 
-1.122910 -0.777985 -0.048789 0.158031 0.004831 -0.959820 
-2.953982 0.876873 -1.094606 -0.420138 0.128955 0.893444 
1.676654 1.046537 -0.139847 -0.094598 -0.207594 -0.969140 
1.324971 0.906648 -0.017767 -0.115307 -0.167593 -0.976936 
-1.112793 0.553260 0.068397 0.163982 -0.059923 -0.981916 
2.760201 0.131957 -0.081161 -0.116810 0.201320 0.970922 
1.777861 0.761229 -0.130313 0.151462 -0.127766 0.926706 
3.696605 1.160864 0.161058 -0.435192 -0.027278 0.898401 
0.302548 0.891516 0.291116 0.901613 0.281806 0.151366 
3.390857 0.700892 0.035422 0.367245 -0.073234 -0.924436 
0.820565 -0.667634 0.038519 -0.067681 -0.044288 -0.974236 
0.308150 0.414049 -0.060217 0.696043 0.091959 -0.708193 
1.563280 1.144023 -0.106776 -0.084094 -0.217202 -0.970460 
2.678499 1.300289 -0.163804 -0.061454 -0.007751 0.970844 
-0.648889 0.354886 0.310502 -0.243498 -0.218022 0.916959 
2.637068 0.290642 -0.129881 0.159331 -0.167061 -0.968988 
-0.307681 -0.454862 -0.012816 -0.492840 -0.080026 -0.846632 
1.434087 -0.357121 -0.088842 -0.123639 0.059525 -0.984600 
-0.403135 -0.131391 0.183902 -0.316714 -0.214952 0.902839 
0.161455 0.985908 0.045479 0.586377 0.292729 -0.741711 
-2.183434 0.650324 -0.575348 -0.754307 0.230424 0.579710 
-0.083556 -0.632739 0.233876 -0.257355 -0.168858 0.946063 
-0.586673 0.662413 0.321065 -0.027634 0.209825 0.939427 
-0.361723 -1.091196 0.152331 -0.176540 0.123957 0.915067 
2.762175 1.074213 -0.198907 0.227677 0.148591 -0.951724 
-2.692688 0.728569 -0.970597 0.519210 -0.297432 -0.790560 
2.845605 1.033098 -0.189442 0.289203 0.124802 -0.940583 
-0.040188 -0.192523 -0.229062 -0.444180 -0.217042 -0.835466 
-0.219417 1.060862 0.382299 -0.337300 0.852244 0.049601 
0.221956 -0.763354 0.185277 0.151292 -0.123325 0.966089 
3.172956 0.868822 -0.066854 0.371652 0.036980 -0.920955 
0.316287 0.552300 -0.066208 0.693959 0.211464 -0.678068 
1.653728 0.643350 -0.124979 -0.088846 -0.144161 -0.983060 
-0.264164 0.658448 -0.084977 -0.603058 0.352728 -0.697716 
-0.261682 -1.190161 0.174602 0.325322 -0.097516 0.540725 
1.209893 0.327995 0.019992 -0.152956 -0.031267 -0.981826 
0.303915 -0.457967 0.194988 0.580680 -0.120196 0.799131 
1.023450 0.910928 0.138373 0.314575 0.050827 0.943803 
-0.444959 0.662475 0.319753 -0.466640 0.792963 -0.264346 
2.423736 1.416911 -0.162420 0.086865 -0.005732 0.971866 
-1.652554 0.794858 -0.131745 0.380131 -0.171119 -0.897389 
1.341587 -0.193199 -0.025565 0.181504 -0.087906 0.970997 
0.044749 1.237615 0.368155 -0.090891 0.799848 0.566085 
1.443721 0.469186 -0.050928 -0.117260 -0.097914 -0.985878 
0.695644 -1.014381 0.085304 0.144342 0.209363 0.962198 
2.002821 0.744063 -0.210383 0.076739 0.021162 -0.995231 
0.277909 -0.399447 -0.058991 0.546173 -0.143405 -0.817540 
-3.325023 1.323779 -1.238128 0.265564 0.008428 -0.962451 
-0.034239 1.275121 0.306737 -0.121333 0.876014 0.459087 
-2.190965 0.977746 -0.642108 -0.715269 0.059031 0.693982 
0.040952 0.241109 0.372810 0.026503 -0.316735 0.943011 
0.788399 -0.895733 0.040745 0.220551 0.053454 0.960445 
-0.506810 -0.021713 0.050496 -0.408220 0.043946 -0.843875 
1.089943 0.298049 0.098872 0.414844 -0.161745 0.882684 
0.111914 -1.043085 0.189889 0.168386 0.147369 0.974005 
2.931060 1.408645 -0.151495 -0.215833 -0.136214 0.939986 
0.639706 -0.205218 0.105979 0.363940 -0.144697 0.910292 
2.198499 1.363106 -0.178528 0.102235 0.046503 -0.990676 
3.215240 1.373921 -0.076883 0.380831 0.329973 -0.844545 
0.349393 0.544143 0.009718 0.690933 0.241793 -0.671890 
2.165913 0.374864 -0.132689 -0.004226 0.117038 0.953351 
1.210737 0.824275 0.024071 -0.129386 -0.148698 -0.979239 
-1.944525 0.880271 -0.324519 -0.709290 0.031514 0.669235 
1.275751 -0.263241 -0.020390 0.251855 -0.125878 0.955486 
-2.251436 0.749223 -0.670698 -0.677206 0.157774 0.708030 
-1.683397 1.343752 -0.120294 0.386423 -0.327011 -0.856116 
-1.972996 0.630164 -0.421051 0.781906 -0.266161 -0.526679 
-2.208075 1.496107 -0.688485 0.596029 0.027083 -0.798907 
-0.234064 0.804497 0.447424 -0.451604 0.234128 0.847209 
-0.630720 -0.155545 0.133413 -0.335578 -0.171585 0.911611 
0.120338 -0.193232 0.295655 0.186131 -0.072254 0.972031 
-1.775749 1.285367 -0.191728 -0.821441 -0.248757 0.473691 
-0.936790 -0.423451 0.040516 0.112763 0.019068 -0.977578 
0.228713 1.094751 0.165981 0.864365 0.396677 -0.306875 
1.785247 1.074634 -0.110031 0.179983 -0.192399 0.875809 
2.820258 0.616827 -0.149338 -0.224322 0.020566 0.957073 
-2.205822 0.730754 -0.618918 -0.709052 0.174085 0.668489 
-0.288533 0.395070 -0.127088 -0.753810 0.063356 -0.650209 
2.210762 0.991981 -0.185448 -0.065984 -0.062027 -0.978758 
-2.713785 1.041703 -1.019155 -0.490146 0.269788 0.820568 
1.875460 0.709277 -0.146705 -0.021058 -0.147641 0.933107 
1.135646 -0.050569 0.059871 0.276410 -0.124751 0.951342 
1.793216 0.886167 -0.125346 0.115132 -0.192195 0.908862 
-0.464928 -0.975715 0.112481 -0.243088 0.061825 0.966876 
-1.379183 1.028320 -0.014208 0.274731 -0.078686 -0.940743 
2.839911 0.316606 -0.106498 -0.166202 0.142720 0.966776 
0.355334 -0.554535 0.030886 0.371884 -0.062845 -0.895772 
-1.739373 1.144996 -0.137427 -0.606287 -0.267388 0.735737 
-0.130484 0.699221 -0.099980 -0.425175 0.497445 -0.717395 
-2.463989 0.857154 -0.854511 -0.524839 0.039322 0.829253 
3.141355 1.066953 -0.094937 -0.272775 0.031315 0.954431 
-1.580896 0.841049 -0.100102 0.348296 -0.168694 -0.909443 
0.228703 0.785504 -0.007415 0.566106 0.491020 -0.649976 
0.151536 0.152304 -0.224120 0.635969 0.005132 -0.746393 
-2.697428 0.556406 -0.943793 -0.485106 0.106673 0.852309 
-1.495501 1.145549 0.032481 -0.351632 0.004806 0.927398 
-2.250707 -0.305289 -0.328271 0.468948 -0.232563 -0.847464 
-0.043149 -0.568988 0.257976 -0.267635 -0.170710 0.937543 
-0.056745 0.162359 -0.291234 -0.560358 0.024549 -0.816647 
0.110619 0.549960 0.485987 0.125362 -0.284236 0.948286 
1.937860 0.872035 -0.122437 0.156972 -0.056844 0.939207 
3.346400 1.033490 -0.010267 -0.366759 -0.031420 0.919855 
-1.186264 -0.025164 0.010255 0.228782 0.046154 -0.962747 
-2.057005 0.582703 -0.504440 0.604393 -0.110067 -0.779488 
-0.756629 0.016956 0.175661 -0.255009 -0.218383 0.927945 
-1.548024 -0.270894 -0.086626 0.247309 0.003715 -0.963235 
-1.219935 0.850488 0.125433 -0.275985 0.031591 0.951330 
3.179844 0.792611 -0.056339 0.362339 0.014479 -0.923923 
0.774354 -0.335489 0.053008 0.017295 -0.003800 -0.955002 
-0.483396 0.440812 0.136919 -0.542039 0.217929 -0.740997 
0.040783 -0.467228 0.281111 0.125590 -0.208593 0.963157 
0.068837 0.527040 -0.208958 0.523329 0.296719 -0.778551 
-2.847157 1.397908 -1.110707 0.380690 -0.026681 -0.922212 
-0.067376 0.727144 0.480033 -0.083371 0.047424 0.991299 
-1.604977 1.285406 -0.010299 -0.216794 0.123986 0.916269 
-0.088927 0.085402 0.312693 -0.097971 -0.217087 0.970011 
2.139602 1.418405 -0.164823 0.121866 0.059955 -0.988192 
0.334017 -0.236520 0.015255 0.527652 0.006485 -0.843789 
-0.012284 0.083684 0.318760 -0.064385 -0.197104 0.976848 
-2.622513 1.259117 -1.009091 -0.499609 0.119609 0.846628 
-0.248367 -0.001671 -0.139132 -0.686169 -0.068325 -0.696278 
-1.692688 -0.090028 -0.156874 0.340944 -0.045900 -0.923072 
-0.253017 0.803159 0.026343 -0.608989 0.479219 -0.617145 
-0.179391 1.257577 0.389491 0.272680 0.952792 0.112762 
0.230944 0.665920 -0.090485 0.565728 0.382321 -0.701330 
0.634658 0.088613 0.224910 0.243960 -0.259552 0.920158 
-2.169110 -0.016920 -0.372398 0.569906 -0.281909 -0.736916 
0.061680 1.328419 0.199930 0.574731 0.746804 0.309296 
-0.428994 -0.271227 0.014232 -0.434039 0.013240 -0.860664 
-1.701292 0.328611 -0.182790 0.417132 -0.109785 -0.885493 
-0.304420 0.789678 0.115098 -0.764176 0.425723 -0.416389 
2.253959 0.543658 -0.190160 0.189764 -0.022648 -0.968749 
0.196715 0.091961 0.302297 0.136320 -0.250334 0.954814 
0.745017 0.337182 0.250376 0.328978 -0.250699 0.892101 
2.749754 0.527942 -0.149023 -0.158591 0.075092 0.968663 
1.502176 1.272022 -0.106235 -0.375244 0.058384 -0.899410 
2.941620 1.203550 -0.170629 -0.206195 -0.004488 0.974773 
1.841075 0.491995 -0.154286 0.055983 -0.032144 0.964215 
-3.092923 1.523761 -1.169363 0.277943 0.267854 -0.887268 
2.137098 1.184860 -0.172399 -0.011451 -0.245475 -0.950315 
-1.484921 0.993693 -0.051250 0.302864 -0.177605 -0.926271 
2.352779 0.830176 -0.205039 -0.056960 -0.028815 -0.991462 
0.619905 0.302190 0.103016 0.270289 0.057877 -0.884821 
-1.481394 -0.150922 -0.062750 -0.319143 -0.043836 0.936708 
0.060330 -0.232023 0.297449 0.151528 -0.033190 0.981078 
-2.699020 0.939964 -0.999256 -0.406272 -0.054570 0.903767 
-1.774672 0.070806 -0.203287 0.412069 -0.080831 -0.891860 
1.184191 0.835550 0.104313 0.424167 -0.065100 0.881158 
-0.819150 0.236838 0.105076 -0.049902 0.047532 -0.941091 
-1.518255 0.099057 -0.118252 0.354100 -0.033626 -0.912510 
0.437525 -0.602689 0.093947 0.369166 -0.043885 0.917651 
-2.141198 -0.109108 -0.309838 -0.431543 0.149997 0.884629 
1.295368 0.741818 -0.003141 -0.122987 -0.140383 -0.981190 
0.148091 0.664249 -0.121033 0.487666 0.416505 -0.738321 
-2.076558 0.744229 -0.485700 -0.792515 0.180140 0.576792 
0.305826 0.728442 0.019357 0.657928 0.533222 -0.500538 
2.559589 0.637701 -0.190699 -0.055013 0.081468 0.987497 
0.280922 -0.015482 -0.094164 0.675495 -0.072141 -0.706935 
0.583942 -0.937460 0.070470 0.015585 -0.132981 -0.974583 
-1.631497 -0.395598 -0.102357 -0.263862 -0.036543 0.962220 
2.453401 0.966889 -0.203978 0.055106 0.001105 0.996803 
1.362149 1.051974 0.034293 0.438064 -0.061245 0.874606 
0.755762 -0.511657 0.094752 0.273005 -0.030627 0.954895 
-0.308402 0.383371 -0.046337 -0.695019 0.073018 -0.712408 
-0.318095 -0.949708 0.083380 -0.025487 -0.226843 -0.966104 
1.632341 -0.024980 -0.127236 -0.077921 -0.027013 -0.992804 
-0.125332 0.628652 0.500416 -0.077182 0.205753 0.973619 
1.676718 -0.140168 -0.142445 0.074212 -0.003998 0.994581 
-1.504598 -0.551658 -0.123878 0.218423 0.098356 -0.966888 
0.071357 0.725536 0.480315 0.085258 0.050778 0.990758 
-2.262608 -0.161610 -0.391142 0.535654 -0.265705 -0.779924 
-0.077908 0.490398 0.472558 -0.080212 -0.317450 0.943754 
-2.395721 0.060870 -0.580404 0.500713 -0.201945 -0.830180 
0.129343 0.980339 0.490102 0.212038 -0.043235 0.973434 
-0.270382 -0.594511 -0.012379 -0.162251 -0.298535 -0.884137 
1.858882 0.579933 -0.175426 -0.169255 -0.142726 -0.965826 
-0.345703 0.415867 0.032567 -0.685448 0.140094 -0.703804 
-1.823368 0.915536 -0.216200 -0.564222 -0.184018 0.780979 
0.719848 -0.393876 0.085824 0.325500 -0.070927 0.934468 
2.557014 0.839966 -0.204550 -0.038839 0.026448 0.989296 
1.933491 0.799710 -0.183575 -0.278303 -0.177796 -0.937318 
2.825903 0.509798 -0.139149 0.092111 -0.264980 -0.953867 
0.331685 0.476606 -0.021608 0.704952 0.158125 -0.682029 
-1.994385 1.382821 -0.466075 0.553072 0.010696 -0.826487 
3.359787 1.316462 -0.001846 0.402567 0.291323 -0.832150 
-1.364092 0.216024 -0.021032 -0.428515 -0.082478 0.876895 
2.921409 0.273211 -0.072797 -0.173367 0.169914 0.965201 
-1.663317 1.276402 -0.054809 -0.648076 -0.303754 0.695685 
2.476360 1.381482 -0.200723 0.072418 0.064848 -0.993515 
2.221745 0.397747 -0.171466 0.244816 -0.079249 -0.960422 
-0.180265 -0.110426 0.284855 -0.258585 -0.155542 0.921435 
-1.630559 -0.325488 -0.108847 0.251880 -0.006165 -0.963180 
0.292503 0.790528 0.402714 0.621301 0.347773 0.625162 
-1.049817 -0.696942 -0.027045 -0.237177 -0.103329 0.958029 
0.975951 -0.448411 0.041801 0.271152 -0.073963 0.954362 
1.306304 0.831149 -0.009294 -0.119350 -0.154858 -0.978894 
0.114325 0.463088 -0.203512 0.594397 0.229078 -0.741225 
2.272210 1.139830 -0.176825 0.145768 -0.117108 0.949632 
-0.612187 0.209401 0.279285 -0.172961 -0.318245 0.924403 
0.146859 0.239351 0.374152 0.108426 -0.297849 0.946013 
-2.472833 1.517982 -0.904944 -0.576949 0.009487 0.798349 
-2.489248 0.979661 -0.887312 -0.497366 -0.023078 0.847436 
-2.573141 1.301033 -0.979469 0.481129 -0.001602 -0.868787 
-0.108790 -0.292788 -0.178702 -0.480247 -0.237545 -0.819230 
-3.073542 0.649906 -1.115809 -0.407084 0.123939 0.900383 
-1.202624 0.163733 0.045267 -0.386830 -0.129067 0.894533 
-1.043265 0.884415 0.146619 0.487256 0.200303 -0.845430 
-0.753609 0.683535 0.256692 0.295148 0.259976 -0.843461 
1.601961 1.300130 -0.124289 -0.075906 -0.243534 -0.966378 
0.635025 0.679305 0.292023 0.093086 0.166073 0.934268 
2.068036 1.482416 -0.132454 0.073598 0.312182 0.891852 
-0.996478 0.394489 0.155804 -0.463562 -0.216001 0.854626 
-0.981174 -0.733022 -0.020005 0.090530 0.027079 -0.972166 
-0.128524 0.056156 -0.229394 -0.595692 -0.026640 -0.781380 
0.849639 -0.525567 0.050338 -0.084140 -0.026195 -0.976294 
1.062129 0.066275 0.063486 -0.167939 0.060465 -0.982706 
-0.060853 -0.634411 -0.016573 -0.153946 -0.417731 -0.886349 
-1.898800 0.265731 -0.266579 0.501339 -0.128849 -0.853092 
0.912782 -0.192717 0.047980 -0.060616 0.035083 -0.962956 
-2.437782 1.019991 -0.854750 -0.548454 -0.004392 0.816110 
-1.565220 -0.162692 -0.092631 -0.328010 -0.025363 0.933141 
0.449683 -1.078845 0.124959 -0.006400 -0.223824 -0.969787 
0.132948 1.139941 0.478289 -0.213746 0.238985 0.882879 
1.113112 0.638125 0.108656 0.538053 -0.189675 0.815482 
-2.108839 0.541915 -0.468496 -0.584948 0.052590 0.765690 
0.945321 0.709535 0.145753 -0.533562 0.289302 -0.771713 
-1.911214 0.113440 -0.242159 -0.476311 0.088238 0.866328 
-0.016800 0.351807 0.417391 0.002000 -0.363198 0.930503 
-2.528376 0.568667 -0.844737 -0.565660 0.158516 0.801971 
0.300618 0.343876 -0.095175 0.740662 0.060794 -0.662213 
0.650156 0.494163 0.328241 0.110662 0.198815 0.957783 
-1.944132 0.765722 -0.418493 0.671658 -0.155147 -0.660731 
-2.021960 0.793510 -0.469770 0.486364 0.050533 -0.852805 
2.391909 0.182453 -0.111312 0.201863 -0.162637 -0.959265 
-0.129441 -0.451970 -0.117684 -0.400232 -0.368942 -0.821676 
-0.629467 -0.214724 0.025442 -0.240512 0.031217 -0.898331 
-2.027122 0.944942 -0.452950 -0.775206 0.028844 0.591493 
-1.771585 1.082741 -0.246158 0.441614 -0.063781 -0.848166 
-0.776186 0.500526 0.241566 -0.129212 0.298477 0.929977 
2.062917 0.287295 -0.145277 -0.239917 0.049589 0.943736 
-0.137342 -0.058957 -0.210707 -0.573139 -0.070326 -0.799444 
-0.076779 0.096488 -0.270037 -0.560674 -0.003012 -0.814753 
-1.074475 0.618745 0.156805 -0.477029 -0.161404 0.847324 
0.168792 -0.425170 0.277895 0.266835 -0.121165 0.949093 
0.104310 0.377332 -0.236088 0.610306 0.162080 -0.742755 
-2.282101 1.469178 -0.771350 0.617357 0.015083 -0.784198 
-3.128316 1.329551 -1.189741 0.311413 -0.010531 -0.947721 
-0.134773 0.821226 -0.030596 -0.497980 0.435027 -0.736649 
0.025785 -0.614228 -0.023290 0.308382 -0.459172 -0.826493 
-0.667445 -0.237077 0.094364 -0.371012 -0.133371 0.911243 
1.234558 -0.691072 -0.077510 -0.201491 0.045927 -0.960491 
-1.571939 1.590284 -0.009964 0.894952 -0.011743 0.015224 
0.891977 -0.799532 -0.001208 -0.081697 -0.033735 -0.969781 
0.071517 1.168157 0.062536 0.485879 0.181331 -0.841941 
2.312112 1.082538 -0.194654 -0.074873 -0.190697 -0.961166 
-1.202200 0.436427 0.068846 -0.485404 -0.176141 0.835806 
2.164855 -0.268240 0.015249 0.129390 -0.275360 -0.937593 
3.458491 0.828429 0.048716 0.389122 -0.059255 -0.918276 
-1.926862 0.346975 -0.270991 -0.526246 0.065151 0.840145 
-0.416300 0.298978 0.099095 -0.556857 0.102152 -0.781688 
1.923812 0.319675 -0.171722 -0.129825 -0.151791 -0.972496 
-0.885193 -0.285302 0.061651 0.082704 0.016819 -0.971358 
1.546140 1.060411 -0.098619 -0.088208 -0.203287 -0.972622 
2.638113 1.234248 -0.157352 -0.049727 -0.016697 0.962042 
-0.271875 0.988864 0.200696 -0.898898 0.359571 -0.211010 
-0.426982 0.488543 0.149763 -0.652712 0.259019 -0.684981 
-2.196922 0.423505 -0.501616 -0.705793 0.228937 0.653730 
-0.815803 -0.112395 0.113528 -0.311200 -0.157603 0.927429 
-2.120746 0.683150 -0.558882 0.484049 0.030405 -0.862149 
0.673303 -0.052799 0.159672 0.301141 -0.198037 0.917935 
-2.593336 -0.083401 -0.675774 0.560964 -0.262203 -0.782252 
-2.945226 0.778968 -1.080117 -0.400724 0.050282 0.905513 
1.157992 -0.740458 -0.052530 0.235809 -0.039149 0.953595 
0.551966 -0.533466 0.091719 0.346451 -0.050174 0.926421 
0.320591 -0.578536 0.159222 0.469067 -0.088418 0.872048 
-2.449450 1.430889 -0.905371 0.570312 -0.008084 -0.814198 
3.362967 1.113630 -0.002987 -0.383654 -0.081861 0.908408 
-1.342344 1.067421 0.041204 0.095601 0.345471 0.885844 
-1.513939 1.199817 -0.063047 0.345657 -0.020873 -0.916747 
-2.127365 0.442798 -0.500794 0.764753 -0.342091 -0.538109 
1.905525 0.984454 -0.158329 0.205959 -0.053645 -0.946048 
1.860541 1.354014 -0.097767 0.227970 -0.064193 0.957424 
-0.805386 0.080248 0.190655 -0.225377 -0.235125 0.934133 
-1.816508 1.312825 -0.262269 0.450827 -0.329065 -0.812471 
-1.820851 0.846279 -0.202581 -0.569173 -0.147510 0.780535 
-2.778877 0.965411 -1.034150 -0.411042 0.007766 0.902761 
-2.670846 1.431850 -1.041367 -0.443096 -0.064318 0.881590 
-0.190513 0.088605 -0.189483 -0.658922 -0.025353 -0.723677 
0.345859 0.661842 0.008998 0.735996 0.364655 -0.523869 
-2.068265 0.415360 -0.420235 -0.429561 0.004281 0.894040 
-0.713263 -0.061080 0.048361 -0.187786 0.052289 -0.896130 
0.112467 -0.605656 -0.036849 0.105130 -0.381240 -0.913606 
-1.110554 0.694090 0.152054 -0.395427 -0.085310 0.893468 
1.312375 -0.516957 -0.078078 0.275441 -0.139500 0.949736 
-2.022356 0.467776 -0.392718 -0.458086 -0.020396 0.878942 
0.056812 -0.196663 -0.221301 0.453835 -0.209992 -0.833352 
2.025471 -0.324730 0.024647 0.229170 -0.264240 -0.927954 
-0.235001 1.049111 0.155181 -0.831609 0.358748 -0.366257 
0.287547 0.455402 0.423133 0.126304 -0.231902 0.961340 
0.096785 0.658815 0.494353 0.071621 0.154580 0.979968 
1.122171 -0.119090 0.028832 -0.187599 0.078200 -0.977287 
0.978914 0.143881 0.079911 -0.101541 0.052573 -0.972717 
-2.027350 0.647965 -0.493159 0.558338 -0.025695 -0.821812 
-3.286328 1.233855 -1.231040 0.278752 -0.011672 -0.959050 
-0.190210 1.077175 0.098521 -0.677545 0.316528 -0.609685 
-1.613470 -0.254843 -0.110962 0.269306 -0.011050 -0.954594 
1.492991 0.799417 -0.073281 -0.101015 -0.159868 -0.979369 
1.007401 0.533755 0.167200 0.510567 -0.154721 0.842593 
1.967317 1.223893 -0.137613 0.271756 -0.236878 0.891246 
-2.642353 1.543630 -1.027437 0.449585 0.000043 -0.885824 
-0.584915 0.425268 0.132615 -0.384258 0.202307 -0.803787 
1.849620 0.248811 -0.151640 0.042963 0.077103 0.985285 
-0.790851 0.578368 0.223818 0.306469 0.387163 -0.796992 
0.809885 0.065811 0.177059 0.250559 -0.220520 0.931583 
2.069911 1.085652 -0.167259 -0.012838 -0.118233 -0.968220 
-1.211410 -0.113970 0.033571 -0.290266 -0.103429 0.948343 
2.651305 0.366077 -0.139000 -0.040909 0.167624 0.968615 
-0.714303 0.483664 0.286872 -0.117283 0.247771 0.946002 
-0.158547 0.275760 -0.232220 -0.680039 0.048689 -0.708693 
-1.735626 0.258263 -0.200276 0.435354 -0.100908 -0.879030 
-2.211242 0.373598 -0.557171 0.415348 -0.116520 -0.901873 
3.105572 1.192448 -0.119946 0.296480 -0.013723 -0.952760 
2.344075 -0.087743 -0.030550 0.125510 -0.222167 -0.956826 
-0.103405 -0.812324 0.211779 -0.203139 -0.038200 0.963094 
-2.738016 1.606218 -1.071362 -0.407414 0.411683 0.801824 
0.062172 1.101142 0.034495 0.402843 0.245975 -0.871431 
-0.854892 0.202393 0.191939 -0.310627 -0.233979 0.907506 
-0.651562 0.656079 0.293222 0.051964 0.454897 -0.752078 
0.140103 1.227066 0.161013 0.760611 0.550933 -0.217378 
-2.830959 1.129682 -1.076997 0.353709 0.047052 -0.929017 
-2.920774 0.645129 -1.052013 0.444559 -0.191677 -0.862323 
-0.606315 -0.602428 0.097780 -0.304217 -0.028143 0.942780 
-0.277644 -0.053200 -0.089136 -0.672973 -0.085181 -0.709848 
-0.000664 0.694605 -0.149004 0.305663 0.543343 -0.776381 
2.263517 -0.055717 -0.042159 -0.038559 -0.291380 -0.942392 
-2.053353 0.089538 -0.305400 -0.467249 0.120700 0.870415 
0.035220 -0.462258 -0.148236 0.284208 -0.465317 -0.829391 
0.375992 -0.557526 0.107884 0.420313 -0.071351 0.895975 
0.275006 -0.245047 0.239062 0.511693 -0.163112 0.801801 
-1.930622 1.488537 -0.399976 0.642685 0.185347 -0.706525 
0.051065 0.832560 0.494071 0.153431 -0.113000 0.976843 
-0.285712 0.299739 0.368347 -0.125509 -0.297411 0.944046 
-0.244578 -0.233209 -0.116626 -0.621818 -0.152513 -0.750177 
-2.004639 0.281968 -0.331599 -0.478277 0.084355 0.868720 
1.713923 1.318602 -0.122482 0.151057 -0.270944 -0.935480 
-0.012142 1.097219 0.485131 -0.071357 0.355568 0.900176 
0.683397 -0.539920 0.095091 0.292412 -0.031350 0.947384 
0.742340 0.572580 0.229195 -0.224155 0.471114 -0.753867 
-1.490786 0.481853 -0.053767 -0.542533 -0.084608 0.814629 
3.014328 1.196051 -0.154984 0.264706 -0.016888 -0.963278 
2.419258 -0.098619 -0.024235 0.112051 -0.232850 -0.958198 
-0.420838 0.155678 0.287184 -0.170001 -0.319664 0.924958 
2.275146 0.932001 -0.186898 0.123540 -0.025694 0.983312 
0.356560 0.263877 0.334507 0.132754 -0.273755 0.949792 
1.567597 0.871063 -0.061327 0.356485 -0.166617 0.880232 
-2.303681 1.354233 -0.700933 -0.630229 0.044726 0.725095 
0.220949 -0.037511 0.278873 0.278449 -0.215146 0.897334 
2.712647 0.319971 -0.131915 0.123068 -0.171428 -0.974243 
1.210492 0.123558 0.015682 -0.163825 0.022356 -0.981564 
-0.243478 -0.926573 0.087311 0.203301 -0.346172 -0.907929 
0.380512 -0.805029 0.135375 0.344832 0.000938 0.924377 
3.008114 0.470408 -0.070164 -0.240745 0.093915 0.953401 
-0.134754 0.499200 -0.185771 -0.590109 0.220932 -0.752625 
0.249164 0.293348 0.377283 0.124671 -0.323051 0.937076 
1.487581 0.678288 -0.068209 -0.104976 -0.140743 -0.982466 
-3.127166 1.458996 -1.180647 -0.306206 -0.109062 0.938108 
0.055994 0.393386 0.435110 0.038337 -0.347028 0.934723 
2.761328 0.447560 -0.137520 -0.149350 0.104372 0.970138 
