0.419695 0.658880 0.198092 0.692223 0.685353 -0.157980 
0.573093 0.802991 0.785506 -0.340816 -0.746873 0.570651 
1.061846 0.449022 0.572706 -0.141685 -0.689332 0.691384 
1.612687 1.587159 2.092605 0.082211 0.632487 -0.766714 
-0.958151 1.244275 1.395738 0.035363 -0.518860 0.850684 
0.833303 0.546007 0.444064 0.477889 0.697864 -0.494999 
0.387199 0.580283 0.080930 0.605156 0.380099 -0.565307 
1.008653 -0.535730 0.249425 -0.038641 -0.335997 0.902555 
-1.369539 0.456148 0.363525 -0.305870 0.509054 -0.804478 
1.816748 0.931790 1.458695 0.208766 0.783460 -0.537283 
-0.162276 0.647370 0.500140 -0.191722 0.300681 0.910807 
1.707516 0.896081 1.385322 0.266641 0.835645 -0.454879 
-0.022391 1.205052 0.441013 0.031923 0.680770 0.714859 
1.545175 1.686281 2.157803 0.124969 0.585623 -0.792754 
-1.317207 1.545358 1.780069 -0.352132 0.549794 -0.743140 
-0.002655 0.769195 -0.115035 -0.385189 0.255742 -0.885434 
-0.599423 1.362069 1.307639 0.115588 -0.748703 0.618410 
2.133991 1.020545 1.649969 0.045363 0.628690 -0.774274 
-0.635326 0.718913 0.585060 0.074095 0.672590 -0.709742 
0.827487 0.176252 0.332270 -0.025814 -0.457918 0.857590 
2.096556 1.328715 1.826007 0.070232 -0.548442 0.827522 
0.398017 -0.102352 0.054178 0.600368 0.055542 -0.786125 
-1.340385 0.876339 1.148376 0.080445 -0.786876 0.610422 
0.215939 -0.535038 -0.020374 -0.096259 -0.256161 -0.936768 
-1.175466 0.393315 0.297115 -0.344888 0.437289 -0.811095 
-1.645841 1.165355 1.508493 -0.012636 0.860022 -0.506056 
0.004797 -0.797509 0.156206 0.514209 -0.341803 0.778477 
-0.748345 0.551208 0.291686 -0.341240 0.563489 -0.681339 
0.654654 -0.764824 0.113928 0.000777 -0.238558 0.952509 
-0.611040 1.257827 1.209636 0.451077 -0.688992 0.539866 
-1.731642 0.702067 0.939784 0.209040 0.559018 -0.717585 
-0.761839 0.424800 0.335274 -0.125972 -0.580094 0.784629 
-1.196737 0.613655 0.589165 0.147309 -0.617954 0.753580 
0.305391 -1.302036 -0.039321 -0.051724 0.162707 -0.971387 
0.130281 1.229105 0.187253 0.705564 0.542787 -0.407787 
-1.574348 -0.121318 0.365073 0.144990 -0.480123 0.840007 
0.409692 -0.371143 0.081945 0.580269 0.026647 -0.785126 
0.093256 -0.734466 -0.023815 0.046948 -0.054199 -0.979122 
1.202930 -0.106538 0.376382 0.258713 0.381243 -0.847347 
0.810157 -0.353030 0.225152 -0.047130 -0.317984 0.912303 
-1.198346 -0.492463 0.200522 -0.063279 0.439541 -0.873318 
-1.226299 0.583249 0.487438 -0.353005 0.572238 -0.707734 
0.901810 0.899798 1.029486 0.472860 0.715379 -0.485215 
0.544263 -1.053916 0.027545 0.071442 0.192370 -0.945493 
2.034197 0.458364 0.973495 -0.414614 -0.791149 0.282047 
-0.938721 0.945423 0.973943 0.027986 -0.751272 0.656454 
0.906345 0.825253 1.001908 -0.045413 -0.733643 0.666514 
1.484453 1.749624 2.189714 0.103841 0.677648 -0.722920 
0.332873 -0.612615 0.156797 0.381291 -0.273195 0.868457 
1.697898 0.351534 0.669695 0.343352 0.697182 -0.549092 
1.014552 1.411633 1.714341 0.348793 0.706120 -0.585772 
0.001868 1.252404 0.394047 0.085557 0.750109 0.655084 
1.799312 1.228770 1.796047 -0.039267 -0.772424 0.628305 
1.364744 1.369557 1.834516 -0.174394 -0.568592 0.796512 
-2.054997 2.023424 2.138326 -0.096306 -0.454139 0.881471 
-1.307176 0.550851 0.496697 -0.309765 0.566790 -0.739026 
1.109146 1.287084 1.653928 -0.070677 -0.806357 0.558399 
1.426235 0.925344 1.330127 0.156967 0.562504 -0.801594 
-0.304102 0.331925 0.446436 -0.402448 -0.089543 0.899561 
-1.404720 1.719390 1.941375 -0.280756 0.529600 -0.798016 
1.458286 0.392967 0.668262 -0.270136 -0.624157 0.691247 
1.116137 1.004308 1.287349 0.346266 0.624908 -0.643827 
-1.835897 0.466699 0.653528 0.045297 -0.696683 0.703416 
2.101005 0.921996 1.527792 -0.031952 -0.624147 0.768892 
-1.704570 1.235698 1.635979 -0.007314 -0.835634 0.543949 
-0.916125 -0.506861 0.184281 -0.206204 0.218283 -0.916443 
1.942826 1.294074 1.802768 -0.031675 0.599891 -0.792959 
-0.069614 1.215842 0.134955 -0.539368 0.357885 -0.752354 
-1.045587 0.495945 0.325185 -0.316554 0.521549 -0.761522 
-1.784164 0.069618 0.448359 0.198179 -0.512918 0.817963 
-0.485021 -0.878863 0.039233 -0.164910 0.082606 -0.970923 
-1.981044 1.037304 1.235573 0.110664 0.857649 -0.480282 
1.177745 1.284329 1.671214 0.340409 0.607716 -0.679536 
-0.504359 0.644239 0.534914 0.361301 -0.541417 0.728148 
-2.272151 1.818648 2.020559 0.113952 0.442721 -0.883977 
1.125092 0.932454 1.252692 -0.133073 -0.777014 0.584227 
-0.046370 -0.376829 -0.142776 -0.327654 -0.255777 -0.900736 
0.774088 0.684230 0.685216 -0.173308 0.761140 -0.600243 
0.789008 0.639295 0.745217 -0.261188 -0.744182 0.581687 
1.903978 0.469263 0.958592 0.460799 0.771163 -0.248390 
-2.017137 1.136556 1.384859 -0.249287 -0.672699 0.613174 
-0.905494 1.244154 1.281121 -0.495670 0.564866 -0.569336 
-0.757732 -0.255928 0.165321 -0.071965 -0.300965 0.906850 
-1.060887 -0.492377 0.212017 0.040959 -0.321221 0.908691 
0.440464 0.056750 0.054181 0.570711 0.100498 -0.801724 
-1.417366 1.612147 1.876556 -0.323594 0.516687 -0.791552 
-0.346991 0.647420 0.009176 -0.632605 0.332871 -0.623319 
0.169256 0.358007 0.550144 0.341260 -0.010069 0.939683 
-0.065115 1.017705 0.034781 -0.401677 0.466189 -0.764953 
-1.460156 0.308451 0.397190 0.216860 -0.505257 0.823398 
-1.041027 1.699348 1.750213 -0.168345 0.711906 -0.637248 
-0.971125 -0.195922 0.215037 -0.237467 0.303778 -0.884332 
-0.992636 1.043526 1.078654 -0.443601 0.681143 -0.507463 
0.405828 1.414028 1.460041 -0.236221 -0.234122 0.904530 
-1.905353 1.869321 2.094797 -0.023773 0.384883 -0.912180 
0.721131 0.303124 0.338921 -0.001798 -0.513526 0.843408 
0.349650 -0.128335 0.009873 0.579716 0.006825 -0.803192 
0.173224 -0.616099 0.218683 0.247078 -0.378420 0.889994 
-0.663330 -0.501386 0.113497 -0.241586 0.177145 -0.914015 
-0.692561 -0.739091 0.107234 -0.180911 0.137749 -0.948450 
1.588539 1.451947 1.974898 -0.113521 -0.595748 0.786503 
-0.119706 -0.629494 0.224958 -0.192888 -0.398700 0.894842 
0.620884 0.336037 0.108279 0.494038 0.219712 -0.826572 
-0.316930 -0.596314 -0.003735 -0.430766 -0.033957 -0.870117 
1.983431 1.043720 1.645285 -0.059613 -0.659074 0.743643 
-0.096232 0.642393 -0.115601 -0.362257 0.139277 -0.901281 
-0.578963 -1.048637 0.019864 -0.391779 -0.125708 0.787389 
-1.342787 -0.283007 0.299030 0.099609 -0.403842 0.871848 
0.643693 -0.916403 0.040568 0.065699 0.284324 -0.927388 
-0.019478 0.549420 -0.148327 -0.355475 0.103645 -0.926392 
0.693843 0.062963 0.182750 0.511053 0.198033 -0.796305 
0.010548 -0.090934 0.435945 0.044385 -0.320212 0.942782 
0.757241 1.303784 1.488882 0.554382 0.541867 -0.581567 
-1.094117 1.076821 1.202522 -0.384994 0.660827 -0.554174 
-0.386598 0.632426 0.324236 0.282630 0.826517 0.187843 
-1.331434 -0.206631 0.321312 -0.240250 0.333943 -0.869512 
2.032009 1.618387 2.103697 0.027407 -0.660657 0.747130 
-0.081588 1.231650 0.404596 -0.078460 0.822952 0.547716 
-1.292969 0.488808 0.380002 -0.302571 0.541386 -0.776376 
1.246036 1.503517 1.910131 0.278266 0.659959 -0.689001 
1.347452 0.985815 1.366688 0.162286 0.523689 -0.834007 
-0.003468 1.223662 0.105175 -0.565468 0.272302 -0.738046 
1.384173 1.037658 1.498848 -0.139859 -0.612681 0.768992 
-0.989795 0.285335 0.303117 0.018204 -0.478723 0.833419 
-2.355906 2.273502 2.190825 -0.141128 -0.367225 0.918804 
0.465189 0.614694 0.365112 0.415254 0.825169 -0.222039 
-2.129810 1.990010 2.112228 0.054372 0.379536 -0.913282 
0.400897 0.244230 0.374318 0.413848 -0.223183 0.846402 
0.820754 0.311691 0.213682 0.450617 0.291354 -0.819242 
-1.008591 0.232038 0.251665 -0.399834 0.347606 -0.805520 
0.921211 0.538271 0.633319 -0.075002 -0.757125 0.646049 
-0.555690 -0.916977 0.029908 -0.100210 0.159476 -0.959171 
1.073337 -0.600652 0.207519 -0.024754 -0.456615 0.869581 
2.113406 0.651608 1.201387 0.148634 0.704031 -0.674025 
1.239702 1.063768 1.385971 0.297935 0.742093 -0.567972 
-0.353441 0.727443 0.189805 -0.940056 0.291653 -0.115625 
-0.615169 0.996398 0.829042 0.460174 -0.610786 0.519997 
0.255171 -0.548373 0.219090 0.373707 -0.309858 0.869022 
0.074342 -0.667541 -0.009577 0.085349 -0.092033 -0.977431 
-0.257303 0.968689 0.405653 -0.828728 0.037141 0.495015 
-0.292895 0.039863 0.397484 -0.486251 -0.237388 0.825327 
-1.217090 1.548890 1.717678 0.088392 -0.494636 0.860355 
-2.446078 1.592499 1.845756 0.165343 0.587408 -0.776436 
0.597016 1.007977 1.074270 -0.694006 -0.525217 0.194976 
-0.088890 -0.672305 -0.014159 -0.030526 -0.095671 -0.982073 
-0.880012 1.099258 1.066572 -0.514877 0.658969 -0.483964 
-0.223634 0.152730 0.470095 -0.390381 -0.203072 0.880938 
0.093298 0.359227 0.557699 0.228280 -0.017305 0.963515 
-0.732661 1.524538 1.460972 -0.544341 0.605519 -0.560360 
-0.247546 0.206360 -0.068102 -0.413794 -0.035338 -0.904419 
1.977520 0.579097 1.094009 0.294501 0.726143 -0.479786 
1.127378 -0.160353 0.353796 -0.138462 -0.410118 0.867454 
0.255710 1.039044 0.272592 0.894981 0.386659 -0.033180 
0.376910 0.158986 -0.011319 0.507148 0.043272 -0.847490 
1.089877 0.796475 1.057598 -0.109017 -0.744190 0.644608 
-0.586830 -0.769636 0.066616 -0.045683 -0.211631 0.961266 
-1.733443 1.167656 1.510903 -0.097744 -0.720705 0.622797 
0.248471 -0.433275 -0.053971 0.375540 -0.165176 -0.856381 
-0.359474 1.654935 1.400710 -0.091715 0.633430 -0.670983 
0.113066 -0.404154 -0.107581 0.348510 -0.258441 -0.884081 
-0.564336 -0.559522 0.086619 -0.284795 0.127147 -0.906576 
1.373627 1.618762 2.063008 0.173767 0.661798 -0.724340 
0.667186 0.877888 0.986147 -0.274561 -0.740577 0.586601 
1.899483 0.987361 1.547860 0.146764 0.729818 -0.629540 
0.602540 -0.709972 0.114301 0.212881 0.145087 -0.941062 
0.917572 -0.679013 0.168279 0.102358 0.343898 -0.892734 
-0.877028 -0.562295 0.163439 0.014971 -0.276216 0.928339 
-0.078876 0.837311 -0.067501 -0.464722 0.372083 -0.786978 
-1.791987 0.682912 0.907648 -0.271504 -0.576583 0.661673 
-0.757760 1.184637 1.168851 0.010813 -0.762230 0.645455 
0.940108 0.310382 0.397318 -0.094365 -0.517436 0.833019 
-0.051989 1.281455 0.347990 -0.245862 0.778611 0.564520 
0.308051 -0.004549 0.377030 0.496095 -0.237427 0.823974 
-0.625363 1.394831 1.370845 0.014505 -0.480660 0.875824 
-1.100369 1.416688 1.600269 0.178643 -0.483677 0.847862 
0.239327 1.066765 0.339497 0.886603 0.423119 0.125951 
-0.367873 0.099739 -0.018795 -0.488944 0.072618 -0.852144 
0.646793 0.302371 0.319556 0.029352 -0.512954 0.846682 
-0.674849 0.668047 0.550055 0.280666 -0.565008 0.744513 
-0.772219 -0.605629 0.131193 -0.001376 -0.259787 0.937537 
0.416567 -0.242769 0.082784 0.613525 0.037178 -0.771016 
-1.445312 1.417149 1.762238 -0.300334 0.587549 -0.747142 
2.302419 1.831347 2.259278 0.057938 -0.645061 0.761521 
0.264302 -1.208992 0.014979 -0.380582 -0.254609 0.722872 
-2.206815 0.961190 1.041341 -0.271735 -0.701827 0.628808 
-0.622230 0.351478 0.084688 -0.435491 0.253512 -0.848835 
0.672278 0.964231 0.938132 0.089294 0.736927 -0.652145 
-0.081849 -0.139695 -0.146692 -0.433562 -0.107207 -0.875498 
-0.133467 0.442144 -0.104402 -0.366040 0.042469 -0.927018 
-0.795679 -0.189280 0.173843 -0.337872 0.236811 -0.856162 
0.845659 1.296756 1.523942 0.508298 0.559586 -0.599352 
0.697404 0.976277 1.008033 0.555938 0.696098 -0.442721 
-0.552346 0.544531 0.215220 -0.463242 0.585295 -0.542727 
1.423536 1.574776 2.038069 -0.097619 -0.681248 0.719383 
1.007681 0.704720 0.890623 -0.089350 -0.702173 0.689532 
-0.662045 1.428507 1.318904 -0.643690 0.667684 -0.345311 
-0.990815 0.743157 0.680718 0.077831 -0.669133 0.722949 
0.955137 0.004194 0.319141 -0.051943 -0.382848 0.877428 
1.742334 1.142255 1.683320 0.112469 0.666086 -0.714231 
-1.445837 0.676717 0.863679 -0.186315 0.695560 -0.670645 
-1.658100 1.598581 1.944251 -0.138313 0.520474 -0.831944 
0.715768 -0.667604 0.153518 0.206531 0.176096 -0.928034 
-0.342844 0.771257 0.250913 -0.941290 0.261499 0.000051 
0.059863 -0.385420 0.312093 0.019930 -0.223038 0.968490 
-2.103292 0.989335 1.126832 -0.280368 -0.644583 0.662355 
-0.213858 1.043481 0.136522 -0.711871 0.397205 -0.517695 
1.398885 0.619430 0.972244 -0.233927 -0.694116 0.664285 
-1.304803 1.476112 1.721742 0.160090 -0.486427 0.850377 
-1.073323 0.629099 0.552693 0.087330 -0.639521 0.743481 
-1.843001 0.992073 1.217000 0.064833 0.873106 -0.462645 
0.086239 0.685338 -0.113863 0.350347 0.199371 -0.893335 
-0.830919 0.040316 0.226092 -0.081633 -0.374130 0.870655 
-1.707744 0.500430 0.661611 0.084563 -0.678059 0.711640 
-1.980358 1.846695 2.075440 -0.065590 -0.486480 0.867249 
-0.678855 0.994802 0.861822 0.623770 -0.578906 0.394762 
0.801686 0.447573 0.348685 0.456639 0.513670 -0.658059 
-1.562831 1.176060 1.523000 -0.082161 0.856533 -0.492454 
1.146564 0.907056 1.189933 0.383667 0.710609 -0.554492 
0.701838 1.106253 1.266967 0.030009 -0.758850 0.638937 
-0.563103 1.425424 1.327462 0.872782 -0.321886 0.038345 
1.619587 1.514654 2.032823 0.083696 0.659466 -0.741725 
-1.687199 0.578548 0.792982 -0.113343 0.717974 -0.670010 
-0.057632 0.079141 -0.171128 -0.467903 -0.004570 -0.874117 
-0.832832 1.567972 1.576768 0.092592 -0.537133 0.830912 
-1.140030 1.191444 1.424999 0.041582 -0.614035 0.771576 
-1.435688 0.448916 0.389668 -0.294413 0.520402 -0.797902 
0.156547 -0.486243 -0.053009 0.178775 -0.344714 -0.899543 
-0.134599 -0.319640 -0.114596 -0.441872 -0.171732 -0.864002 
1.864850 1.695471 2.174400 0.031137 -0.686311 0.724220 
-0.479889 0.510643 0.468920 0.350042 -0.595973 0.702072 
1.728598 0.637430 1.104713 0.319778 0.692663 -0.474705 
1.446237 0.996583 1.424335 0.301148 0.871100 -0.373235 
-2.127436 1.053926 1.214306 -0.256360 -0.701476 0.610216 
1.346312 0.595428 0.877795 0.305831 0.656631 -0.664126 
-1.414851 0.728115 0.938630 -0.190508 0.726059 -0.635460 
-0.483915 -1.077930 0.011454 -0.062676 0.120942 -0.968811 
0.087497 0.861092 -0.057638 0.474446 0.399032 -0.771215 
-0.788357 1.526509 1.517155 0.058016 -0.504981 0.859471 
-1.113645 1.014005 1.132905 -0.371162 0.693873 -0.537093 
-1.776486 0.161165 0.470513 0.217204 -0.494060 0.819383 
0.738283 0.927480 0.966643 0.535838 0.709397 -0.444984 
0.365180 -0.446384 0.179544 0.421345 -0.268749 0.848556 
-2.384586 1.701000 1.929216 0.151298 0.521297 -0.827550 
1.711850 0.051187 0.547980 0.223307 0.514424 -0.790915 
-2.265666 0.884904 0.916194 0.271192 0.709856 -0.635096 
0.534775 0.598640 0.271591 0.618624 0.689462 -0.345466 
-1.041897 -0.644724 0.133207 -0.000546 -0.428675 0.889991 
1.076082 0.417566 0.463035 0.393216 0.575117 -0.680546 
1.402567 0.489453 0.787990 -0.249684 -0.635825 0.705551 
-0.746765 0.877708 0.805580 0.288080 -0.733003 0.596460 
-2.403918 1.642087 1.886970 -0.159245 -0.541463 0.810048 
-0.406052 -0.784732 0.084559 -0.239831 -0.213517 0.924653 
0.261105 0.042118 0.418591 0.431941 -0.243417 0.854587 
-0.092813 -0.405531 0.307320 -0.047593 -0.255866 0.960592 
-0.468970 0.163446 0.047947 -0.493369 0.161951 -0.839161 
1.551104 1.557255 2.052610 -0.071781 -0.655458 0.749060 
-0.160254 0.171849 -0.116731 -0.442328 -0.010517 -0.890429 
-0.367637 0.553139 0.079137 -0.552994 0.375500 -0.580169 
1.824085 0.751239 1.250934 0.144869 0.632173 -0.714850 
1.307900 0.472234 0.720014 -0.224344 -0.605072 0.745335 
-0.017762 -0.860592 0.100211 -0.414100 -0.376461 0.825154 
-1.936405 1.605237 1.951794 0.011195 0.560562 -0.809802 
2.275531 1.314270 1.780933 -0.090669 0.657698 -0.731759 
-0.290433 0.906255 0.181193 -0.865630 0.362375 -0.256055 
0.723775 -0.372545 0.192029 0.334152 0.198163 -0.870723 
0.755476 1.197747 1.429483 -0.023527 -0.578631 0.793755 
0.247776 -0.064171 0.394744 0.427584 -0.263917 0.849990 
2.275521 1.510218 1.977553 0.083005 -0.625973 0.771620 
-0.676750 0.417638 0.324253 -0.174556 -0.582248 0.783592 
0.431329 -0.934887 0.032013 0.188722 0.067737 -0.971223 
-0.791301 0.586541 0.340986 -0.329762 0.639052 -0.630125 
-0.089890 0.904587 -0.025674 -0.504415 0.421098 -0.728331 
0.336733 0.794224 0.315530 0.914544 0.271398 0.261253 
0.085729 -0.186706 -0.142225 0.419349 -0.133129 -0.878837 
0.234251 0.932398 0.437391 0.727413 -0.028125 0.657418 
-1.508489 1.446642 1.806135 -0.263156 0.574575 -0.769209 
0.564978 0.457344 0.183819 0.539118 0.416768 -0.633683 
1.287011 1.043217 1.475835 -0.163374 -0.611697 0.768879 
1.744056 1.538966 2.057926 0.039385 0.663232 -0.740676 
-0.499935 -0.493306 0.079969 -0.381287 0.091432 -0.871641 
-1.142758 -0.438041 0.233874 0.056235 -0.350506 0.896999 
-0.951867 0.075070 0.247473 -0.010517 -0.382797 0.868245 
0.292456 -0.214222 -0.048947 0.529243 -0.085961 -0.834671 
1.684263 1.386938 1.922748 0.051993 0.762928 -0.627760 
0.729976 0.375228 0.210670 0.469702 0.333617 -0.772035 
-0.809524 0.824210 0.637772 0.105939 0.743637 -0.611270 
0.932081 1.000106 1.184876 0.472173 0.686770 -0.512285 
-1.057866 -0.182358 0.245415 0.096944 -0.371269 0.886410 
-0.953157 0.589658 0.520240 -0.094577 -0.720315 0.686116 
-0.331544 0.738345 0.122937 -0.859047 0.352942 -0.271452 
2.261888 1.876094 2.298527 -0.039154 0.634434 -0.769668 
-0.726740 -0.436935 0.136983 -0.035225 -0.277987 0.924794 
2.119097 0.548324 1.089454 0.274093 0.752887 -0.491973 
1.819495 0.674627 1.175203 -0.347525 -0.850352 0.303675 
-1.059327 0.594055 0.452259 -0.272428 0.677551 -0.670267 
1.873265 0.400863 0.820020 -0.344078 -0.857244 0.361505 
-1.539992 0.988685 1.325001 -0.000430 -0.744787 0.552514 
-1.861537 2.060838 2.174137 0.015087 0.430344 -0.897791 
-0.659825 0.189022 0.119834 -0.460043 0.227918 -0.827413 
-0.063691 0.324228 -0.162804 -0.424557 0.049233 -0.901623 
-1.280194 0.866362 1.095517 0.071952 -0.778903 0.620420 
-0.253774 0.583788 0.470747 -0.462931 0.055009 0.855199 
-1.661118 0.694069 0.968866 -0.095931 -0.660262 0.660648 
1.154659 -0.229597 0.344658 0.239382 0.348139 -0.859729 
0.220129 1.049728 0.498288 0.598100 0.686113 -0.330841 
-0.356929 -0.857971 0.080206 -0.196916 -0.223515 0.932764 
-0.787391 1.382360 1.407229 -0.026644 -0.709538 0.684633 
-1.845760 0.918985 1.144965 -0.106256 -0.851198 0.450869 
-0.562884 1.526862 1.411226 0.481169 -0.095259 0.833713 
-0.777213 1.433409 1.475493 0.215767 -0.589541 0.767459 
-2.035957 1.619726 1.945495 -0.047369 -0.436544 0.891712 
0.796450 1.446746 1.675063 -0.053144 -0.635939 0.760986 
1.756447 0.361309 0.722411 -0.318725 -0.763207 0.487544 
0.985333 0.962187 1.222092 -0.070058 -0.760352 0.625903 
0.730912 -0.131239 0.224807 0.063883 -0.321999 0.907043 
1.941660 1.582866 2.080081 0.000897 0.652412 -0.753950 
1.655455 1.784116 2.257788 0.027208 -0.712025 0.701344 
-0.071079 -0.434108 -0.105981 -0.232967 -0.333299 -0.909752 
1.225504 -0.441103 0.294909 -0.055707 -0.462872 0.855756 
0.185060 -0.061032 0.427129 0.322954 -0.279047 0.892829 
-0.228942 0.699925 0.463248 -0.413077 0.269057 0.840590 
1.981899 0.231626 0.652879 -0.186077 -0.613190 0.759294 
-0.999269 0.999005 1.023311 -0.433775 0.697519 -0.502898 
0.250880 -0.637766 0.180272 0.325897 -0.327460 0.864288 
-0.276226 -0.032868 0.385949 -0.473022 -0.252722 0.827739 
-1.749429 0.614110 0.889729 -0.005603 -0.725101 0.654964 
-0.978225 -0.006681 0.231259 -0.307749 0.326699 -0.848071 
1.109848 1.419751 1.767756 0.316971 0.700170 -0.614403 
1.350713 1.285193 1.765631 -0.176702 -0.809714 0.553093 
0.706975 -0.851933 0.076236 0.022703 -0.323494 0.929987 
0.618861 0.479821 0.239695 0.529066 0.482615 -0.596449 
0.156539 -0.134202 -0.119554 0.505541 -0.066848 -0.852404 
-1.190003 0.307274 0.329372 0.133524 -0.475194 0.835761 
0.411844 0.115056 0.338184 0.440776 -0.249872 0.829315 
0.992634 -0.263773 0.292319 0.254020 0.308776 -0.876652 
0.589227 -0.602316 0.113456 0.050047 -0.236226 0.951029 
-1.783524 0.508840 0.701146 -0.095165 0.705567 -0.685779 
-0.947353 -0.726536 0.097897 0.000082 0.404938 -0.899221 
0.915402 0.458141 0.543552 -0.071315 -0.743063 0.655474 
-1.364997 0.615661 0.717552 0.158621 -0.651502 0.719390 
1.575248 1.132971 1.628899 0.175480 0.768569 -0.608193 
0.972680 1.470722 1.760738 -0.056031 -0.639026 0.759804 
-0.788364 -0.007524 0.191234 -0.463353 0.227417 -0.801792 
1.472801 -0.086249 0.458502 -0.133143 -0.479320 0.829220 
-0.835830 0.619381 0.388454 -0.316157 0.708399 -0.586158 
-1.911711 0.265080 0.515201 -0.292971 0.509059 -0.798951 
0.702984 1.270729 1.408913 0.582893 0.633519 -0.429855 
1.765172 1.804488 2.265779 0.080845 0.536159 -0.835014 
-1.176172 0.434539 0.364491 0.125742 -0.540935 0.809196 
-0.080778 -1.196982 -0.089307 -0.280804 0.137262 -0.947559 
-2.070165 1.321308 1.726983 -0.097721 -0.836446 0.517904 
-0.656391 0.624057 0.415751 0.009702 0.831917 -0.346349 
-0.997560 -0.087801 0.238209 0.091396 -0.383432 0.881291 
-0.728282 0.852360 0.721381 0.519244 -0.645300 0.545109 
-1.815475 2.004949 2.168904 -0.055862 -0.486851 0.868895 
1.387530 -0.344740 0.344175 -0.073686 -0.534869 0.826026 
1.091965 0.512529 0.602175 0.404746 0.609691 -0.641845 
0.346412 0.658817 0.366141 0.658976 0.350283 0.580504 
0.315227 -0.810207 -0.011051 0.145597 -0.050562 -0.952509 
-0.830790 0.752046 0.684411 0.050275 -0.724285 0.655161 
-1.147707 1.247398 1.473999 0.116315 -0.646297 0.730754 
0.525532 0.056652 0.097643 0.550953 0.132849 -0.799677 
0.700141 -0.266968 0.194302 0.425046 0.178569 -0.829285 
-2.025306 0.631579 0.757384 0.443996 0.449208 -0.752282 
-0.234840 -0.257711 -0.075540 -0.522634 -0.112081 -0.839937 
-2.080571 1.136964 1.351286 0.134863 0.867813 -0.466046 
1.767038 0.475367 0.884020 0.345802 0.826017 -0.405245 
0.692311 0.785996 0.889968 -0.380360 -0.739994 0.516246 
2.009929 1.334059 1.844855 -0.035580 0.750072 -0.638351 
0.269955 0.725282 -0.045442 0.575613 0.410134 -0.676678 
0.685203 0.426652 0.249563 0.483170 0.413939 -0.699960 
0.285612 -0.274636 0.309703 0.499326 -0.286273 0.806103 
0.953651 0.467816 0.461721 0.423129 0.623087 -0.615417 
1.155261 0.470517 0.580972 0.387228 0.572653 -0.686596 
1.463247 0.715147 1.132681 -0.236269 -0.768807 0.588348 
-0.472596 1.521176 1.386247 0.544991 -0.601632 0.528006 
0.902496 0.938092 1.148225 -0.042028 -0.750086 0.643534 
-1.997638 0.390779 0.618147 0.155745 -0.627071 0.743949 
-0.810664 -0.531592 0.151880 -0.202641 0.202243 -0.923442 
-1.018607 0.350562 0.322219 0.037069 -0.507502 0.823095 
-0.661971 -0.331016 0.130956 -0.354684 0.171216 -0.864399 
1.673650 0.502034 0.897786 -0.297185 -0.791357 0.487868 
-0.798482 0.125235 0.243680 -0.097081 -0.416446 0.855079 
0.095600 -0.022179 0.460458 0.181423 -0.292753 0.934141 
-1.017170 0.428067 0.350619 0.030792 -0.552844 0.801892 
0.834817 0.797517 0.848515 0.487678 0.740763 -0.450954 
-0.236545 -0.457085 -0.045936 -0.267976 -0.189697 -0.874958 
0.413375 0.648334 0.323946 0.490660 0.809576 -0.117643 
-1.869836 0.673461 0.866545 0.403888 0.429479 -0.787108 
0.167242 0.986007 0.497455 0.355476 -0.155162 0.875582 
0.136504 0.196614 -0.130801 0.444212 -0.001208 -0.890745 
0.091539 1.003294 0.528767 0.173854 -0.130620 0.970533 
0.847107 -0.694755 0.162255 0.137997 0.275683 -0.907152 
-0.637334 0.359435 0.284726 -0.180693 -0.538122 0.809933 
-1.916287 0.960176 1.160497 -0.320693 -0.492223 0.772779 
1.885674 0.889021 1.425341 0.197195 0.774556 -0.557838 
-0.036919 1.162949 0.092298 -0.407778 0.378320 -0.817969 
0.581743 0.188739 0.108357 0.521458 0.178151 -0.812126 
-0.595873 1.503408 1.350544 -0.433198 0.603428 -0.645593 
-1.035951 0.869784 0.938731 0.038855 -0.752246 0.654297 
-2.244510 2.035663 2.113235 -0.127540 -0.427370 0.891801 
-0.165631 1.218974 0.318777 -0.655048 0.724718 -0.024423 
-0.227181 -1.029336 0.005048 0.209587 -0.315413 0.923361 
-0.625396 0.521811 0.219499 -0.406413 0.517370 -0.655118 
0.385527 0.400112 -0.017144 0.514076 0.078978 -0.848675 
1.462584 1.519707 1.996835 0.172740 0.653133 -0.730060 
0.941185 1.293910 1.584956 -0.007985 -0.794354 0.574292 
1.245638 1.251628 1.667660 0.294868 0.657327 -0.667033 
-0.737029 0.470873 0.212536 -0.365658 0.424838 -0.778028 
0.731065 0.437664 0.499091 -0.101761 -0.667739 0.703475 
1.351949 1.025699 1.428783 0.317123 0.886220 -0.331413 
1.402375 1.175877 1.632544 0.216118 0.748686 -0.623599 
1.052696 1.494237 1.810870 0.331325 0.682104 -0.625481 
0.549299 1.128078 1.258988 -0.364830 -0.731965 0.564185 
-2.248466 1.374713 1.747246 -0.112165 -0.565029 0.785957 
-0.391281 -0.821396 0.022943 -0.255006 0.044651 -0.939924 
1.620477 0.035139 0.518924 0.232239 0.492836 -0.800249 
0.987713 1.244616 1.549773 -0.078049 -0.748681 0.620961 
0.077756 -0.493318 -0.060626 0.105167 -0.460931 -0.873531 
-1.876123 1.237766 1.555978 0.059586 0.833319 -0.528491 
-2.094401 0.863924 0.968525 0.289894 0.627209 -0.695059 
1.144768 0.053580 0.382229 0.300150 0.399758 -0.842212 
-1.117850 0.702549 0.698268 0.104131 -0.665018 0.720270 
1.294246 0.672245 0.992307 -0.190938 -0.712602 0.657535 
-1.086442 0.844559 0.871580 -0.370319 0.736768 -0.518349 
0.184990 1.091819 0.124879 0.639456 0.424307 -0.601850 
1.384059 0.384175 0.592735 0.322814 0.549494 -0.748984 
-1.164032 1.116264 1.305185 -0.291743 0.547588 -0.717317 
1.776831 1.658676 2.149908 0.053742 0.593734 -0.795830 
-0.511771 0.109089 0.071598 -0.497059 0.162900 -0.829671 
0.722820 0.142188 0.296142 0.023345 -0.442557 0.867068 
-1.761182 1.775756 2.069816 -0.065195 0.432532 -0.893804 
2.210106 0.562630 1.123855 0.218792 0.754118 -0.560783 
0.674337 1.057704 1.189160 0.038573 -0.749421 0.653258 
-1.309948 -0.363759 0.259135 -0.119507 0.427956 -0.864551 
1.186055 -0.298700 0.343979 0.220651 0.341426 -0.861374 
2.100502 1.736900 2.191809 -0.011122 0.610719 -0.783190 
0.161713 1.046521 0.381347 0.505050 0.795681 0.255603 
-0.312951 -1.183000 0.027229 0.060257 -0.146848 0.982188 
0.535579 1.276358 1.421756 0.048017 -0.537039 0.839743 
-0.001274 1.297314 0.127788 0.621547 0.146273 -0.716171 
1.465130 1.689152 2.151095 -0.065682 -0.719515 0.684193 
1.682371 1.565194 2.090046 -0.054795 -0.647720 0.759232 
0.424557 0.036498 0.296349 0.395546 -0.248601 0.850557 
-0.739579 -0.510843 0.131779 -0.203930 0.201115 -0.924586 
1.895981 0.341800 0.726806 0.314965 0.736302 -0.530445 
-1.080503 1.213939 1.341933 -0.365798 0.677035 -0.557497 
1.446616 1.642783 2.099502 0.152123 0.632265 -0.751465 
-0.969250 0.873099 0.822288 -0.438126 0.730757 -0.485133 
0.050188 0.518357 -0.140942 0.374156 0.085267 -0.920509 
0.124382 0.636747 0.507147 0.092823 0.266676 0.948193 
1.636913 0.397909 0.716514 0.346457 0.709559 -0.535703 
1.010357 0.175749 0.329046 0.423465 0.338884 -0.800504 
-0.668294 0.101347 0.224232 -0.172422 -0.414201 0.855209 
-1.015996 0.557898 0.396472 -0.281179 0.626529 -0.700639 
0.643327 -0.997682 0.039862 0.270805 -0.245950 0.810075 
0.319329 -0.080344 0.347787 0.518993 -0.246145 0.809441 
-0.005593 -0.989179 -0.068833 -0.564222 0.146088 -0.794784 
1.793712 1.579927 2.088343 0.033484 0.639677 -0.765317 
0.530035 -0.020438 0.202778 0.129934 -0.370213 0.899252 
0.369132 -1.347210 -0.009814 0.813539 0.008627 0.408421 
-0.529397 0.218481 0.258370 -0.277365 -0.449002 0.824356 
0.209076 0.066830 -0.090823 0.456726 -0.051663 -0.880929 
0.220347 0.589350 -0.086073 0.469123 0.110291 -0.854537 
-2.423252 1.391691 1.720941 -0.159785 -0.659461 0.719164 
0.922126 0.428914 0.391476 0.428561 0.529417 -0.676131 
0.574200 1.215011 1.221098 0.265443 0.771594 -0.552556 
-0.176245 -0.778292 0.145779 -0.057376 -0.368456 0.903288 
0.274224 0.897643 0.135878 0.806057 0.383016 -0.372477 
-2.002085 0.704511 0.843090 0.396926 0.486965 -0.749232 
-0.062688 -0.240583 -0.146513 -0.383978 -0.172876 -0.887800 
-1.238930 0.457195 0.326308 -0.319703 0.485467 -0.804038 
1.128349 0.439849 0.522846 0.383781 0.622503 -0.656508 
0.246953 1.042057 0.198763 0.851590 0.416080 -0.261786 
1.939752 1.193869 1.765490 -0.015321 -0.731183 0.670082 
0.090758 -0.677156 0.207799 0.215449 -0.407822 0.879775 
0.972117 0.232475 0.384649 -0.095214 -0.483182 0.843145 
1.172582 1.033029 1.428055 -0.237141 -0.794034 0.506723 
0.984614 0.393267 0.486360 -0.113256 -0.638891 0.735261 
-0.061608 -0.584508 -0.023785 -0.092938 -0.212989 -0.955280 
-1.415935 0.073626 0.364895 0.171810 -0.450992 0.845769 
1.372095 0.665828 1.023290 -0.218189 -0.716744 0.647760 
-0.749995 0.794893 0.668435 0.461311 -0.617528 0.603314 
0.179691 1.200225 0.546566 -0.493337 0.579646 0.611721 
1.256931 0.790609 1.099045 0.330990 0.742202 -0.563449 
1.954904 1.710301 2.177560 0.023522 0.582310 -0.801971 
0.509341 -0.991937 0.029502 0.173212 -0.173478 0.899642 
2.039982 0.744182 1.299514 -0.050256 -0.613862 0.755122 
0.582076 0.856564 0.860309 -0.453720 -0.694767 0.464010 
-0.567322 0.425406 0.110173 -0.412396 0.315409 -0.817853 
1.071069 1.129147 1.469081 -0.073688 -0.663956 0.715141 
-0.587225 1.201450 1.053610 0.695519 -0.421273 0.231995 
-0.159018 0.053179 -0.117513 -0.469683 -0.030853 -0.874154 
-0.366518 -0.173693 0.049880 -0.571341 0.052030 -0.808573 
0.598644 0.448504 0.488747 -0.326999 -0.589822 0.705431 
1.670805 0.834765 1.359183 -0.102120 -0.690641 0.700436 
1.137516 1.210041 1.568778 0.332560 0.701829 -0.597207 
1.801244 1.080994 1.631195 0.126276 0.718283 -0.670277 
0.887516 -0.112013 0.280690 -0.034350 -0.355514 0.891231 
-1.572513 -0.012015 0.400090 0.169737 -0.442666 0.844870 
0.176865 -0.523635 0.256105 0.214331 -0.341383 0.909195 
-0.158535 0.416689 0.546722 -0.322166 0.011712 0.945437 
-1.016539 1.342263 1.474769 -0.474258 0.533593 -0.639722 
0.857840 -0.837258 0.077414 0.021252 -0.457221 0.886986 
0.572569 0.006422 0.128512 0.546270 0.141652 -0.793305 
2.325045 1.255572 1.732242 0.092857 -0.627383 0.764848 
0.143382 1.054986 0.528848 -0.004791 -0.088367 0.935095 
-1.261348 0.536866 0.428408 -0.343319 0.545440 -0.742606 
0.099499 -0.741393 0.162749 0.144884 -0.413654 0.885423 
1.802780 1.721139 2.198428 0.031282 -0.694919 0.716540 
0.674224 0.487115 0.514331 -0.532532 -0.494069 0.673781 
2.194553 1.294221 1.767126 -0.080720 0.616600 -0.778883 
0.147555 -1.058518 -0.029644 -0.188008 -0.363897 0.904557 
-2.052945 0.323602 0.559775 -0.300250 0.537114 -0.787153 
1.234050 1.390773 1.801190 0.271675 0.709917 -0.633174 
1.870069 0.636024 1.134230 0.268446 0.690126 -0.530590 
-1.868356 0.602795 0.787156 0.371403 0.455876 -0.749999 
-2.106654 0.933855 1.032899 0.226609 0.709996 -0.655631 
-0.338744 0.577059 0.001990 -0.583537 0.242676 -0.684272 
-1.066190 0.703820 0.579113 -0.422810 0.625665 -0.608597 
-1.564829 0.529918 0.623762 -0.185613 0.637790 -0.721976 
-0.713905 0.265381 0.269476 -0.140334 -0.488436 0.828425 
-1.365121 0.965857 1.257742 -0.159348 0.608848 -0.747700 
1.193161 -0.381484 0.331507 0.197563 0.335414 -0.864983 
1.820629 0.376708 0.767501 -0.337093 -0.817335 0.410708 
-0.710142 1.162548 1.108375 0.003654 -0.754080 0.655531 
-1.004919 0.482175 0.402661 -0.009416 -0.616034 0.758925 
0.114746 1.185296 0.490042 -0.325588 0.632978 0.681086 
0.665762 1.138842 1.210227 0.584482 0.650631 -0.464195 
0.552669 0.387962 0.378383 -0.097817 -0.558348 0.790589 
0.226910 0.452032 0.490452 0.313064 -0.002039 0.947493 
1.016786 0.515624 0.562606 0.415046 0.686572 -0.578025 
-2.266385 1.709043 1.959952 -0.123254 -0.439923 0.885576 
-0.072817 -0.001476 -0.159836 -0.462223 -0.038590 -0.872216 
-1.712489 1.836011 2.095254 -0.094205 0.399709 -0.904335 
0.616361 0.404894 0.419969 -0.095892 -0.596848 0.760635 
-0.179997 1.144952 0.525616 -0.851513 0.052977 -0.401508 
0.462279 -0.117683 0.089089 0.587341 0.077218 -0.782985 
-0.896524 0.964765 0.896636 -0.487185 0.708383 -0.469184 
1.171840 0.858362 1.139086 0.369311 0.724053 -0.552444 
2.025379 0.833916 1.396196 0.161302 0.744703 -0.615540 
0.354582 0.721469 0.284304 0.954410 0.223018 0.127646 
0.464342 -0.532917 0.079277 0.175065 -0.207431 0.957481 
-0.394646 -1.395428 -0.042878 -0.743226 -0.257553 -0.321675 
-0.131006 1.125265 0.374207 -0.900397 -0.083840 0.300392 
0.495366 1.379811 1.401308 0.211200 0.669339 -0.679647 
-0.399896 -0.931700 0.045372 -0.118171 -0.195788 0.963896 
-0.078530 1.314746 0.282436 -0.627899 0.676583 0.328116 
-0.252191 -0.811200 0.107203 -0.073320 -0.318912 0.893813 
0.522979 1.325441 1.470810 -0.160091 -0.667516 0.722505 
1.599560 0.513464 0.889133 -0.282598 -0.755398 0.542795 
1.588013 0.749367 1.208657 -0.308075 -0.837653 0.392149 
2.087895 1.164344 1.725160 0.001919 0.545585 -0.824734 
-0.048713 -0.645544 0.237263 -0.308490 -0.387161 0.861636 
-0.780064 0.632766 0.430101 0.141687 0.799863 -0.418341 
1.712410 1.735319 2.215940 0.021759 -0.700250 0.711851 
0.169855 0.271574 0.530262 0.335888 -0.090361 0.928192 
1.083639 -0.432965 0.290004 -0.062469 -0.361141 0.889422 
-1.697807 0.375101 0.467578 0.248358 -0.535601 0.805241 
0.001676 0.237887 -0.202900 0.446475 0.046941 -0.889674 
0.344876 0.095313 0.385125 0.530597 -0.211267 0.815132 
-1.380493 -0.140516 0.336774 0.131134 -0.401831 0.865915 
-2.204468 1.760063 2.000152 0.095382 0.475459 -0.867241 
0.858138 1.021444 1.235155 -0.025260 -0.758879 0.632874 
-0.370504 -0.294544 0.229955 -0.512965 -0.256098 0.805772 
-0.903199 -0.192668 0.196107 -0.247211 0.293154 -0.883488 
-1.424067 0.537961 0.562441 -0.245810 0.590301 -0.748173 
1.341272 1.564605 1.999466 -0.097089 -0.680628 0.719041 
1.888650 0.557086 1.051611 0.358453 0.728706 -0.398209 
0.924017 1.090515 1.353383 -0.104085 -0.813411 0.502486 
0.125493 -0.909998 -0.039473 0.103198 0.059082 -0.977991 
0.331308 -1.181195 0.002176 0.143915 -0.002562 -0.986772 
0.030429 -0.374503 -0.149019 0.308076 -0.266702 -0.907413 
-1.957683 0.768737 0.934162 -0.296966 -0.640151 0.606196 
-1.360192 1.048437 1.413655 0.098419 -0.636781 0.735427 
-2.007226 1.073746 1.294161 -0.270361 -0.627134 0.657182 
0.664147 1.322600 1.464710 0.607149 0.508158 -0.573778 
-0.178749 -1.178224 -0.052858 0.397312 -0.305466 0.776006 
-0.911170 0.569720 0.384146 -0.285193 0.629783 -0.686505 
0.367071 0.498075 0.381083 0.372184 0.091738 0.874131 
-0.669269 1.491140 1.377832 -0.460650 0.600694 -0.649951 
-1.383972 0.757473 0.998854 0.100204 -0.754252 0.637771 
0.811944 -0.091363 0.256403 0.023655 -0.339846 0.897714 
-0.318124 0.427759 0.434796 -0.339906 -0.060017 0.936505 
-0.464198 0.150099 0.295462 -0.409112 -0.328322 0.814060 
-1.365438 0.715815 0.870414 -0.225910 0.705139 -0.637489 
1.555477 0.218104 0.538586 -0.215349 -0.539671 0.801421 
-0.424630 -0.277507 0.169910 -0.408086 -0.221978 0.871059 
-0.252167 0.727937 -0.049987 -0.577811 0.389594 -0.675838 
0.616626 1.112296 1.107227 0.221193 0.765421 -0.580009 
0.280310 0.690722 0.442760 0.552874 0.242798 0.782424 
-0.806673 0.802244 0.728471 0.083927 -0.726578 0.651691 
1.159507 0.594934 0.761036 0.377700 0.642555 -0.625287 
-1.874134 1.529740 1.917253 -0.005955 0.608218 -0.774839 
-0.724354 0.166715 0.148018 -0.454525 0.243090 -0.819910 
0.695165 0.213890 0.308267 0.023372 -0.474089 0.857671 
0.816433 1.380308 1.611512 -0.050710 -0.591178 0.799979 
0.878193 -0.627854 0.198776 -0.021707 -0.296941 0.921975 
1.274772 1.547497 1.968460 0.252243 0.662003 -0.702348 
1.358441 1.506458 1.958819 0.231926 0.657148 -0.713989 
0.963991 1.380511 1.661478 0.363086 0.721139 -0.558013 
1.759774 1.040828 1.589350 -0.063091 -0.623143 0.755458 
1.563118 -0.150347 0.451142 -0.111499 -0.532949 0.812173 
-1.256878 1.719143 1.887671 0.176871 -0.613386 0.763172 
-0.449496 0.448406 0.416953 0.060672 -0.491050 0.718881 
0.216207 -0.190503 0.366018 0.357363 -0.288909 0.868039 
-1.535263 0.139420 0.403029 0.193322 -0.473295 0.833892 
-0.572182 -0.252970 0.126756 -0.240354 -0.253686 0.913134 
0.146846 0.626333 -0.103694 0.403265 0.139149 -0.881441 
-0.254802 -0.187079 -0.064371 -0.501801 -0.106775 -0.851671 
-0.691674 1.451819 1.442894 0.168463 -0.557821 0.800743 
1.321371 0.249915 0.483371 -0.242846 -0.505303 0.821995 
0.769989 1.118577 1.317884 0.006811 -0.766183 0.625997 
1.356477 0.322398 0.532456 -0.259401 -0.536743 0.793231 
-1.778902 0.425949 0.563419 0.140688 -0.621980 0.751289 
0.137128 1.019127 0.056597 0.549344 0.429769 -0.701908 
-1.486436 1.675825 1.923997 0.096713 -0.536614 0.831354 
1.694084 1.195577 1.727390 0.100204 0.596038 -0.762053 
0.690001 0.576792 0.426778 0.150556 0.809033 -0.368677 
1.313765 0.122676 0.456952 -0.206379 -0.484590 0.831010 
-0.764562 0.912608 0.711377 -0.000812 0.706854 -0.686793 
-0.877141 0.717506 0.535812 0.034600 0.766705 -0.568004 
-1.954337 0.523463 0.713264 0.271381 0.529717 -0.736283 
1.146455 1.015116 1.362008 -0.234878 -0.856097 0.386716 
-0.590429 1.327135 1.202319 0.892766 -0.294427 0.014630 
-0.830262 0.388646 0.312018 -0.069270 -0.538529 0.810804 
-2.000685 1.910959 2.101895 -0.089608 -0.482790 0.868622 
-1.483250 0.834777 1.169163 0.118862 -0.819076 0.538057 
1.322720 1.236749 1.688457 0.251439 0.684314 -0.674154 
2.133182 1.787194 2.232533 0.052754 -0.664867 0.743612 
0.658324 0.613415 0.584499 -0.475422 -0.583562 0.611783 
1.449659 1.382125 1.878674 -0.180365 -0.571644 0.793520 
1.265213 -0.085016 0.404363 -0.149669 -0.444724 0.849220 
-0.620993 -0.989294 0.024499 -0.269971 -0.196924 0.844441 
1.521429 0.672679 1.074443 0.284465 0.772541 -0.550472 
0.992271 0.931599 1.128490 0.442924 0.705409 -0.516239 
0.881743 1.383773 1.641283 -0.061047 -0.590672 0.798748 
2.007638 0.965580 1.552121 0.119172 0.703096 -0.666148 
1.636825 1.239841 1.765980 0.110868 0.550169 -0.796932 
-1.079151 1.544814 1.653329 0.071714 -0.496222 0.862710 
-0.178780 -0.046644 -0.106588 -0.487770 -0.055314 -0.862680 
-0.816382 0.457846 0.216666 -0.365160 0.415136 -0.792686 
-0.648091 0.183153 0.242325 -0.180986 -0.454201 0.840540 
-0.958899 0.519342 0.332365 -0.311390 0.548421 -0.736614 
-1.104370 0.384016 0.339405 0.087349 -0.517340 0.819966 
-1.539142 0.901917 1.224799 0.093120 -0.868441 0.448392 
0.913740 0.289109 0.264253 0.431816 0.322646 -0.814657 
1.200842 0.599731 0.843123 -0.169787 -0.663971 0.705365 
-0.494754 -0.608715 0.065392 -0.189920 -0.197508 0.950358 
1.587388 1.725928 2.199911 0.117276 0.552798 -0.819293 
0.062583 1.347098 0.201285 0.631102 0.673012 -0.319860 
0.359052 -0.565927 0.044676 0.486134 0.011359 -0.836032 
1.420350 -0.198664 0.423182 -0.104487 -0.453357 0.841608 
1.019008 -0.337671 0.289484 0.234959 0.300135 -0.879065 
-0.809847 1.100079 1.092109 0.015269 -0.757038 0.651016 
1.615787 0.107961 0.533239 -0.178572 -0.532950 0.802753 
-0.251216 -0.114224 0.376876 -0.449812 -0.271531 0.834368 
1.393951 0.802469 1.190672 0.250412 0.705917 -0.646381 
-1.943754 0.595214 0.754941 0.470166 0.392812 -0.784726 
-0.082761 1.302836 0.196653 -0.673544 0.583990 -0.411150 
-1.192173 1.113732 1.406700 0.135020 -0.683366 0.690112 
1.742139 1.293470 1.848372 0.000357 -0.523566 0.847078 
-0.327340 0.641138 0.434614 -0.648057 0.260256 0.709993 
0.286501 0.107909 0.423255 0.456092 -0.225860 0.848147 
-0.600015 -0.064332 0.176223 -0.217535 -0.340762 0.881582 
-0.861679 0.102123 0.210141 -0.445965 0.271433 -0.801989 
-0.158880 0.053870 0.480859 -0.300996 -0.269712 0.911649 
0.563500 -0.776945 0.084891 0.017033 -0.218275 0.962654 
-0.087209 0.757131 -0.088304 -0.461196 0.330229 -0.784041 
-1.443019 1.043200 1.389084 -0.044175 -0.497353 0.840842 
1.391559 1.423637 1.899553 0.213101 0.692879 -0.684147 
2.021505 1.288334 1.791022 -0.038326 0.545640 -0.825199 
-0.161526 -0.668450 -0.008110 -0.030004 -0.105267 -0.991329 
-0.313463 -0.772669 0.117964 -0.279526 -0.254911 0.897080 
0.745991 0.266194 0.181695 0.473651 0.254670 -0.816281 
-0.082833 -0.932604 0.040412 -0.050880 -0.421068 0.878175 
-1.980054 0.275315 0.535731 0.254238 -0.532524 0.798957 
0.950678 -0.324009 0.271423 0.247025 0.288852 -0.884376 
0.656743 0.848014 0.910644 -0.559339 -0.664718 0.366673 
1.155288 0.731809 0.953807 0.369272 0.724778 -0.552532 
0.150765 -0.839103 0.106646 0.001559 -0.385522 0.901207 
0.423858 0.466613 0.070381 0.569429 0.298240 -0.664069 
1.429803 0.332999 0.535994 0.336866 0.552468 -0.726178 
1.627599 0.903989 1.372045 0.291975 0.859008 -0.416782 
-1.308423 1.406625 1.683759 -0.345120 0.602518 -0.702871 
0.428143 0.531596 0.466708 -0.546002 -0.440479 0.690720 
-1.258609 -0.440311 0.223028 -0.073880 0.452283 -0.866647 
0.021287 0.595538 0.521728 -0.003530 0.343431 0.930005 
-1.446091 -0.168731 0.350731 0.131303 -0.403419 0.864100 
-1.793096 0.389307 0.499910 -0.280520 0.545051 -0.783381 
-2.162377 2.145998 2.169638 0.062958 0.355556 -0.924691 
-0.331882 -0.063974 -0.032681 -0.511668 0.007025 -0.840915 
2.269138 1.931657 2.344357 0.047135 -0.641109 0.765429 
-0.754446 1.257128 1.183229 -0.607411 0.599261 -0.471575 
-0.887144 0.434512 0.205403 -0.372013 0.385682 -0.817129 
1.297874 -0.403668 0.313576 -0.062595 -0.500012 0.841333 
-0.150383 0.726161 0.465445 -0.189498 0.125695 0.951421 
-0.641231 -0.403610 0.122074 -0.127345 -0.255799 0.925334 
1.780629 0.894034 1.402783 0.237824 0.810266 -0.497527 
0.148188 0.498519 0.537547 0.314374 0.046770 0.946497 
-1.017969 0.929711 1.005622 0.038272 -0.758026 0.647689 
-0.781575 1.179453 1.098806 -0.581472 0.628082 -0.467966 
-0.595154 0.171532 0.096581 -0.472975 0.203532 -0.830387 
-0.732119 -0.348472 0.148677 -0.062321 -0.286388 0.916436 
-2.125615 1.452882 1.823176 0.074191 0.671011 -0.719996 
-1.710886 2.012935 2.180138 0.065417 0.586839 -0.795472 
-1.314803 0.756497 0.904380 -0.247271 0.723963 -0.604456 
0.044300 -0.993433 -0.001127 0.262512 -0.406576 0.851754 
0.623573 -0.211655 0.175544 0.121602 -0.286187 0.923469 
-0.919370 1.634056 1.624946 -0.315900 0.621287 -0.709921 
-0.738909 1.008117 0.804783 -0.043842 0.700601 -0.674830 
0.566256 -0.902831 0.052223 0.135557 0.173344 -0.946979 
0.150897 0.869744 -0.018596 0.542757 0.424124 -0.706848 
1.528656 0.311765 0.536602 0.306015 0.534410 -0.776995 
1.410386 0.836547 1.258992 -0.272518 -0.826077 0.457583 
0.241886 -0.165121 -0.072624 0.496379 -0.104849 -0.855561 
-0.379303 0.191544 0.381149 -0.553147 -0.179989 0.805672 
0.016983 0.291976 0.556636 0.109994 -0.087637 0.984196 
-0.885528 0.479265 0.262064 -0.344314 0.464859 -0.773651 
-1.300425 1.299914 1.596177 0.192986 -0.740398 0.614266 
-2.255100 1.616126 1.902194 -0.118465 -0.471276 0.860373 
-1.020811 1.152003 1.307046 0.134411 -0.818659 0.509830 
0.703158 1.017559 1.067861 0.558119 0.684399 -0.452001 
-0.168547 0.681897 -0.095710 -0.464576 0.197836 -0.829844 
0.171816 -0.824669 -0.005629 -0.019982 -0.033082 -0.992411 
0.230318 0.226750 -0.079262 0.421562 -0.031737 -0.901961 
0.276104 -0.451187 0.251807 0.428054 -0.297118 0.841468 
-2.148698 1.522103 1.863195 0.082264 0.629063 -0.751150 
-1.104546 0.885584 0.951249 -0.358778 0.740657 -0.516017 
-2.302585 0.935084 0.962149 -0.263769 -0.754741 0.597816 
-0.624014 0.449280 0.412413 -0.008154 -0.655610 0.724344 
-2.028550 0.804007 0.939196 -0.285028 -0.669524 0.601391 
-0.159852 1.063408 0.395543 -0.611014 0.625394 0.151609 
-0.801565 1.273719 1.242530 -0.583038 0.593954 -0.487165 
0.109695 -0.555433 -0.038013 0.030228 -0.277301 -0.952834 
1.706747 0.992215 1.499356 0.212012 0.791478 -0.541077 
-1.379719 0.241314 0.369518 0.198345 -0.485242 0.833350 
-2.126839 1.257584 1.545118 -0.151886 -0.869558 0.463259 
-0.774707 1.034454 0.982653 0.008454 -0.744624 0.665974 
0.456087 0.153206 0.049018 0.555081 0.123907 -0.811424 
0.579987 -0.516940 0.119022 0.083281 -0.238354 0.947967 
-0.122862 -0.541006 -0.042272 -0.084767 -0.296320 -0.940630 
-2.296124 1.287472 1.535923 -0.185620 -0.819737 0.525910 
-0.961456 -0.272512 0.208611 -0.229808 0.283073 -0.892071 
0.703437 0.575158 0.501415 0.009118 0.879054 -0.332597 
-1.139972 0.665234 0.569958 -0.385891 0.613871 -0.643096 
0.583828 0.027725 0.229577 0.099745 -0.391627 0.889861 
1.402975 -0.278651 0.382566 0.147078 0.473248 -0.828844 
1.233598 0.039911 0.420065 -0.188517 -0.458512 0.844149 
0.947156 -0.148306 0.292868 0.313668 0.305866 -0.856865 
0.290557 -0.612450 -0.042528 0.412862 -0.081106 -0.883255 
1.838623 1.771135 2.236367 0.038274 -0.694964 0.716585 
1.398288 0.110237 0.464579 0.277913 0.461953 -0.815525 
0.349720 0.433531 0.405296 0.296963 -0.059816 0.952325 
0.157874 0.447710 -0.097964 0.384378 0.033828 -0.918070 
-0.098646 -1.030068 -0.030119 0.038120 -0.430101 0.887842 
1.380631 0.707404 1.085726 -0.215091 -0.740212 0.627659 
-0.672998 1.234951 1.047612 -0.208226 0.753212 -0.606903 
1.330263 -0.221144 0.395269 -0.104956 -0.434827 0.851785 
-1.385292 1.130814 1.451925 -0.239802 0.840801 -0.461136 
-0.214252 -0.712457 0.163366 -0.183447 -0.350928 0.888584 
0.639943 0.537118 0.299092 0.548414 0.605957 -0.484466 
-1.960724 0.824425 0.985382 0.319628 0.547759 -0.745274 
1.455231 1.069392 1.552113 -0.138742 -0.646849 0.737455 
-0.872828 1.055696 1.001755 -0.512993 0.674773 -0.475666 
-1.638970 0.473374 0.547052 -0.172658 0.626219 -0.735630 
-0.765764 0.326371 0.144306 -0.418665 0.292907 -0.834941 
1.177451 1.368852 1.753828 0.288923 0.721016 -0.608154 
-0.227455 -0.880495 0.087657 0.056925 -0.335194 0.913917 
1.533721 0.923204 1.399350 -0.002464 -0.458127 0.875148 
-0.136081 -0.842088 -0.026922 -0.038867 0.003451 -0.985107 
0.644755 0.104653 0.151998 0.517274 0.186903 -0.801835 
-1.230332 0.362745 0.347264 0.158620 -0.498571 0.827464 
1.150526 1.158350 1.506545 0.357056 0.753411 -0.490137 
1.980178 0.429136 0.930336 0.478974 0.796591 -0.212797 
-0.551052 0.617367 0.383187 -0.149374 0.843359 -0.293965 
0.251524 0.300738 0.483358 0.402041 -0.072610 0.900706 
0.266565 -0.862683 -0.009594 -0.085760 -0.054884 -0.987358 
1.075214 0.144209 0.387524 -0.124070 -0.444589 0.851773 
1.212574 -0.038128 0.399576 -0.167425 -0.443067 0.851261 
0.715136 0.479120 0.307911 0.491490 0.518063 -0.611990 
-1.439697 1.000261 1.295928 -0.045194 0.540691 -0.814198 
0.645961 0.254037 0.132260 0.498411 0.214408 -0.817407 
0.840377 0.749471 0.783382 0.489067 0.712202 -0.477347 
0.685264 -0.184903 0.197296 0.492973 0.165245 -0.798022 
0.882795 1.509411 1.746551 0.358535 0.705949 -0.577311 
-0.399129 -0.108846 0.054585 -0.554411 0.077235 -0.813465 
0.023574 -0.835348 -0.026816 0.303168 0.053096 -0.938871 
-2.075222 1.529814 1.883794 0.062376 0.624111 -0.756397 
-0.195776 -1.110856 -0.031746 0.290367 -0.292694 0.881450 
1.768184 0.128649 0.575549 0.231982 0.540529 -0.780766 
2.018004 1.826162 2.270203 0.018368 0.587229 -0.800770 
-0.184599 0.565525 0.502029 -0.309415 0.054861 0.943667 
-0.782971 -0.087310 0.181790 -0.415347 0.227040 -0.823550 
0.665437 -0.561445 0.147164 0.002789 -0.261816 0.939876 
-0.972205 1.580974 1.640269 0.083424 -0.527593 0.839382 
0.106969 -0.050110 -0.144187 0.479905 -0.047043 -0.864901 
0.883691 -0.462037 0.232049 -0.069574 -0.323195 0.910654 
-0.224246 0.972848 0.097012 -0.691030 0.402166 -0.568129 
-1.993053 1.305425 1.725670 -0.083674 -0.860672 0.487039 
1.750527 0.764263 1.262614 -0.306928 -0.870669 0.331436 
-1.393437 1.039988 1.332783 -0.078868 0.506075 -0.845514 
-1.847040 0.862445 1.084325 -0.164221 -0.780257 0.496012 
0.457404 -0.332689 0.124686 0.257083 -0.216431 0.932472 
1.863741 0.512511 1.001804 -0.472364 -0.830577 0.177897 
0.537629 -0.702349 0.082902 0.060012 -0.214711 0.962116 
2.255979 1.122258 1.679180 -0.020373 0.618945 -0.779598 
-1.882576 1.191970 1.483095 0.064995 0.866576 -0.484305 
-0.124967 -1.087611 -0.066899 -0.254413 0.135856 -0.953242 
-1.294159 1.127142 1.448247 0.094727 -0.583229 0.795974 
-0.034362 0.446304 0.548307 -0.114268 0.038568 0.982291 
-0.571305 0.076515 0.208007 -0.228807 -0.409209 0.856513 
-1.736473 1.553941 1.933515 -0.078438 0.566654 -0.804517 
2.207194 1.483664 1.962076 -0.064339 0.687298 -0.711454 
0.352822 -0.639078 0.035167 0.440801 0.012597 -0.858615 
-0.011034 0.936368 -0.043766 -0.367613 0.530745 -0.758629 
1.478242 0.576382 0.914749 0.297541 0.699709 -0.614527 
-1.207489 0.714678 0.787509 0.105494 -0.690622 0.695981 
-0.716397 0.627506 0.353574 -0.395994 0.750613 -0.472316 
-0.481491 -0.010137 0.074622 -0.523742 0.125901 -0.818397 
0.642846 0.663114 0.634246 0.161748 0.774853 -0.610202 
-0.166441 -0.775971 -0.004870 0.040109 -0.063110 -0.993396 
