-0.497605 0.141538 0.239913 -0.799833 -0.315679 0.496378 
0.078251 -0.213638 -0.079402 0.452185 -0.160734 -0.854653 
0.872155 0.083673 -0.136808 -0.550226 0.131741 -0.782402 
-0.058935 1.333709 0.366256 -0.600526 0.678880 0.412653 
-1.192628 2.027843 -0.801180 0.622435 -0.605695 -0.470734 
-0.329909 3.115156 -0.554794 -0.781707 0.342374 0.520068 
-0.609916 0.956129 0.363031 0.981722 -0.042275 -0.149164 
-1.218501 1.075739 -0.497678 -0.831431 -0.135919 0.510462 
-0.097202 0.169439 -0.106787 -0.573642 0.021732 -0.810100 
-0.856805 0.086829 -0.372619 0.653220 0.182008 -0.636359 
0.325389 0.521816 0.098252 0.631425 0.230456 -0.700449 
0.117526 -0.448349 -0.008465 0.335611 -0.325038 -0.868875 
-0.225902 -0.804879 0.081965 0.120385 -0.115845 -0.963319 
0.025304 -0.921919 0.212328 0.384934 -0.160206 0.904316 
-0.893994 0.214098 -0.395667 0.688789 0.200111 -0.607571 
0.373638 -0.537636 0.169562 0.655389 -0.184535 0.725035 
-0.685217 0.439870 -0.141948 0.373059 0.203560 -0.718156 
-0.236823 3.057442 -0.384490 0.776029 -0.349062 -0.523595 
-0.980235 0.634429 -0.398656 0.808485 0.238568 -0.533154 
-0.812566 0.484815 -0.127003 -0.832888 -0.264596 0.478537 
-0.064674 0.856185 0.023227 -0.455882 0.417511 -0.774761 
-1.350386 1.268963 -0.598435 -0.823526 -0.122388 0.525064 
1.724222 2.387925 0.979648 -0.132994 0.796665 -0.588271 
-0.061225 -0.208345 0.435106 -0.091581 -0.214895 0.969279 
-0.602980 -0.794347 -0.097768 -0.576804 0.093254 0.795452 
0.467547 -0.397291 0.082961 0.698688 -0.148419 0.692693 
1.283011 1.600875 0.204675 -0.312847 0.575772 -0.736446 
0.869744 1.263070 0.232645 0.634927 -0.318432 0.601354 
-0.664192 1.284440 0.397472 0.695967 0.170871 -0.656851 
-0.709526 1.154428 0.351054 -0.953231 0.036997 0.268100 
-0.664589 2.440001 -0.540829 0.665741 -0.536050 -0.504378 
-0.275571 0.124702 0.456169 -0.453205 -0.257029 0.822645 
-0.675200 2.039064 -0.077038 0.818919 -0.388928 -0.387433 
0.678466 -0.289910 -0.031878 0.657515 -0.121535 0.728288 
-0.821600 1.609166 0.325817 -0.905822 0.198555 0.314437 
-0.857135 0.715195 -0.095948 -0.889594 -0.156930 0.403884 
1.049870 0.115177 -0.337284 -0.505672 0.028438 -0.827263 
0.601303 -0.036010 0.068332 0.729104 -0.201659 0.650356 
0.006427 1.065440 0.135957 0.273698 0.442931 -0.849835 
-0.502930 -0.035778 0.115856 -0.814461 -0.223335 0.522063 
-0.836955 1.012889 0.054897 -0.905356 -0.018395 0.368383 
0.663645 0.866653 0.350747 0.503259 -0.211213 0.811748 
-0.750780 1.046985 0.228845 -0.939994 0.001272 0.305136 
0.035354 0.205520 -0.149940 0.523239 0.041603 -0.847800 
-0.241593 2.290132 0.449011 -0.695046 0.592421 0.403109 
-0.138917 0.976718 0.132385 -0.551471 0.442820 -0.685802 
1.283519 1.889109 0.528287 0.336871 -0.685768 0.643426 
-0.764585 1.823065 0.170045 -0.907044 0.250214 0.317926 
-0.149957 0.040102 -0.066417 -0.590120 -0.017533 -0.797031 
0.369180 -1.038191 0.102727 0.374429 -0.107007 0.896099 
-0.806811 0.656276 -0.021928 -0.900406 -0.210354 0.376080 
0.256568 -0.334634 0.359953 0.497325 -0.226813 0.792081 
1.755234 2.252334 0.796256 -0.139039 0.837597 -0.518408 
1.721967 1.622333 0.092488 0.330161 -0.508023 0.746604 
0.222260 0.632931 -0.008437 0.587264 0.202098 -0.754465 
-0.799987 1.781206 0.101016 0.578512 -0.510235 -0.492616 
-0.005421 2.930300 0.024536 0.885792 -0.277108 -0.357644 
-0.234880 -0.207868 0.400502 -0.476335 -0.237101 0.798936 
-0.084944 3.072067 -0.164377 0.779831 -0.343256 -0.519808 
0.669341 1.478832 0.428908 -0.350165 0.510485 -0.776674 
0.275412 -0.507127 0.302285 0.547301 -0.238924 0.784637 
1.378282 1.206658 -0.381358 0.433336 -0.534887 0.677707 
-0.398299 2.201225 0.196403 0.727978 -0.523748 -0.429934 
1.485282 1.021255 -0.577582 0.658323 -0.204238 0.693220 
0.734690 -0.154358 -0.066658 -0.450563 0.105361 -0.822714 
0.635957 0.634993 0.149879 -0.193401 0.462122 -0.698877 
0.648969 1.270935 0.390451 -0.413152 0.443566 -0.782988 
0.660026 1.941814 0.965595 0.079859 -0.383796 0.887758 
-0.724380 1.833562 0.244493 -0.842864 0.367102 0.320732 
-1.222540 0.824937 -0.748656 -0.854599 -0.336040 0.383232 
0.128258 0.597208 0.601811 0.072392 0.281544 0.955210 
-0.342168 2.590097 -0.203333 0.843579 -0.323618 -0.420842 
0.705409 0.963589 0.252025 -0.518857 0.346782 -0.773352 
0.349995 1.643295 0.880339 0.364515 -0.628510 0.668792 
-0.090227 -0.051888 0.475627 -0.155910 -0.237721 0.955488 
0.551040 0.820570 0.415879 0.652069 -0.198385 0.727618 
-0.186802 3.058351 -0.315407 0.776461 -0.347222 -0.524715 
0.462431 -0.718415 0.053647 0.616557 -0.085467 0.773356 
0.173345 1.215564 0.532708 0.894365 -0.387101 -0.098470 
-1.042588 1.896459 -0.427025 0.548250 -0.657527 -0.456616 
0.522548 -0.381952 0.025660 -0.138891 0.054363 -0.888382 
0.647024 1.869598 0.867068 -0.218056 0.785880 -0.572525 
0.221461 1.053382 0.472351 0.171001 0.821807 0.421860 
0.459808 -0.298412 0.056412 0.053631 0.050952 -0.896429 
-0.610092 0.520419 0.365998 -0.592294 -0.228925 0.735886 
0.983189 1.869354 0.675141 -0.263173 0.599866 -0.731519 
0.427173 -1.166100 0.057468 -0.440910 -0.023188 -0.895976 
0.051700 -0.003276 -0.118091 0.485537 -0.057798 -0.852962 
-0.203988 1.117116 0.269090 -0.759281 0.448341 -0.389944 
0.201120 1.076274 0.228482 0.703236 0.408207 -0.530130 
-1.264983 1.214777 -0.513919 -0.826074 -0.091915 0.517649 
-0.399287 2.672711 -0.333295 -0.605560 0.547040 0.561357 
1.327986 2.037919 0.661603 -0.273695 0.535632 -0.793180 
0.762244 -0.335983 -0.126136 0.620303 -0.071950 0.770687 
-0.284188 3.020876 -0.423214 0.787052 -0.339816 -0.510818 
-1.021500 1.967614 -0.488544 0.524772 -0.707392 -0.443823 
0.907668 1.759165 0.602549 -0.269170 0.691822 -0.632443 
-1.214295 2.086896 -0.902773 -0.691260 0.543151 0.459205 
1.831192 1.998686 0.444249 -0.175904 0.646205 -0.724336 
0.924811 1.000186 0.103467 0.695803 -0.221307 0.605329 
-0.614002 0.703232 0.279977 0.814210 0.380272 -0.237429 
-0.051221 -0.411412 -0.055196 -0.339126 -0.312020 -0.879032 
0.968800 0.691746 -0.032289 0.779107 -0.146568 0.599297 
1.184266 2.051991 0.770262 0.352046 -0.626272 0.679289 
0.062673 0.195895 0.544369 0.124986 -0.231259 0.960095 
-0.534701 0.150100 0.176189 -0.806175 -0.293742 0.498799 
1.808844 1.554653 0.002258 0.296601 -0.561350 0.734826 
1.127857 1.352229 -0.018216 -0.439872 0.548962 -0.702726 
-0.065377 0.838254 0.595213 -0.195296 -0.195672 0.952416 
-0.007422 1.279600 0.449793 -0.142217 0.771864 0.616874 
-0.692376 1.709946 0.429059 0.650654 -0.241580 -0.618711 
-1.359136 1.814316 -0.761470 0.708127 -0.446141 -0.514419 
1.608740 1.888353 0.372355 -0.244322 0.719218 -0.647355 
0.780583 1.351904 0.337896 0.663951 -0.344972 0.570440 
1.746811 1.958944 0.411490 -0.196892 0.645319 -0.722933 
1.198251 0.268740 -0.419481 -0.558848 0.010324 -0.803181 
0.293340 0.940208 0.330795 0.917387 0.356322 -0.098830 
0.153417 -0.222899 -0.048067 0.530307 -0.109354 -0.828358 
1.777037 1.860339 0.289345 -0.196928 0.733457 -0.647167 
0.147160 1.136002 0.523194 0.945862 -0.009897 -0.112501 
1.459077 1.733531 0.288378 0.390559 -0.462214 0.747665 
1.173285 1.511154 0.133460 -0.398069 0.526656 -0.747151 
0.537775 -0.721735 0.008029 0.591303 -0.067166 0.796523 
-0.455855 2.359459 -0.130537 0.578613 -0.632271 -0.500111 
0.282496 0.805979 0.166734 0.725367 0.430220 -0.468114 
0.888792 1.546735 0.335423 -0.388648 0.513204 -0.759566 
0.786171 1.603542 0.553844 0.449768 -0.616981 0.460763 
0.406536 1.337887 0.685033 0.016130 -0.480400 0.755899 
-0.554093 -0.510979 -0.049719 0.481774 0.049652 -0.818313 
-0.630334 0.933984 0.264325 0.780102 0.265824 -0.513299 
1.303416 2.150857 0.806906 -0.278243 0.792793 -0.533739 
-0.240108 -0.180433 0.002552 -0.618348 -0.084528 -0.774645 
1.005659 2.207056 1.042473 -0.438405 0.811360 -0.353002 
0.659696 1.401981 0.416555 -0.373220 0.485355 -0.779357 
0.087829 0.577205 -0.054686 0.454659 0.189109 -0.846822 
-0.749909 0.224459 -0.199178 0.557143 0.158672 -0.670723 
-0.787722 0.778199 0.058546 -0.915766 -0.135012 0.351674 
0.969267 0.499178 -0.090661 0.743623 -0.226971 0.625706 
1.134383 1.928469 0.647844 -0.322202 0.594434 -0.721717 
0.644438 0.287732 -0.007515 -0.109587 0.159680 -0.845184 
-0.194505 2.862548 -0.193214 0.760962 -0.399074 -0.508655 
1.248735 1.050173 -0.296106 -0.540357 0.428193 -0.702084 
1.465856 1.157751 -0.267912 -0.035838 -0.791533 0.522006 
-0.248463 2.683377 -0.139322 -0.696879 0.492480 0.505101 
-0.608510 0.573560 0.057631 0.429100 0.377938 -0.693461 
-1.005007 1.103435 -0.265675 0.796333 -0.000155 -0.552402 
-1.183956 1.235949 -0.414018 -0.825861 -0.022859 0.512701 
1.355438 1.145091 -0.415187 -0.507420 0.479065 -0.707853 
0.305471 0.828730 0.232326 0.827662 0.377385 -0.333823 
-0.356020 2.379501 0.017598 0.827082 -0.442546 -0.340889 
0.211350 -0.192652 0.412269 0.377572 -0.234685 0.856900 
-0.287872 0.417963 0.017349 -0.695108 0.011377 -0.713201 
1.182761 0.185210 -0.403718 -0.553416 -0.006578 -0.810282 
-1.348309 1.552649 -0.564371 0.789067 -0.140893 -0.549297 
-0.186604 -0.374886 0.377929 -0.288799 -0.206001 0.903783 
0.847366 -0.365506 -0.196265 -0.433576 -0.022321 -0.878553 
1.433478 2.148223 0.755517 0.250923 -0.647359 0.707527 
0.939816 0.938663 0.069681 0.710798 -0.208241 0.605274 
1.859488 1.881559 0.284941 -0.187711 0.720288 -0.664137 
0.226009 -0.649205 0.077259 -0.092906 -0.180001 -0.964203 
1.267763 2.237967 0.956713 0.288202 -0.725438 0.610252 
0.095803 0.415118 0.593978 0.151321 -0.141391 0.972324 
-0.578110 0.257290 -0.064086 0.191131 0.165193 -0.788110 
-1.019559 1.410528 -0.134665 -0.843018 0.151915 0.469493 
0.019327 1.372496 0.358900 0.370186 0.685615 0.569334 
1.503635 1.694196 0.214871 -0.142229 0.800123 -0.574723 
-0.035293 0.207654 -0.149626 -0.538526 0.043972 -0.837791 
-0.581393 2.255273 -0.198781 -0.705260 0.563677 0.426853 
1.423655 0.978365 -0.523962 -0.625619 0.248225 -0.709128 
-0.219374 -0.613141 0.077199 0.092024 -0.193760 -0.963102 
-1.313611 1.874513 -0.774623 0.684761 -0.490170 -0.502358 
0.188192 0.939491 0.141769 0.623344 0.433169 -0.635001 
0.794210 0.612029 0.031826 -0.466538 0.313758 -0.772513 
-1.414793 1.334225 -0.655545 -0.820720 -0.131876 0.531357 
-0.210019 3.189010 -0.411948 -0.806289 0.312401 0.496828 
-0.159872 1.211386 0.322890 -0.772287 0.583975 -0.189183 
-0.715718 0.628601 0.174951 -0.718026 -0.169536 0.582616 
-1.063689 0.397613 -0.623594 -0.805814 -0.269821 0.460063 
1.130352 0.756820 -0.229636 -0.640165 0.289848 -0.692388 
1.184910 1.597914 0.315735 0.288436 -0.752260 0.539142 
-0.785910 1.437123 0.322429 -0.921645 0.138505 0.301682 
0.238024 -0.114972 0.421571 0.442750 -0.250980 0.823742 
-0.355814 0.565757 0.205383 -0.576009 0.405908 -0.672761 
1.769087 2.312504 0.874343 -0.141888 0.798645 -0.580782 
-0.962204 0.851507 -0.240530 -0.852381 -0.097428 0.468142 
-0.165362 0.987605 0.590161 -0.342845 -0.147491 0.884228 
-0.544036 2.311430 -0.231096 0.657022 -0.576342 -0.469193 
1.297689 1.091551 -0.338472 0.558429 -0.435372 0.685100 
-0.167777 -0.524497 0.341972 -0.217018 -0.299270 0.919798 
0.774225 1.606043 0.483481 -0.371346 0.487631 -0.785251 
-0.112596 1.135551 0.602590 0.340118 0.316371 0.869774 
0.959414 1.549356 0.338807 0.354169 -0.732164 0.424118 
0.046794 0.074408 -0.130416 0.503123 -0.016083 -0.850592 
0.499378 1.578302 0.622879 -0.308170 0.496758 -0.807528 
0.807606 0.759902 0.158514 0.810238 -0.093583 0.569735 
0.257546 0.911805 0.207416 0.765329 0.395473 -0.444509 
-0.314870 2.140667 0.480555 0.767521 -0.449765 -0.442846 
0.296070 -0.940284 0.131573 0.270347 -0.187449 0.928781 
-0.264720 1.017718 0.406237 -0.911784 0.355144 0.093358 
-0.212160 -0.677650 0.267641 -0.325247 -0.325631 0.875749 
0.075747 -0.831885 0.096416 0.093696 -0.194978 -0.960612 
-0.620182 2.070844 -0.010877 0.767779 -0.500771 -0.366309 
1.286802 1.523517 0.110300 -0.357867 0.517296 -0.773632 
-1.160439 0.772909 -0.677552 0.827703 0.319566 -0.445410 
-0.078613 1.285912 0.423100 -0.349834 0.774062 0.509693 
-0.369058 0.621200 0.520812 -0.572177 0.023063 0.812758 
-0.681521 2.480410 -0.606614 0.657028 -0.532613 -0.518162 
-1.036150 0.951404 -0.347803 0.801864 0.092743 -0.550691 
-0.614984 0.114130 0.003197 -0.824087 -0.219039 0.511774 
-0.570975 0.032407 0.032740 -0.822061 -0.209313 0.519057 
1.009315 0.941732 -0.000302 0.674210 -0.272532 0.623381 
-0.933707 0.662054 -0.259488 -0.859111 -0.181480 0.461286 
-1.001388 0.883413 -0.297645 -0.839887 -0.088634 0.490042 
-0.417045 -1.393190 0.037247 0.391571 -0.795530 -0.187705 
1.421004 0.862447 -0.532699 -0.682833 0.100414 -0.716199 
-0.569774 1.014890 0.502265 -0.710362 -0.269464 0.607498 
-1.225834 1.604867 -0.375413 -0.809042 0.187490 0.524236 
-0.749134 2.096104 -0.274274 0.768378 -0.424547 -0.460605 
-1.008561 1.481485 -0.128537 0.772622 -0.114073 -0.567297 
-1.131876 0.705568 -0.649794 0.810370 0.306544 -0.463723 
-0.665586 -0.653252 -0.167123 -0.596439 0.057674 0.760536 
-0.094096 0.570916 0.603778 -0.161153 -0.075889 0.979661 
1.536460 1.465730 0.010992 0.040048 -0.848010 0.486402 
0.476138 1.383224 0.573205 -0.359214 0.445597 -0.809894 
0.651376 1.027530 0.387698 0.829095 -0.001784 0.533378 
1.204020 1.770801 0.422861 -0.244961 0.812553 -0.501365 
-0.804270 1.935940 -0.050677 -0.803347 0.439137 0.372201 
1.459743 0.782010 -0.590115 0.681553 -0.039917 0.720680 
0.281926 0.229779 0.495011 0.406605 -0.226556 0.861612 
0.277893 0.087884 0.011206 0.632311 -0.040222 -0.769172 
1.274330 0.524062 -0.471062 -0.594383 0.053297 -0.773825 
-0.103806 -0.589897 0.325988 -0.161524 -0.315379 0.931267 
0.561523 0.008972 0.018305 0.003806 0.098123 -0.857555 
-0.273933 -0.492677 0.029792 -0.396489 -0.098117 -0.833652 
-0.600728 1.378493 0.621942 -0.372973 -0.410540 0.748890 
1.604006 1.421691 -0.051478 0.048850 -0.820757 0.518956 
0.653247 0.138774 0.102369 0.724678 -0.243875 0.637834 
-0.269561 2.302844 0.279330 0.748450 -0.505843 -0.419008 
1.122334 0.145502 -0.372674 -0.531720 0.007155 -0.818538 
1.124637 1.607170 0.361331 0.285484 -0.789340 0.515251 
1.821864 1.349810 -0.188790 0.123143 -0.727397 0.630635 
-0.892911 1.906351 -0.234811 0.496941 -0.729672 -0.421948 
0.673865 -0.816118 -0.074219 -0.397309 -0.068574 -0.912901 
0.009097 0.052007 0.508937 0.084879 -0.258132 0.961857 
-0.164855 -0.625612 0.303956 -0.262379 -0.351397 0.895945 
0.292043 0.923076 0.409043 0.910976 0.272470 0.198111 
0.878737 0.697416 0.067477 0.795633 -0.134168 0.584470 
0.617720 -0.693586 -0.059434 -0.351434 -0.019459 -0.921968 
-0.646736 -0.396219 -0.138495 -0.727596 -0.081451 0.648811 
-0.196069 0.152980 0.504684 -0.316915 -0.239198 0.900504 
2.083289 2.268691 0.764685 0.114048 -0.773686 0.611370 
1.312238 2.317615 1.028450 0.272817 -0.774074 0.551767 
0.363354 0.699652 0.268784 0.916086 0.332292 -0.191501 
-0.367049 -0.737280 0.145102 -0.659477 -0.127945 0.730109 
0.304804 0.250502 0.029931 0.585411 0.021910 -0.789387 
0.924933 0.272364 -0.144354 -0.581969 0.168321 -0.747039 
-0.017667 -1.016739 0.179369 -0.464275 -0.111326 0.866255 
-0.726946 2.178255 -0.341541 0.744652 -0.462897 -0.467375 
-0.146657 -0.875308 0.094297 0.112254 -0.187514 -0.968488 
-0.169837 0.726871 0.006660 -0.490500 0.376145 -0.735038 
-1.221570 0.709512 -0.802461 -0.837299 -0.341126 0.387644 
1.020228 0.741729 -0.071507 0.742275 -0.195756 0.613445 
0.136247 0.629995 -0.032821 0.484896 0.215477 -0.816032 
0.641266 0.982928 0.317422 -0.503644 0.350283 -0.786870 
-0.847057 1.317199 0.082144 0.731276 0.075757 -0.601261 
0.468325 -0.239958 0.119793 0.724544 -0.188409 0.660225 
-0.302337 0.778045 0.184885 -0.757174 0.422673 -0.427926 
-0.306415 -0.625089 0.032343 -0.206094 -0.086119 -0.849999 
-0.487160 -0.314983 0.030022 -0.797526 -0.126122 0.577876 
-0.453543 -0.078716 0.020452 -0.010321 0.089823 -0.864658 
-0.245372 2.370407 0.318271 -0.704849 0.585776 0.362797 
-0.519484 2.583210 -0.440719 -0.819313 0.366741 0.424171 
-0.233507 1.091944 0.395569 -0.890589 0.427138 0.012902 
-0.663763 0.565720 -0.002319 0.484528 0.313775 -0.684263 
-0.596436 0.317781 0.168883 -0.804940 -0.333884 0.481055 
-0.227576 0.605295 0.574365 -0.364461 -0.041592 0.907942 
0.071518 -0.668385 0.307520 0.271993 -0.301618 0.907460 
0.198260 0.099938 -0.040464 0.594266 -0.019532 -0.796322 
-0.281136 3.144738 -0.502692 -0.788955 0.331313 0.516298 
-0.749801 0.720924 0.009318 0.713226 0.349862 -0.602930 
-0.667321 2.331154 -0.435440 0.713416 -0.523415 -0.463272 
0.029994 1.202295 0.534167 -0.058867 0.683713 0.708932 
0.606558 1.597492 0.669509 0.610462 -0.437825 0.524538 
1.019677 -0.036897 -0.307393 0.590919 -0.015910 0.790296 
0.825986 0.364389 -0.094267 -0.354440 0.171224 -0.774363 
0.171686 0.261439 0.553462 0.247496 -0.201069 0.942946 
0.681667 0.484579 0.034104 -0.239335 0.246963 -0.827281 
-0.032371 1.305705 0.257858 -0.592773 0.375133 -0.672145 
-0.497007 2.093272 0.238381 -0.753157 0.579767 0.241290 
-1.018426 0.603335 -0.484885 0.795782 0.259622 -0.515821 
-0.621433 -0.338962 -0.092837 -0.746006 -0.088428 0.633859 
2.209646 2.217764 0.674407 0.104691 -0.805016 0.583532 
-1.265871 1.848648 -0.675953 0.657204 -0.516522 -0.495433 
0.442787 1.280760 0.549104 -0.784606 0.090368 -0.601779 
-0.699426 1.352551 0.453646 -0.951131 0.097966 0.246358 
-0.888181 1.125955 0.002296 -0.887904 0.030066 0.396642 
1.397656 1.805997 0.360112 -0.231371 0.751695 -0.606743 
0.386871 0.674273 0.363748 0.765098 0.563802 -0.082648 
-0.014247 -1.238577 0.187265 -0.566052 -0.524059 0.614108 
0.001866 0.127981 -0.155552 0.470566 -0.018706 -0.863762 
-0.438091 0.348319 0.079994 -0.037270 0.214538 -0.880120 
-0.623744 0.882726 0.317377 0.963124 0.055824 -0.153641 
-1.007988 0.302555 -0.554107 -0.797180 -0.244635 0.484356 
0.222227 1.195368 0.677224 0.794539 -0.288762 -0.512047 
-0.483754 0.047434 0.205202 -0.804449 -0.278457 0.508375 
-0.467602 1.897741 0.555616 0.713144 -0.524776 -0.458001 
1.570672 2.331509 0.932409 -0.165831 0.782738 -0.599121 
-0.220748 0.372986 0.563082 -0.285734 -0.175507 0.938262 
0.358142 0.309724 0.479109 0.427851 -0.199091 0.866497 
0.012899 0.455639 0.598790 0.055253 -0.127607 0.986850 
-0.366590 2.625364 -0.262407 0.855625 -0.300131 -0.418891 
0.222261 0.717841 0.019474 0.565736 0.372874 -0.686812 
0.548794 1.274747 0.541667 0.823095 -0.154461 0.495336 
1.671485 1.314925 -0.175115 -0.084831 0.693200 -0.648827 
0.433018 -0.122663 0.227240 0.676273 -0.218340 0.695157 
-0.931047 1.343070 0.004953 -0.876183 0.125883 0.411708 
0.688843 0.201036 0.092957 0.725398 -0.250408 0.634494 
-0.622524 -0.568453 -0.160801 0.484790 0.048665 -0.804328 
-0.423132 2.337539 -0.026640 -0.767606 0.521860 0.361285 
0.367669 0.577092 0.215511 0.584899 0.447464 -0.643150 
-0.130321 3.388965 -0.387616 -0.811005 0.281773 0.510988 
-0.623804 2.677402 -0.671655 0.693667 -0.474035 -0.522676 
0.569344 -0.485146 0.013305 0.642490 -0.107406 0.745541 
-0.532486 0.083592 0.137518 -0.810867 -0.262082 0.508021 
-1.251311 1.657262 -0.428088 0.785125 -0.266798 -0.548330 
-0.277914 -0.362689 0.346006 -0.593845 -0.227330 0.729148 
1.188058 2.226317 0.936967 -0.300372 0.744596 -0.594410 
-0.637273 0.633655 0.262889 -0.408233 -0.199658 0.843928 
-0.960519 0.218349 -0.496253 -0.789293 -0.223178 0.505326 
-0.703958 2.105061 -0.217926 0.774068 -0.431877 -0.438568 
0.287824 0.324800 0.518167 0.358054 -0.188005 0.898895 
-1.268308 1.357276 -0.479074 -0.820887 -0.015452 0.521975 
0.349188 -0.321232 0.293712 0.675857 -0.228583 0.698357 
0.804098 0.621293 0.139532 0.799411 -0.171285 0.567066 
0.301887 0.857649 0.447475 0.862398 0.240785 0.412795 
0.226028 -0.919335 0.163607 0.191941 -0.214957 0.954321 
1.087033 1.257584 0.015278 0.518278 -0.479799 0.663541 
-1.087985 1.178143 -0.341173 0.799826 0.001519 -0.550823 
1.504749 2.176336 0.753858 -0.190201 0.845515 -0.486486 
1.560427 2.278436 0.864412 -0.171420 0.796694 -0.574070 
-1.140147 0.761133 -0.604051 -0.852234 -0.291263 0.420445 
-0.895399 1.777236 0.012738 -0.870615 0.258829 0.395189 
-0.294938 0.933620 0.373210 -0.923670 0.325155 0.038488 
0.103031 0.490427 0.598700 0.162584 -0.106597 0.975507 
-0.157390 0.067877 0.497860 -0.264296 -0.254255 0.924756 
-1.259903 0.872657 -0.796884 0.834378 0.343664 -0.417782 
0.311625 -0.271537 0.117376 0.351685 0.030391 -0.929682 
0.169815 1.135475 0.647428 -0.357662 0.067611 0.880304 
0.528562 0.883942 0.456801 0.610572 -0.238396 0.745845 
-1.061278 2.192092 -0.810210 -0.622884 0.612700 0.443291 
-0.409173 -0.856735 0.076930 -0.631556 -0.067785 0.761790 
-0.245785 3.205527 -0.477540 -0.793777 0.319479 0.515901 
-0.206112 0.794809 0.061302 -0.567260 0.482374 -0.639822 
0.718728 1.545179 0.441488 -0.351547 0.512381 -0.776962 
-0.064687 0.718939 -0.031395 -0.360383 0.332668 -0.845602 
0.455301 0.025733 0.072552 0.146673 0.105596 -0.904042 
0.010301 0.678918 0.574274 0.026496 0.085725 0.987004 
-1.422284 1.167435 -0.784586 -0.832654 -0.254084 0.476413 
-0.655615 -0.047954 -0.101606 -0.802793 -0.145755 0.559501 
1.582815 1.818931 0.312148 -0.206052 0.748521 -0.621837 
-0.689003 1.998706 0.030878 -0.606376 0.704100 0.345771 
-0.092404 1.039562 0.611440 -0.044433 -0.004969 0.954313 
2.074641 2.502542 1.109662 -0.084751 0.832263 -0.545570 
1.221062 1.478880 0.087105 0.265893 -0.724159 0.561152 
0.094575 -0.356155 0.394403 0.102587 -0.180114 0.974411 
-0.482299 0.249186 0.326881 -0.746745 -0.339011 0.552467 
0.872100 -0.130614 -0.189818 0.638791 -0.077774 0.753768 
-1.190685 0.909150 -0.550004 0.809008 0.228023 -0.537351 
-0.083694 -0.218177 -0.076019 -0.467226 -0.153031 -0.847552 
-0.141503 3.041390 -0.226615 -0.841604 0.306118 0.432535 
-0.288617 -0.462862 0.311151 -0.627969 -0.235304 0.722258 
-0.911841 0.993103 -0.092515 -0.875487 -0.031045 0.422657 
1.420435 1.391292 -0.035088 -0.157843 0.623664 -0.686179 
-0.503351 -1.039456 -0.009121 0.541652 -0.073040 -0.829645 
0.082007 -1.060285 0.125078 0.053257 -0.197205 -0.962772 
0.165609 -0.817243 0.222600 0.186868 -0.260159 0.942479 
-0.249399 2.785354 -0.214175 0.781800 -0.381613 -0.484956 
-0.240018 2.296675 0.362561 0.761892 -0.487306 -0.415464 
1.264322 1.300242 -0.139851 -0.289411 0.628551 -0.651856 
-0.844910 0.386705 -0.269398 0.708612 0.190094 -0.607134 
1.289503 1.018755 -0.365232 -0.550544 0.418150 -0.703102 
-0.334596 -0.441862 0.107293 -0.130404 0.026046 -0.946942 
0.266963 1.010121 0.372405 0.905987 0.368242 -0.001790 
-0.524920 0.302270 0.292331 -0.792456 -0.376493 0.476563 
0.841148 1.694518 0.598916 0.553774 -0.545094 0.573743 
-1.133841 0.816292 -0.538110 0.812572 0.248387 -0.518431 
-1.087854 1.991146 -0.596034 -0.785952 0.366560 0.465279 
-1.158578 0.607594 -0.721501 -0.828457 -0.312634 0.414647 
-1.215259 1.899164 -0.669840 0.630664 -0.561816 -0.483080 
1.255883 1.196563 -0.255196 -0.491039 0.492593 -0.704924 
1.224176 0.565328 -0.396771 -0.628019 0.104051 -0.745409 
0.350483 1.581918 0.822137 0.010124 -0.598436 0.689379 
-0.699129 1.786580 0.370203 -0.924921 0.240128 0.261639 
0.739667 0.459272 0.164121 0.731091 -0.287212 0.610300 
0.955781 1.264736 0.150893 0.583182 -0.366428 0.629691 
-0.230817 2.984058 -0.325847 0.770323 -0.368283 -0.517561 
0.345833 -0.459432 0.223734 0.671667 -0.216256 0.705825 
-0.244906 -0.739681 0.227798 -0.351636 -0.278148 0.870429 
-0.739222 1.019670 0.149877 0.713931 0.264808 -0.615053 
1.914536 1.769328 0.162257 0.216154 -0.695891 0.674089 
-0.015794 -0.272072 -0.096372 -0.374341 -0.239330 -0.877397 
0.107045 0.390078 -0.081289 0.541064 0.103177 -0.822744 
-0.779445 1.038278 0.089234 0.726012 0.222972 -0.605819 
1.850550 2.221688 0.745312 0.146817 -0.688504 0.690945 
0.884487 0.940215 0.126594 0.738455 -0.158790 0.591115 
0.282226 -0.200183 0.043707 0.477351 -0.053445 -0.850140 
0.402380 -1.414785 0.047914 -0.388032 -0.828505 -0.076219 
0.353622 -0.577988 0.098833 0.099440 0.012608 -0.941789 
-0.659757 0.122010 -0.075296 -0.831929 -0.191336 0.515044 
-0.465517 2.976224 -0.658161 -0.757123 0.385865 0.519133 
0.006054 -0.755358 0.294591 0.496209 -0.200228 0.838523 
1.661550 2.140492 0.663087 -0.149943 0.880040 -0.445585 
-0.800368 -0.089561 -0.311204 -0.758755 -0.150831 0.578076 
0.058480 -1.009529 0.172552 0.289005 -0.135594 0.937804 
-0.344360 2.062983 0.623142 -0.453997 0.614651 0.568449 
-0.368010 0.022078 0.390438 -0.650728 -0.255516 0.710133 
-0.473976 0.632308 0.491656 0.404311 0.795337 -0.384983 
-0.015349 1.198261 0.197295 -0.438187 0.330969 -0.820602 
0.546937 0.310630 0.042703 0.021502 0.168274 -0.888469 
1.324109 1.440853 0.023179 -0.273571 0.577004 -0.720839 
-0.183149 1.016762 0.171457 -0.615430 0.401292 -0.670735 
0.713099 -0.676370 -0.103599 -0.385759 -0.053792 -0.912027 
-0.686829 0.243964 -0.047334 -0.827668 -0.233130 0.500391 
-1.034942 2.011729 -0.546286 -0.797258 0.349614 0.459706 
-1.102128 0.722564 -0.552615 -0.852488 -0.279859 0.428704 
1.054260 1.612349 0.391913 0.246806 -0.847085 0.418114 
0.530468 0.572207 0.440516 0.095555 -0.245761 0.895954 
-0.586333 0.118030 -0.077521 0.217656 0.130027 -0.776780 
0.205887 0.004786 -0.031130 0.590010 -0.043365 -0.798440 
1.412115 1.321339 -0.095140 0.011666 -0.822854 0.491310 
0.465920 0.143193 0.335368 0.646960 -0.290279 0.694983 
-1.002201 1.335916 -0.130673 -0.848077 0.119118 0.462461 
0.807963 0.069215 -0.095228 -0.461780 0.134193 -0.789103 
-0.829172 1.822601 0.047671 -0.886791 0.260436 0.363527 
0.066148 0.797873 0.009264 0.443197 0.378366 -0.795867 
-0.432658 2.069335 0.450814 -0.640555 0.683415 0.302107 
0.680676 0.705618 0.232323 -0.864591 0.225172 -0.381129 
-0.239922 1.009737 0.519360 -0.800165 -0.022631 0.527188 
-0.559344 1.110247 0.554209 -0.637623 -0.288569 0.633322 
-0.548610 2.478361 -0.404392 0.585300 -0.590927 -0.534639 
0.295603 0.631100 0.553804 0.445336 0.335531 0.795798 
-0.344850 2.270947 0.323171 -0.688650 0.598347 0.344949 
-1.119855 1.795820 -0.403070 0.655872 -0.487880 -0.498233 
-0.358978 2.746200 -0.336513 0.837988 -0.307427 -0.445104 
0.182894 -1.176219 0.145669 0.121249 -0.026790 0.898606 
0.312488 0.331272 0.036362 0.570269 0.048646 -0.794041 
-0.451067 0.411416 0.110748 0.012793 0.291899 -0.830614 
-0.148708 2.460606 0.270843 0.763964 -0.517460 -0.382636 
-0.559399 2.004660 0.235721 0.680584 -0.528897 -0.452353 
-0.356614 0.655432 0.158187 -0.817577 0.188313 -0.468403 
1.080785 2.241587 1.044842 0.249690 -0.647467 0.708233 
-0.557087 0.289341 0.224020 -0.799701 -0.347483 0.481234 
0.697184 1.042128 0.284889 -0.490729 0.380410 -0.777406 
0.390832 1.694448 0.802251 -0.298748 0.696935 -0.642527 
1.344408 0.548897 -0.514157 -0.611001 0.028368 -0.770701 
0.007198 -0.697785 0.076284 0.580262 -0.185845 -0.757513 
0.297566 -0.887780 0.073850 -0.154338 -0.062139 -0.974831 
-0.678062 0.565159 0.250373 -0.775466 -0.231564 0.492618 
-1.307493 1.192328 -0.569412 -0.826597 -0.134418 0.519918 
-0.590352 2.589131 -0.551349 -0.786878 0.404803 0.448455 
0.552907 -0.796212 -0.019748 -0.328269 -0.021445 -0.934903 
0.005213 -1.173735 0.147179 0.390105 -0.218907 -0.861970 
-1.120769 2.094119 -0.785606 0.703180 -0.504144 -0.484835 
0.238353 -1.222573 0.117489 -0.262592 -0.230336 0.604993 
-0.423173 2.983768 -0.599405 -0.749014 0.389889 0.523456 
0.298717 0.421638 0.532256 0.313432 -0.147645 0.933984 
-0.849839 1.227601 0.112639 -0.905351 0.077829 0.362444 
0.304937 -1.196451 0.084503 -0.508019 -0.092701 -0.836197 
-1.058913 0.717249 -0.486139 0.812631 0.253299 -0.515761 
-0.462290 1.782282 0.760148 0.781567 -0.532271 -0.324977 
-0.110212 0.917552 0.089684 -0.518998 0.457445 -0.695074 
0.366336 1.472860 0.670523 -0.805044 0.077259 -0.565162 
0.278897 -0.186498 0.387869 0.533609 -0.248166 0.775870 
0.463534 -1.375972 0.045534 0.769113 -0.119090 -0.160878 
-0.250863 -0.107634 0.006821 -0.635484 -0.071718 -0.761193 
1.381627 1.974410 0.574416 0.293971 -0.741143 0.590313 
0.884490 -0.190511 -0.231360 -0.446640 0.011171 -0.863247 
0.920818 0.144329 -0.174754 -0.558568 0.125388 -0.779105 
-0.108161 2.585080 0.223375 -0.755670 0.512182 0.388983 
0.152054 -0.674122 0.285413 0.223360 -0.332125 0.913712 
1.226478 0.669237 -0.339080 0.731797 -0.146599 0.658144 
-0.865473 1.699005 0.227670 -0.888022 0.232967 0.347678 
1.607266 1.505799 0.044299 0.332267 -0.573619 0.738618 
2.028870 2.134905 0.598245 0.135257 -0.729809 0.654655 
-1.114732 1.621932 -0.228734 -0.812346 0.239620 0.519057 
-0.069768 3.372720 -0.279876 -0.809766 0.286821 0.506040 
0.851657 0.393803 -0.002458 0.734696 -0.244459 0.627600 
-0.778587 1.351694 0.300701 -0.926228 0.110349 0.302747 
0.226017 0.615201 0.575493 0.282607 0.315237 0.865945 
0.144901 1.243126 0.405202 0.638891 0.725224 0.066783 
-0.795138 1.767092 0.224614 -0.903165 0.240035 0.320747 
0.430705 0.249539 0.417983 0.551897 -0.256954 0.777879 
-0.086537 2.832810 -0.015254 -0.843506 0.345713 0.393760 
0.492389 0.382847 0.111208 0.028184 0.237558 -0.897362 
0.125407 0.051399 -0.084956 0.554454 -0.014451 -0.824151 
0.273333 0.919243 0.478426 0.844768 0.098197 0.488174 
1.285449 0.693759 -0.426903 -0.659708 0.118227 -0.725299 
-0.934121 0.449274 -0.345759 -0.830776 -0.210718 0.493676 
0.737034 -0.582164 -0.124245 -0.394215 -0.037382 -0.903423 
0.672571 -0.600755 -0.092950 0.567594 -0.030172 0.815899 
-0.340433 0.292953 0.111131 -0.287532 0.163774 -0.926862 
-0.720597 -0.367838 -0.264952 0.534789 0.090825 -0.745620 
0.634553 0.034058 0.066320 0.728999 -0.212400 0.646151 
0.014336 -0.607128 0.060370 0.423156 -0.302695 -0.825969 
0.731234 0.746611 0.140493 -0.501200 0.400481 -0.765519 
0.273814 0.786685 0.090654 0.641999 0.527228 -0.538420 
0.441626 1.565462 0.718622 0.797701 -0.349847 0.441116 
-0.708727 0.955666 0.272779 -0.953804 -0.039980 0.282096 
-0.541733 -0.040432 0.040440 -0.822140 -0.193590 0.526527 
1.753363 1.514397 -0.024311 -0.174209 0.726358 -0.650962 
-0.219037 -1.097796 0.126740 0.235952 -0.144734 -0.955896 
1.673696 1.429936 -0.073368 -0.212212 0.610598 -0.729217 
0.777162 0.929072 0.232741 0.797313 -0.056733 0.562746 
-0.640294 1.155373 0.380316 0.686765 0.264276 -0.652542 
1.172715 2.011714 0.708739 -0.296302 0.531645 -0.790762 
0.292757 -0.059025 0.043762 0.495355 -0.023399 -0.838883 
0.248869 -0.584444 0.284018 0.478233 -0.283634 0.809006 
1.972975 1.395106 -0.196986 0.236937 -0.655239 0.717156 
1.752458 1.366419 -0.154309 -0.154216 0.660150 -0.690720 
-0.807858 1.163876 0.088968 0.727142 0.160491 -0.603990 
1.071862 1.451589 0.098359 -0.416248 0.554223 -0.718438 
-1.204417 1.142992 -0.479726 0.803123 0.100896 -0.551832 
-0.175226 -0.366953 -0.018985 -0.524312 -0.165602 -0.821445 
-0.787107 -0.160302 -0.332273 0.583732 0.147829 -0.691387 
-0.309337 2.874941 -0.352133 -0.698703 0.447012 0.533237 
-0.466351 0.288148 0.027929 -0.016835 0.180201 -0.869707 
0.689767 -0.205056 -0.029973 0.675881 -0.135972 0.709996 
-0.848248 2.255217 -0.591909 0.745096 -0.431972 -0.499186 
0.923424 -0.064641 -0.248727 -0.472651 0.034651 -0.843985 
0.849500 1.763860 0.644467 -0.258923 0.659332 -0.674425 
0.827677 -0.153199 -0.139347 0.646000 -0.097442 0.742544 
-0.962429 0.300134 -0.465185 -0.802557 -0.223893 0.497902 
0.496169 1.220803 0.592139 0.187645 -0.424821 0.757162 
0.292010 0.895944 0.268760 0.864922 0.363554 -0.262847 
-0.038077 0.495274 -0.096600 -0.502266 0.175163 -0.837860 
-0.966996 1.616180 0.048506 -0.859854 0.224013 0.417378 
1.494858 1.990971 0.528911 -0.248263 0.618989 -0.728561 
0.361320 1.713045 0.883037 -0.517045 0.790921 -0.152847 
0.224226 -0.980931 0.100381 -0.227058 -0.139151 -0.952744 
0.393009 -0.095705 0.310105 0.639777 -0.234529 0.725976 
1.012441 0.062962 -0.299293 0.645703 -0.060161 0.752705 
-0.346541 0.754540 0.449409 -0.790437 0.382702 0.417286 
0.746275 1.775397 0.737269 0.594179 -0.585591 0.478091 
-0.837600 -0.109383 -0.393162 -0.750760 -0.167825 0.568835 
-0.718678 2.237973 -0.398271 0.734973 -0.478357 -0.469754 
0.494722 -0.776281 0.028146 0.591221 -0.066104 0.797589 
-0.484335 2.771539 -0.543207 0.800258 -0.353024 -0.475296 
0.101560 0.159474 -0.105302 0.551841 0.016028 -0.827036 
0.606649 0.565650 0.129394 -0.149824 0.398607 -0.780303 
-0.758661 1.607255 0.377642 0.725456 -0.076761 -0.656505 
-0.707414 2.160386 -0.263421 -0.556592 0.687735 0.390967 
-0.595835 0.507831 0.029898 0.336667 0.290503 -0.740207 
0.504396 -0.487094 0.051838 0.663261 -0.121930 0.726634 
-0.377955 -0.047122 0.338658 -0.688636 -0.235827 0.678703 
-0.314396 2.208826 0.354470 0.757648 -0.477754 -0.430951 
-1.428104 1.504789 -0.674610 -0.802251 0.091650 0.529664 
1.058706 0.417489 -0.216522 0.718594 -0.160247 0.665491 
1.627182 2.308646 0.893409 -0.163576 0.784286 -0.596868 
-0.800316 0.354912 -0.187744 -0.840557 -0.208358 0.495771 
0.449782 -0.597180 0.075322 0.650740 -0.114402 0.739594 
-0.688834 0.542052 0.152216 -0.877869 -0.269823 0.370591 
-0.928668 2.139062 -0.550370 -0.462994 0.750420 0.381070 
0.453898 1.496123 0.682440 0.819533 -0.289534 0.460270 
0.968773 0.886953 0.024607 0.715061 -0.212068 0.609441 
2.021453 2.056206 0.490355 -0.141209 0.713314 -0.666594 
1.645419 2.017001 0.521778 0.202106 -0.816462 0.522769 
-0.300965 0.608832 0.549620 -0.475935 -0.023590 0.857662 
0.501674 -0.862436 0.010969 0.565460 -0.043639 0.822815 
0.706646 1.563786 0.533786 0.559385 -0.558956 0.419450 
1.830263 2.401684 0.979740 -0.116294 0.803483 -0.582857 
2.200639 2.515699 1.116007 -0.071640 0.841388 -0.534510 
0.342762 -0.041396 0.123331 0.300338 0.091844 -0.944343 
0.862208 2.000994 0.932526 0.442555 -0.612992 0.614082 
0.066434 0.869725 0.601952 0.204853 -0.145857 0.957575 
1.418571 1.170301 -0.486199 -0.479610 0.505805 -0.704518 
-1.006161 1.871918 -0.343012 0.577573 -0.605705 -0.467444 
-0.927366 -0.089263 -0.450166 0.626869 0.069149 -0.662053 
-0.030475 -0.326427 0.399889 -0.026632 -0.196899 0.977434 
0.511170 1.039477 0.488376 -0.885346 -0.150415 -0.347831 
0.846408 0.142027 -0.088024 0.714830 -0.169669 0.668165 
0.207815 -0.901503 0.092347 -0.198023 -0.150516 -0.955784 
-0.123119 3.313055 -0.337058 -0.820626 0.284902 0.489776 
-0.010290 -0.839113 0.257115 -0.480152 -0.171842 0.851323 
-1.158537 0.862396 -0.490547 -0.839937 -0.212989 0.497113 
-1.205476 1.438903 -0.397498 0.798867 -0.063759 -0.551454 
1.405436 1.905451 0.479732 0.296930 -0.707052 0.636920 
-0.696789 0.354373 -0.155480 0.401335 0.181542 -0.706508 
0.188757 -0.467306 0.360847 0.260000 -0.256670 0.923108 
1.755462 1.283828 -0.227338 0.042989 -0.762689 0.588228 
0.809801 -0.519684 -0.163189 -0.420316 -0.049837 -0.892485 
0.379167 0.509737 0.253834 0.501217 0.484465 -0.689805 
-0.411984 -0.321555 0.050232 -0.000014 0.050334 -0.895631 
-0.346403 0.360130 0.492834 -0.419454 -0.202815 0.870616 
-0.139107 0.367478 0.589319 -0.213262 -0.164887 0.959709 
-0.652041 -0.286808 -0.137531 0.564790 0.091827 -0.754010 
1.335685 1.302350 -0.106985 0.134632 -0.736943 0.561395 
-1.036313 0.535358 -0.510863 -0.832033 -0.257092 0.456520 
0.275727 -0.280466 0.049894 0.479196 -0.063587 -0.854445 
-0.482144 -1.362336 0.032878 -0.786238 0.019343 -0.355573 
-0.701394 1.121114 0.253813 0.696900 0.261830 -0.629775 
0.281344 0.578372 0.007928 0.660209 0.143358 -0.721697 
-0.804146 1.080620 0.141984 -0.919833 0.013792 0.340468 
-0.289040 0.939511 0.298692 -0.894520 0.365149 -0.200733 
-0.489969 0.471211 0.111654 0.094405 0.342723 -0.776208 
-0.457202 -0.792649 0.023265 0.395919 0.004782 -0.887953 
0.423677 0.374832 0.156311 0.226322 0.283680 -0.862487 
0.446718 0.449836 0.481510 0.396937 -0.143289 0.903322 
-0.086451 -0.826022 0.243160 -0.224176 -0.234415 0.936100 
-0.592670 1.085274 0.428862 0.959651 -0.050388 -0.159270 
0.157937 0.704016 -0.010542 0.482330 0.301671 -0.780756 
0.501447 -0.041816 0.045573 0.084995 0.088433 -0.878908 
0.730119 1.117272 0.332876 0.757773 -0.120015 0.557808 
-0.021793 2.852421 0.053452 0.763120 -0.396605 -0.508032 
-0.030041 0.932373 0.058484 -0.394461 0.516362 -0.748249 
1.170435 1.100980 -0.144039 0.559820 -0.437578 0.668284 
0.706924 -0.339395 -0.081565 -0.433546 0.060828 -0.860154 
-0.056869 -0.471403 -0.011586 -0.219350 -0.430569 -0.865585 
-0.762458 1.999532 -0.095236 -0.527536 0.755584 0.361425 
0.447248 1.159800 0.602666 0.269164 -0.376458 0.750859 
0.026346 -0.261336 0.418652 0.040924 -0.208420 0.974369 
1.138174 1.458798 0.074900 -0.412551 0.550315 -0.723334 
-0.666656 1.814746 0.450127 -0.614429 0.718068 0.315090 
0.791555 0.468956 0.109885 0.729926 -0.283534 0.614726 
0.282201 0.540983 0.545216 0.350712 -0.078816 0.915968 
-0.111173 -0.784502 0.087348 0.058899 -0.209804 -0.974941 
-0.064804 0.049871 -0.119515 -0.528467 -0.012267 -0.837799 
-0.641916 1.586847 0.662799 -0.962996 0.162782 0.188224 
-0.466550 0.165865 0.021818 -0.006451 0.149783 -0.864810 
-0.623878 0.474823 -0.039498 0.328342 0.250366 -0.739797 
0.626429 0.287429 0.220767 0.711373 -0.315107 0.622532 
-0.742407 0.286055 -0.123977 -0.834921 -0.214881 0.499866 
0.479445 1.436088 0.644443 0.820611 -0.252803 0.469718 
0.714423 0.664324 0.109947 -0.423876 0.433647 -0.702328 
-0.932461 1.931530 -0.289250 -0.854376 0.254617 0.450218 
2.015281 2.470803 1.071624 0.122849 -0.852595 0.497236 
-0.480603 -0.962307 -0.000705 -0.664047 0.093381 0.723344 
0.479868 0.451679 0.158507 0.129491 0.344082 -0.817627 
0.501237 1.502810 0.583535 -0.324433 0.486572 -0.804055 
0.490648 0.215963 0.346614 0.654808 -0.314925 0.677580 
0.405674 -0.512369 0.076405 0.029471 0.025877 -0.924939 
0.574977 0.178295 0.223476 0.711581 -0.298211 0.629104 
-0.829153 -0.039252 -0.365885 0.616446 0.167634 -0.661692 
-0.606939 1.949641 0.227377 0.724818 -0.439403 -0.461960 
-0.926123 0.175691 -0.446511 -0.786611 -0.207596 0.518981 
0.587847 0.234302 0.017855 -0.033072 0.149262 -0.864841 
-0.216279 0.434459 -0.016302 -0.649776 0.055504 -0.743075 
1.252603 0.781613 -0.345798 0.708491 -0.217769 0.653176 
1.557229 2.214216 0.785085 0.196172 -0.677221 0.695214 
0.004898 -0.786451 0.082892 0.603761 -0.166695 -0.753303 
-0.459056 -0.026599 0.202130 -0.799618 -0.253159 0.526643 
2.030525 2.534202 1.171459 0.119824 -0.862974 0.481299 
-0.625886 -0.869879 -0.105122 0.525672 -0.135449 -0.834833 
0.396976 -0.472584 0.145181 0.678960 -0.175971 0.706047 
1.675156 1.479764 -0.021725 0.126472 -0.783923 0.563193 
-0.915492 1.694217 0.070679 0.721481 -0.265263 -0.576572 
1.561815 2.037918 0.562815 -0.222481 0.570412 -0.776559 
-0.303919 -0.033717 0.083445 -0.365992 0.054710 -0.898696 
0.936590 1.899453 0.733316 -0.201453 0.551913 -0.794242 
-0.297216 2.183297 0.534827 -0.671436 0.606904 0.420963 
0.389136 0.609943 0.299840 0.623059 0.413785 -0.413756 
-0.476520 0.590797 0.234505 -0.093415 0.497746 -0.516784 
0.571814 0.250145 0.268356 0.706468 -0.327764 0.622350 
1.109727 0.587886 -0.215427 0.745402 -0.190278 0.635218 
1.214156 0.425994 -0.431957 -0.574682 0.051328 -0.784972 
-0.513100 -0.022880 -0.025067 0.094583 0.099798 -0.823984 
0.713151 1.636005 0.544996 -0.304046 0.666573 -0.633981 
-0.806534 2.315530 -0.603595 0.738953 -0.444762 -0.498976 
1.707901 2.336766 0.918774 0.175268 -0.805079 0.558467 
-1.099372 0.635401 -0.592755 -0.840557 -0.285619 0.429654 
-0.077065 3.447696 -0.332130 -0.804512 0.276695 0.518424 
-0.035322 3.146993 -0.125550 0.859219 -0.265873 -0.420912 
1.206758 1.810853 0.495095 0.371113 -0.638043 0.668223 
-1.084200 1.943229 -0.528652 -0.809770 0.319061 0.471495 
0.754563 0.885860 0.181663 -0.552165 0.316657 -0.761073 
0.982546 0.471212 -0.166291 -0.575452 0.192775 -0.718873 
-0.508298 0.095934 -0.015396 0.076021 0.129655 -0.832058 
-0.859531 1.744993 0.068388 0.640578 -0.412108 -0.524318 
0.637215 1.374001 0.479762 0.743419 -0.285945 0.522795 
-0.573628 0.632525 0.140043 0.223992 0.496461 -0.615194 
-0.220123 0.223157 0.516231 -0.350693 -0.218584 0.886582 
-0.723502 -0.455242 -0.247879 -0.658894 -0.032019 0.685834 
1.133493 0.241521 -0.387461 0.653460 -0.049070 0.748499 
-0.129528 0.652157 -0.034442 -0.482787 0.219218 -0.817336 
-0.711653 1.699512 0.520313 -0.936317 0.208461 0.238874 
-0.705577 0.425276 0.034363 -0.817275 -0.310458 0.476499 
0.203175 0.806506 0.067607 0.565540 0.476472 -0.649506 
0.613827 -0.437309 -0.017567 -0.374962 0.064445 -0.871684 
0.431121 -0.782426 0.058530 -0.205723 0.008986 -0.939483 
-0.641807 1.439642 0.630508 -0.848806 -0.106302 0.470690 
-1.288299 1.508414 -0.477590 0.797545 -0.068025 -0.551414 
0.790858 0.978783 0.178085 -0.525027 0.359985 -0.756592 
1.200071 0.492620 -0.375801 0.696444 -0.098847 0.700234 
-0.406683 -0.953957 0.063587 -0.562721 -0.062889 0.816686 
-0.293887 2.216409 0.469351 -0.681036 0.639902 0.316637 
0.620787 1.669129 0.673148 -0.090288 0.687478 -0.672946 
-0.078760 -0.138537 -0.088667 -0.486184 -0.110660 -0.844390 
-1.032194 1.391970 -0.202193 0.786332 -0.109239 -0.557679 
0.795187 0.672907 0.068562 -0.528388 0.373341 -0.758931 
-0.237257 0.959436 0.207237 -0.726379 0.387550 -0.508860 
0.705758 1.927449 0.898160 -0.231290 0.785304 -0.568118 
-0.058945 0.419086 -0.102313 -0.533556 0.128511 -0.823543 
1.518553 2.471276 1.133684 -0.249076 0.930216 -0.238688 
0.779812 0.266759 -0.076627 -0.291665 0.150246 -0.785972 
0.971125 0.541431 -0.157067 -0.550933 0.207183 -0.727229 
0.942286 -0.229595 -0.252854 -0.467526 -0.023419 -0.860587 
-0.651792 1.517958 0.614861 -0.961722 0.142600 0.200312 
-0.194523 0.173953 -0.042026 -0.637815 0.000327 -0.759545 
-0.619791 1.521659 0.702089 -0.657547 -0.252787 0.643260 
-0.218014 -1.028280 0.106201 0.218612 -0.143384 -0.955575 
0.612206 1.702531 0.742335 0.660263 -0.546614 0.448007 
2.137280 2.198446 0.660811 -0.102437 0.815036 -0.566519 
1.813860 2.349971 0.915723 -0.130637 0.796920 -0.587786 
-0.801835 -0.490755 -0.282413 0.549509 -0.095622 -0.777496 
-0.779605 0.591223 -0.007333 -0.876456 -0.242635 0.404445 
-1.166167 0.692414 -0.714209 0.800313 0.319448 -0.453478 
-0.451194 2.262210 0.029263 -0.742438 0.566036 0.354184 
-0.003261 -0.344080 -0.091833 -0.338103 -0.291387 -0.886865 
1.557579 1.109818 -0.323053 0.156849 0.834896 -0.497585 
-0.077229 0.654551 0.582905 -0.060585 0.151919 0.975768 
-1.468831 1.309035 -0.731132 0.805351 0.172776 -0.553331 
0.197083 -0.567616 0.068950 -0.037799 -0.249899 -0.946013 
-0.716525 1.927147 0.025070 0.858027 -0.291348 -0.397251 
1.202728 1.070005 -0.202477 0.570487 -0.423694 0.670602 
0.555400 1.798790 0.845187 -0.200967 0.796133 -0.565433 
1.382833 0.746769 -0.517525 0.705946 -0.076660 0.698234 
0.826789 1.563751 0.451048 0.450100 -0.655234 0.408198 
-0.542844 0.568452 0.425793 -0.293426 -0.312395 0.848457 
-0.262410 0.820068 0.134193 -0.660677 0.467617 -0.549678 
-1.449846 1.380816 -0.705619 0.799439 0.077142 -0.551863 
0.025019 1.247096 0.228847 0.489023 0.231518 -0.830741 
0.317547 0.017937 0.067850 0.417951 0.028466 -0.875535 
1.910808 2.332829 0.877609 0.138306 -0.797879 0.582724 
-0.147478 1.242514 0.419100 -0.621172 0.747943 0.084488 
-0.656877 1.914578 0.178010 0.777698 -0.350782 -0.458517 
0.185140 -0.607007 0.308004 0.279550 -0.345013 0.893214 
1.319654 1.252858 -0.273703 -0.374970 0.574961 -0.676389 
0.760987 1.731295 0.680484 0.578342 -0.576325 0.511724 
0.457302 0.320065 0.101894 0.120274 0.185487 -0.922239 
-0.660467 0.044076 -0.132742 0.430856 0.126039 -0.731729 
-0.840239 1.096801 0.080733 -0.906042 0.019297 0.364826 
-0.543368 2.617326 -0.502658 -0.805848 0.378801 0.438692 
0.154234 1.099475 0.435461 0.653255 0.198194 0.564337 
-0.146173 0.741724 0.553597 -0.186253 0.049626 0.964808 
-0.531590 0.668054 0.418849 -0.292599 -0.342774 0.776669 
1.056072 2.176118 0.994227 0.357868 -0.679710 0.622892 
-0.848890 0.990566 -0.045691 0.752123 0.174123 -0.586545 
-0.933168 2.088704 -0.494277 -0.409475 0.800282 0.359678 
-0.244288 0.292296 0.527009 -0.377796 -0.199179 0.876986 
0.612171 1.094751 0.375071 -0.464414 0.383231 -0.791560 
1.103437 0.055974 -0.354762 -0.525071 -0.010019 -0.826360 
-1.278227 0.817105 -0.867858 -0.847416 -0.365922 0.362536 
-0.668618 -0.210034 -0.125606 -0.760217 -0.106120 0.612568 
0.391257 1.409049 0.634280 -0.809203 0.048319 -0.538381 
-0.204436 3.264839 -0.442055 -0.800571 0.306376 0.512615 
1.123080 0.469236 -0.281884 0.712767 -0.138674 0.676073 
-0.761827 1.266308 0.297181 -0.933780 0.080698 0.297095 
-0.219357 0.608313 -0.007818 -0.597423 0.158586 -0.754625 
-0.184801 1.157724 0.629995 -0.848453 -0.043921 -0.421209 
1.835841 2.290032 0.835515 0.149837 -0.752090 0.626815 
0.484335 0.619822 0.387052 -0.215078 0.677826 -0.472645 
1.422863 2.238577 0.885978 0.245827 -0.744856 0.602460 
0.322936 0.853075 0.319224 0.914881 0.341846 -0.092918 
0.302085 -0.394012 0.329887 0.624602 -0.235102 0.726368 
-0.406213 -0.393664 0.055230 0.027552 0.041555 -0.902058 
0.120082 -0.580043 0.329155 0.164987 -0.315031 0.931698 
-0.185440 2.998885 -0.268385 -0.818321 0.334297 0.454647 
-0.016755 0.162175 0.539118 -0.084753 -0.237503 0.965279 
1.047440 1.183919 0.033546 0.565598 -0.412011 0.648642 
0.479244 -1.103673 0.029846 0.678009 0.209816 0.669577 
0.818678 -0.435317 -0.175718 0.535210 0.004920 0.830802 
-0.780361 -0.027984 -0.276691 0.628310 0.149057 -0.677199 
0.876145 -0.481226 -0.196700 0.457337 0.063618 0.876297 
0.610495 1.312572 0.435649 -0.395927 0.449072 -0.788741 
-0.159771 -0.726730 0.258746 -0.208492 -0.306424 0.925782 
0.750116 0.206829 0.019057 0.733253 -0.222176 0.637982 
1.875902 2.160993 0.660642 0.150508 -0.684941 0.695504 
-0.760591 0.078694 -0.186645 -0.796721 -0.149035 0.559907 
-0.613331 2.627045 -0.618695 0.664683 -0.503993 -0.527833 
-0.198459 -0.541660 0.062306 0.046782 -0.292121 -0.931314 
0.840183 1.977703 0.864438 -0.250489 0.765812 -0.585651 
-0.877065 -0.032717 -0.436795 -0.757225 -0.183606 0.552162 
0.436958 -1.037423 0.050291 -0.349049 -0.021423 -0.932088 
-0.139397 0.273279 0.563374 -0.219782 -0.198203 0.951907 
-0.967635 1.358868 -0.057366 -0.862189 0.131191 0.436442 
0.923321 1.475488 0.223059 -0.387061 0.543035 -0.739476 
-0.207636 0.021026 0.464565 -0.371069 -0.253018 0.864324 
1.068440 0.607316 -0.159278 0.756851 -0.202701 0.620583 
0.699799 0.036176 -0.011379 0.735332 -0.182091 0.651393 
0.156330 -0.743691 0.253878 0.193697 -0.296194 0.931987 
-0.961971 -0.025647 -0.485536 -0.662905 -0.076808 0.620599 
-0.677887 1.959197 0.125006 -0.627766 0.692926 0.293084 
-0.650104 1.089906 0.331957 0.686187 0.302796 -0.643324 
-1.127961 0.403818 -0.682888 0.736776 0.218744 -0.518929 
-0.369299 -0.067130 0.089244 -0.166129 0.098234 -0.925712 
0.900687 1.572836 0.413422 0.367205 -0.733076 0.383295 
-0.185060 0.471555 0.580496 -0.257514 -0.129181 0.953354 
2.150565 2.358664 0.871148 0.096838 -0.816351 0.568766 
1.115989 1.963021 0.708926 0.409749 -0.689613 0.568804 
-0.397622 2.407918 -0.064601 -0.743166 0.498798 0.400775 
-0.361259 -0.860193 0.131259 -0.569139 -0.124920 0.801602 
0.632549 0.150921 -0.009295 -0.092705 0.128492 -0.839023 
-0.789917 1.737576 0.294117 -0.907825 0.231250 0.307122 
0.660975 0.773567 0.262213 -0.897986 0.121730 -0.346567 
2.189994 2.563883 1.194241 -0.069794 0.848109 -0.524226 
0.651969 1.153859 0.415771 0.794425 -0.108511 0.531417 
-0.640628 1.787510 0.547337 -0.640446 0.704513 0.259715 
-0.727077 0.499685 0.037496 -0.841584 -0.288346 0.443065 
2.098969 2.027835 0.437763 -0.132437 0.757500 -0.631173 
0.959740 0.208302 -0.169038 0.696066 -0.146194 0.687957 
0.214981 -0.189574 -0.016228 0.578136 -0.090589 -0.805028 
-1.160567 1.451182 -0.344417 0.797614 -0.101374 -0.551067 
-0.009152 0.562635 -0.098027 -0.442145 0.212719 -0.866294 
-0.868794 -0.271979 -0.373377 -0.609833 0.006720 0.695397 
0.444430 -0.859962 0.064435 0.564436 -0.078602 0.816760 
0.916705 1.150073 0.156757 0.644758 -0.278909 0.612794 
-0.297355 2.265341 0.396711 -0.688844 0.615876 0.334244 
0.031901 -0.466616 -0.020312 0.195444 -0.458253 -0.854867 
1.342277 1.562401 0.143458 -0.336835 0.498671 -0.797148 
