0.216764 1.117412 0.423616 0.369851 0.238372 0.792923 
-0.966233 2.093773 -0.788600 0.752701 -0.460677 -0.458936 
0.092117 1.122187 0.182130 0.434137 0.419392 -0.785394 
-0.914372 0.060209 -0.353421 -0.755774 -0.170404 0.587100 
0.755483 1.949184 0.751359 0.475255 -0.466637 0.705571 
-1.189902 0.795222 -0.483484 0.779555 0.161091 -0.596503 
-0.965525 1.999533 -0.636891 -0.469099 0.790916 0.283625 
0.171481 1.112284 0.573959 0.832854 0.280973 -0.314376 
0.957101 -0.179566 -0.240030 -0.437263 0.006399 -0.862217 
1.970888 1.260447 -0.207625 0.144692 -0.573884 0.782772 
-0.116573 -0.056761 -0.090205 -0.556077 -0.039761 -0.821838 
-0.605775 -0.563015 -0.088741 0.457352 0.035845 -0.833192 
0.363873 -1.158785 0.131238 0.101945 -0.087740 0.967631 
1.228327 1.583715 0.242723 0.237374 -0.688540 0.628278 
1.525951 1.888447 0.313818 -0.238805 0.609960 -0.753798 
-0.238910 2.825756 -0.359258 -0.839668 0.351086 0.396292 
1.234223 1.672365 0.261150 -0.157050 0.786463 -0.584444 
1.049893 0.005769 -0.298567 -0.474506 0.031570 -0.838830 
1.787600 1.919324 0.281133 -0.170988 0.555927 -0.801886 
-1.001971 0.473832 -0.382086 0.756097 0.218132 -0.595322 
-0.663481 -0.360955 -0.090324 -0.709570 -0.070032 0.676595 
-1.470845 1.583090 -0.883804 0.747357 -0.442486 -0.481426 
0.337595 1.709812 0.771267 0.096317 -0.658833 0.704027 
0.855084 0.612655 0.109771 0.757094 -0.149518 0.630140 
-0.853954 2.170019 -0.711233 0.751377 -0.476000 -0.448076 
0.216823 0.399521 -0.028544 0.625081 0.084192 -0.762409 
-0.918717 1.184600 -0.060177 0.728421 0.023640 -0.610932 
-0.735299 1.968227 -0.220538 0.833126 -0.385925 -0.359038 
-0.249491 -0.672366 0.256502 -0.427623 -0.254872 0.837387 
0.065475 1.209968 0.529407 -0.112579 0.722089 0.653577 
-0.817163 0.368568 -0.208755 0.530328 0.178393 -0.680870 
-0.766750 1.688195 0.264579 0.661955 -0.284845 -0.600354 
1.295820 0.792601 -0.339956 -0.557797 0.336779 -0.740169 
-0.498890 0.615721 0.364266 0.232125 0.663267 -0.417833 
-0.463485 -0.118943 0.021719 -0.039184 0.072128 -0.868827 
1.536535 1.671115 0.172646 0.373847 -0.294854 0.836310 
-0.738889 1.067617 0.266717 -0.943546 0.021156 0.309864 
-0.929543 0.772623 -0.187419 0.749277 0.150031 -0.610839 
-1.367018 1.560746 -0.662227 -0.801194 0.349328 0.482453 
1.320094 1.807062 0.351243 0.328116 -0.516272 0.781942 
0.572988 -0.279698 0.022458 -0.113661 0.052283 -0.880371 
2.020345 1.979250 0.306534 -0.121990 0.598238 -0.779130 
-0.776846 2.265849 -0.698880 -0.739910 0.525434 0.412394 
0.280748 -0.114329 0.031070 0.545234 -0.058777 -0.812332 
0.989423 1.623593 0.396197 0.370701 -0.591678 0.651694 
-0.603512 -0.027780 -0.009611 -0.797064 -0.173490 0.573551 
0.682830 1.179144 0.369538 0.762929 -0.090376 0.579851 
1.353344 1.108575 -0.314369 -0.440666 0.459152 -0.763554 
1.142830 2.257767 0.759923 -0.269354 0.647766 -0.710915 
-0.269846 0.761372 0.067194 -0.619457 0.554712 -0.538999 
1.921367 2.022836 0.363698 0.137701 -0.711597 0.678161 
0.031575 1.183818 0.197093 0.417771 0.311692 -0.839700 
-1.112867 0.543606 -0.506514 -0.817828 -0.254869 0.499609 
-0.296790 3.278888 -0.722517 -0.813001 0.300427 0.497451 
0.947321 2.228745 0.850259 -0.435026 0.760039 -0.437159 
1.469239 0.829175 -0.494776 0.664919 -0.189787 0.701887 
0.869381 0.633119 0.029698 -0.517649 0.290432 -0.793239 
1.539569 2.567589 0.940817 -0.270960 0.921070 -0.272298 
0.201191 0.611754 -0.015294 0.570116 0.210734 -0.762585 
-1.144020 0.748481 -0.446145 0.778117 0.164254 -0.596685 
1.313780 1.957234 0.448189 -0.279224 0.522393 -0.795541 
-0.766850 -0.250751 -0.220158 -0.717463 -0.108069 0.647673 
1.251163 0.506967 -0.337488 0.690259 -0.128043 0.703914 
0.961203 1.228389 0.112887 -0.393430 0.418658 -0.810875 
0.175018 1.232009 0.542120 -0.216447 0.920404 0.240918 
0.068610 0.171315 -0.136547 0.541095 0.024253 -0.834159 
0.963536 0.145713 -0.157557 -0.535319 0.121928 -0.797881 
0.095586 0.327905 0.570338 0.136758 -0.218859 0.961933 
-0.227729 3.145620 -0.542302 0.800658 -0.324634 -0.498839 
0.918705 1.844872 0.551573 -0.209966 0.516416 -0.803045 
1.989509 2.041715 0.375193 0.126658 -0.710001 0.683416 
1.353412 1.342501 -0.032089 0.128460 -0.674468 0.654949 
-0.598189 0.992802 0.433919 -0.676948 -0.237217 0.673476 
-0.493434 2.956755 -0.847663 0.790223 -0.354110 -0.498860 
-0.886200 0.983450 -0.065399 0.725772 0.117877 -0.623582 
-0.380415 2.328815 -0.060744 0.808196 -0.484144 -0.325415 
1.685955 2.022563 0.400682 0.173736 -0.724125 0.652454 
0.148337 -0.004584 -0.074167 0.565711 -0.037514 -0.813862 
-0.145621 1.205909 0.578458 0.334544 0.734218 0.510961 
0.861415 -0.465400 -0.162999 -0.399997 -0.052394 -0.893044 
1.951570 2.396507 0.718789 0.106732 -0.705681 0.697164 
-0.611055 1.738717 0.492521 0.777169 -0.118344 -0.588067 
-0.794493 1.598936 0.340936 -0.923747 0.195774 0.270162 
0.052119 -0.222624 0.425351 0.090971 -0.181298 0.975675 
0.534548 -0.784189 0.034045 0.546505 -0.040939 0.831563 
0.854409 0.532167 0.096624 0.723020 -0.213498 0.646879 
1.170346 2.159225 0.668660 -0.270438 0.678916 -0.676905 
0.056475 1.353496 0.298427 0.616913 0.680474 -0.242148 
-0.303927 2.450638 0.009484 -0.743414 0.551767 0.341875 
0.280481 0.295297 0.506818 0.340519 -0.225522 0.897037 
0.277855 0.981522 0.361985 0.911324 0.361861 -0.035374 
-0.836834 0.553760 -0.047431 -0.848662 -0.223695 0.469737 
-1.197020 1.416876 -0.364860 -0.810500 0.200905 0.511607 
-0.599847 -0.146811 -0.062813 0.291870 0.079975 -0.805729 
0.697331 0.951338 0.250251 -0.472408 0.283216 -0.829756 
1.175304 0.958722 -0.143347 -0.506923 0.361569 -0.756562 
0.174597 1.213477 0.471360 0.893508 -0.270363 0.298534 
-0.382601 -1.218852 0.079001 -0.116493 0.151949 -0.896467 
-0.365924 0.706082 0.270785 -0.901026 0.359116 -0.222519 
0.484301 1.278839 0.461112 -0.754633 0.057502 -0.642678 
-0.797916 -0.578837 -0.230365 -0.517509 0.125944 0.799189 
-0.435031 0.193414 0.372110 -0.646743 -0.309446 0.684137 
0.928747 1.632850 0.351623 -0.355569 0.371237 -0.853427 
-0.063261 1.150404 0.186955 -0.430246 0.381915 -0.804957 
0.435702 0.079020 0.096345 0.212413 0.117601 -0.915451 
-1.190266 0.859333 -0.451841 -0.815671 -0.115103 0.540827 
-0.688941 0.557116 0.267202 -0.736212 -0.201719 0.559898 
1.451064 1.567797 0.102999 -0.076378 0.740926 -0.666811 
-0.183627 0.602284 0.590253 -0.286216 -0.086838 0.938081 
-0.038040 0.522474 0.601682 -0.080368 -0.136509 0.983489 
1.962590 1.934064 0.267088 -0.134738 0.583014 -0.790042 
0.625425 -0.543108 0.006186 0.581818 -0.072384 0.798341 
0.940338 0.686749 0.037310 0.759551 -0.117708 0.629923 
-1.486179 1.310306 -0.733510 -0.798136 0.106415 0.533387 
0.560521 1.776397 0.692378 0.648013 -0.486235 0.537776 
-0.040065 0.764429 -0.011807 -0.415198 0.359683 -0.823964 
0.875522 1.561526 0.311207 -0.325892 0.412795 -0.843581 
0.529271 0.125645 0.271488 0.667455 -0.300134 0.674513 
-0.184915 -0.088113 0.437530 -0.320734 -0.228029 0.889903 
0.946561 2.109489 0.781227 0.393663 -0.526723 0.718303 
1.016763 -0.145122 -0.268432 -0.458249 -0.007007 -0.854809 
1.957986 2.628732 0.972686 -0.116748 0.814998 -0.536477 
0.003437 -0.299024 -0.101417 0.354382 -0.276901 -0.878646 
1.008010 1.342824 0.100777 -0.358309 0.456957 -0.807879 
-0.053527 0.418678 -0.114889 -0.540065 0.144310 -0.815436 
1.055755 1.660763 0.290020 -0.242108 0.686900 -0.682689 
1.226970 0.105547 -0.386151 0.550556 0.010557 0.805257 
-0.882292 0.810719 -0.042708 -0.877560 -0.077851 0.429228 
-0.791572 2.107891 -0.503499 -0.617775 0.663190 0.341773 
-0.699884 -0.789126 -0.122256 0.454448 -0.193938 -0.866720 
-0.719113 1.319673 0.381437 -0.948371 0.088964 0.262981 
-0.862363 0.057148 -0.263449 -0.759493 -0.149396 0.598637 
0.500885 1.208869 0.496466 -0.897227 -0.221338 -0.227188 
0.156203 -0.872930 0.221604 0.183430 -0.194413 0.957835 
-0.906936 1.274439 -0.018250 0.720675 0.004184 -0.614115 
1.557647 1.625858 0.118599 -0.091569 0.715456 -0.688593 
0.859826 0.514656 -0.036734 -0.392680 0.226943 -0.800151 
-0.922225 1.815473 -0.329913 0.508397 -0.782022 -0.324278 
-0.257092 -0.360396 0.352058 -0.527300 -0.198928 0.776582 
1.802789 2.005744 0.359684 0.154251 -0.721207 0.662603 
-0.495979 0.549128 0.464013 -0.398882 -0.080338 0.846777 
-0.360368 0.587508 0.204826 -0.589778 0.415578 -0.669541 
-0.527232 2.230359 -0.184438 -0.769334 0.554218 0.313119 
-0.685555 0.797566 0.145006 0.641241 0.366326 -0.658912 
1.219095 0.637795 -0.281335 -0.652884 0.196198 -0.727138 
0.152587 0.205093 0.527022 0.205937 -0.233870 0.949363 
-0.734208 0.879915 0.238474 -0.942491 -0.068527 0.314447 
-0.382264 -0.091659 0.303650 -0.671343 -0.225257 0.695428 
1.276093 0.412066 -0.415890 -0.578018 0.077827 -0.780061 
-0.283386 -0.450816 0.062753 -0.373374 -0.072333 -0.871324 
1.117146 1.270622 0.019957 0.457438 -0.423581 0.739937 
0.410030 -0.775110 0.134621 0.562235 -0.101642 0.812949 
-0.624501 0.006907 -0.083584 0.259555 0.102674 -0.785738 
0.277594 1.747412 0.760099 -0.549294 0.391252 -0.669035 
0.894452 -0.076375 -0.128176 0.629676 -0.102861 0.754985 
-0.628572 0.038435 -0.009558 -0.795748 -0.190627 0.567636 
-0.562483 0.113760 0.143431 -0.774448 -0.269062 0.558420 
-0.422789 3.015858 -0.781047 -0.790677 0.355875 0.495793 
-0.246012 1.185347 0.712693 -0.717175 0.059528 -0.691434 
-0.973222 1.040889 -0.131299 -0.854913 0.039329 0.453584 
-0.556426 -0.039109 0.059569 -0.788330 -0.197223 0.573438 
-0.212068 -0.491490 0.046259 -0.182271 -0.262071 -0.879391 
0.345755 -0.417022 0.251578 0.661844 -0.202096 0.720476 
2.277935 2.180360 0.479540 -0.064459 0.700555 -0.710552 
0.899279 -0.311706 -0.197933 0.560948 -0.020481 0.813186 
-0.416294 2.731580 -0.548250 -0.704117 0.487816 0.489125 
1.666418 1.329727 -0.087164 0.005974 -0.729701 0.639286 
-0.867203 2.231171 -0.811996 0.742832 -0.486933 -0.454152 
-0.630336 2.414732 -0.619102 -0.830585 0.376264 0.390094 
1.338045 2.146476 0.601692 -0.258600 0.737140 -0.618989 
1.343201 1.525578 0.105248 -0.316916 0.380311 -0.866020 
-0.082758 0.466043 0.593348 -0.130351 -0.159871 0.972981 
0.542182 0.470872 0.143018 0.016377 0.319673 -0.838717 
-0.927686 1.042791 -0.055054 -0.872204 0.034982 0.426119 
-0.341984 -1.024666 0.091662 0.244302 -0.056960 -0.962231 
1.251392 0.998407 -0.204822 0.526692 -0.385827 0.729605 
-0.117356 -0.633751 0.069530 -0.018662 -0.241961 -0.964649 
-0.568945 2.155794 -0.142549 -0.749319 0.584102 0.306155 
-0.094026 0.314551 0.565924 -0.143021 -0.222244 0.959630 
-0.604731 -0.816994 -0.065735 -0.558502 0.098367 0.806347 
-0.179944 -0.174556 -0.041683 -0.582543 -0.078519 -0.801000 
-0.985779 1.833001 -0.422608 -0.859451 0.266341 0.433967 
1.518265 0.893651 -0.541207 0.629941 -0.229465 0.714015 
-0.022847 -0.727315 0.304813 -0.393405 -0.207740 0.890536 
-0.427554 -1.411659 0.074056 0.370463 -0.838671 -0.057340 
-0.609244 0.792486 0.357898 -0.767351 -0.214041 0.597986 
-0.562527 1.879463 0.502594 -0.813981 0.546791 0.047248 
-0.006417 1.215863 0.523579 -0.025398 0.700407 0.702855 
1.044061 1.039139 0.027238 0.587622 -0.284509 0.691138 
-0.650642 1.624269 0.596856 -0.967934 0.156393 0.179240 
-0.015428 1.098866 0.152134 -0.311056 0.405796 -0.853288 
-0.423043 2.320577 -0.134159 0.837605 -0.455199 -0.299317 
0.027392 -0.441235 -0.045518 0.261338 -0.406628 -0.865495 
0.712772 1.606473 0.430623 -0.290244 0.402932 -0.861519 
1.634308 1.672781 0.133556 -0.105826 0.694577 -0.705876 
0.521325 -0.628666 0.044131 -0.237506 0.011215 -0.920734 
0.537752 1.859650 0.788991 0.329725 -0.474346 0.800252 
0.814722 1.337281 0.286380 0.633290 -0.283249 0.635942 
-0.537865 2.027106 0.222935 -0.806595 0.540647 0.112849 
1.339760 0.519148 -0.451284 -0.604679 0.088183 -0.765083 
0.277205 0.785606 0.112284 0.662102 0.506592 -0.518675 
-1.105488 1.237572 -0.297748 -0.814957 0.145725 0.507012 
-0.643053 1.476721 0.576738 -0.579030 -0.230343 0.705517 
0.768787 0.189199 -0.051826 -0.217172 0.128133 -0.811832 
-0.000869 -0.539370 0.017167 -0.537969 -0.377144 -0.678741 
-1.038401 0.422133 -0.424926 -0.804227 -0.223726 0.526916 
-0.210925 -0.501103 0.343940 -0.349155 -0.250574 0.895736 
0.487382 -0.858388 0.040873 -0.266812 -0.029933 -0.953565 
-1.050431 0.807722 -0.313858 -0.819290 -0.069776 0.523277 
-0.402937 2.076384 0.399961 0.788725 -0.431764 -0.423320 
0.435839 0.213542 0.403340 0.539875 -0.289978 0.781342 
-0.859475 -0.325177 -0.331811 -0.631863 -0.033327 0.693050 
1.212673 0.702609 -0.236717 0.652478 -0.266728 0.689696 
-0.621557 2.294960 -0.457161 -0.787157 0.462596 0.377933 
-0.728272 1.770134 0.284351 -0.906970 0.276919 0.250042 
-0.982324 0.356304 -0.388878 0.720263 0.206254 -0.615030 
1.038462 0.874491 -0.042492 -0.531413 0.307777 -0.766765 
-0.333654 -0.697128 0.203356 -0.620011 -0.153375 0.759125 
0.873892 2.168806 0.836712 -0.445026 0.762726 -0.405202 
-0.535854 2.430958 -0.489098 0.536500 -0.674868 -0.496418 
-0.066908 -0.571005 0.341307 -0.185545 -0.269528 0.935231 
-0.932638 0.264402 -0.339784 0.694920 0.185031 -0.640298 
0.405744 1.487029 0.645143 -0.162271 -0.432520 0.784285 
-0.137758 2.982988 -0.289546 -0.612654 0.481746 0.583146 
0.213493 -1.209258 0.162639 -0.091592 -0.110498 0.719661 
-0.295578 0.275225 0.024967 -0.661568 0.036724 -0.720511 
0.904406 1.997714 0.721633 0.425184 -0.492378 0.714578 
0.448048 -1.052051 0.073310 0.623553 0.110565 0.740252 
0.217094 1.024562 0.225867 0.703911 0.376684 -0.541969 
0.267547 0.948211 0.268249 0.815896 0.356276 -0.345590 
-0.213291 3.016702 -0.451531 0.789421 -0.357592 -0.495097 
-0.328403 2.380545 -0.048888 0.781618 -0.519124 -0.339393 
-0.126214 0.282176 -0.102614 -0.619107 0.042088 -0.772245 
1.318743 2.352424 0.799535 0.246384 -0.632393 0.731043 
1.050775 0.724546 -0.092288 -0.588211 0.257291 -0.751148 
0.299954 0.211739 0.018955 0.620170 0.012924 -0.766039 
-0.717031 1.909552 -0.052493 0.815272 -0.380569 -0.376561 
0.396998 0.056181 0.371642 0.556864 -0.265651 0.782818 
-0.472621 2.259207 -0.135378 0.581268 -0.689209 -0.425997 
0.896438 -0.385124 -0.187870 -0.413256 -0.039351 -0.883761 
-0.750670 0.204096 -0.167561 0.444988 0.142425 -0.716728 
-0.350517 0.286543 0.140549 -0.302961 0.202755 -0.919772 
0.166669 -0.692386 0.280735 0.224907 -0.296964 0.924454 
-0.573368 2.105555 -0.073638 0.683464 -0.615567 -0.358532 
-0.823330 2.240873 -0.756670 0.737209 -0.509200 -0.439901 
0.303177 -0.480493 0.082349 0.333194 -0.052126 -0.895582 
0.205814 0.143772 0.485837 0.278375 -0.253954 0.914873 
-0.032003 1.364776 0.360449 -0.453322 0.691388 0.502970 
0.623559 0.950032 0.293430 -0.604689 0.170554 -0.734956 
0.540961 1.079733 0.432989 -0.895825 -0.175606 -0.332580 
-0.514185 -0.866460 -0.005701 -0.622269 0.026677 0.773386 
-0.649804 1.032078 0.390357 -0.556454 -0.310826 0.748648 
-1.349826 1.313300 -0.542631 -0.807985 0.059665 0.539451 
1.109974 1.919301 0.530482 0.394039 -0.566941 0.699248 
-0.684687 2.039331 -0.227342 0.783149 -0.493813 -0.344597 
-0.485903 0.295795 0.358477 -0.667373 -0.340592 0.633148 
0.578392 -0.862377 0.004778 0.484415 0.021874 0.867368 
0.368679 -0.117749 0.346959 0.601171 -0.245643 0.754535 
1.128384 0.464049 -0.235807 -0.618318 0.163780 -0.750275 
0.581115 1.276958 0.411237 -0.352403 0.348658 -0.858291 
-1.009749 1.387640 -0.097497 -0.858498 0.203627 0.430198 
-0.770363 -0.171414 -0.223232 0.569017 0.109891 -0.739059 
1.226554 1.546551 0.154172 -0.356370 0.385422 -0.847521 
1.876343 1.201107 -0.223414 0.051250 -0.629676 0.727686 
-1.060844 0.422792 -0.491880 0.735276 0.236412 -0.584523 
-0.121253 0.663048 -0.037654 -0.478661 0.256686 -0.812070 
-0.023373 -0.891647 0.130717 -0.315779 -0.230785 -0.915635 
0.838755 1.845115 0.588265 -0.156340 0.489557 -0.831664 
0.818921 -0.242543 -0.100226 0.608709 -0.084769 0.774830 
-1.222274 0.913834 -0.494646 0.782014 0.109365 -0.589204 
1.326009 0.434216 -0.463794 -0.577905 0.063320 -0.781595 
-1.080683 0.491526 -0.471083 -0.812018 -0.241413 0.511372 
1.475163 2.063106 0.496015 0.231180 -0.701835 0.657405 
-0.382859 0.605537 0.278506 -0.740064 0.345145 -0.460514 
0.334826 -0.729155 0.205542 0.535319 -0.167616 0.815574 
-1.189787 1.711771 -0.593343 -0.829293 0.306531 0.461858 
-0.755664 1.224155 0.287907 -0.937592 0.072730 0.298405 
-1.324045 1.897222 -1.105788 -0.693500 0.596691 0.403054 
0.976219 0.299833 -0.107910 0.695368 -0.174657 0.690368 
-1.380623 1.095749 -0.619858 0.787324 0.086542 -0.586850 
0.260357 0.364502 0.535779 0.278601 -0.196386 0.933412 
1.916928 1.640475 0.054214 0.218737 -0.521781 0.798242 
-0.880519 1.765667 -0.091687 -0.887976 0.271139 0.355859 
-0.344772 2.859140 -0.547811 0.778541 -0.394902 -0.484224 
1.008600 2.265441 0.845161 -0.394692 0.739492 -0.504936 
-0.630102 0.203943 -0.079967 0.219627 0.148218 -0.782661 
0.715490 -0.505594 -0.096005 -0.351839 -0.004127 -0.906530 
1.514225 2.200239 0.598171 0.200728 -0.526571 0.815338 
0.146085 0.072583 -0.080375 0.573006 -0.016576 -0.809373 
-0.203737 0.388794 0.563719 -0.247436 -0.197137 0.945996 
1.064041 1.386123 0.067116 -0.347522 0.479713 -0.802081 
1.714510 1.809786 0.211995 -0.168482 0.637152 -0.746515 
0.513508 0.089401 0.060478 0.112083 0.115932 -0.890033 
-0.406336 0.620243 0.345283 -0.474908 0.466089 -0.421964 
-0.882493 0.913280 -0.078716 0.727441 0.144181 -0.625431 
0.490959 -0.208317 0.128602 0.688470 -0.187146 0.697259 
1.277364 0.625125 -0.347815 -0.650272 0.155250 -0.734452 
-0.578000 -0.299280 -0.043792 0.330181 0.057754 -0.824361 
-0.220790 0.306006 0.534239 -0.314003 -0.222291 0.904046 
-0.513433 1.748351 0.765324 0.638861 -0.722984 -0.087316 
0.239894 0.200154 -0.027577 0.638993 -0.000318 -0.762033 
-0.136464 0.656522 0.585022 -0.110175 0.159619 0.968895 
-0.749055 -0.116276 -0.171659 0.588210 0.104849 -0.738579 
-0.193571 -0.312452 0.385596 -0.332036 -0.182937 0.884917 
0.135881 0.687357 -0.023079 0.473543 0.304967 -0.790700 
-0.304120 0.110555 0.064793 -0.493614 0.052907 -0.824958 
-0.905382 1.360548 0.013934 0.723800 -0.044951 -0.615809 
0.289953 -0.115478 0.392780 0.501436 -0.246135 0.800360 
1.132299 1.111170 -0.054297 -0.451875 0.404530 -0.772812 
-0.849227 1.132019 0.030265 0.707026 0.100750 -0.634722 
-1.277238 0.715800 -0.702824 -0.825419 -0.295661 0.468935 
-0.227267 -0.685144 0.083561 0.034742 -0.165814 -0.969746 
-0.152426 1.061843 0.462680 -0.572711 0.605425 0.345380 
-1.076221 0.619908 -0.417342 0.777442 0.208940 -0.589825 
0.309737 -1.267800 0.111930 -0.560606 -0.123294 -0.802789 
-1.090439 0.820918 -0.380021 0.778582 0.094533 -0.586262 
0.285671 -1.186609 0.128531 -0.336357 -0.301429 0.546614 
-0.652033 1.302504 0.400433 0.662826 0.123169 -0.707364 
0.447078 1.762946 0.685083 -0.163444 0.548125 -0.797787 
1.025413 0.174039 -0.191107 0.658835 -0.122951 0.728560 
-0.081151 -1.205945 0.200072 -0.020476 -0.276611 -0.945814 
1.002216 1.449653 0.172567 0.450985 -0.501845 0.671958 
-1.279674 1.455509 -0.452757 -0.807180 0.198561 0.517296 
0.568088 0.431450 0.417202 0.511526 -0.217683 0.795682 
-1.151317 0.290485 -0.650524 0.696951 0.225218 -0.579442 
0.673355 -0.556364 -0.066028 -0.341029 -0.003624 -0.912125 
-0.828937 1.448141 0.233348 -0.913894 0.162570 0.311951 
0.387206 0.417221 0.492708 0.340161 -0.169551 0.922138 
1.543044 2.337240 0.707751 -0.158108 0.685273 -0.707852 
-0.243499 -0.192500 0.393513 -0.496594 -0.229719 0.792689 
0.184770 0.076006 0.473192 0.264313 -0.257808 0.918189 
0.485675 0.006653 0.066847 0.148064 0.095279 -0.892880 
1.877818 2.307370 0.639100 -0.096552 0.750367 -0.646657 
-0.601428 1.090473 0.429167 0.957649 -0.044387 -0.173380 
-0.277735 -0.526614 0.027742 -0.383072 -0.125155 -0.827362 
-0.230810 0.638561 -0.005000 -0.610400 0.204070 -0.737565 
-0.360444 0.203820 0.434512 -0.523505 -0.259269 0.795026 
0.062391 -1.021085 0.195982 0.288531 -0.090506 0.944440 
0.037683 0.905455 0.049088 0.428552 0.451185 -0.767696 
0.955003 0.872317 0.023538 -0.524769 0.294446 -0.780274 
-0.483363 2.336769 -0.267252 0.556758 -0.694111 -0.451553 
-1.020763 1.011629 -0.260366 0.770273 -0.007184 -0.578147 
-0.170733 0.203403 0.520184 -0.246916 -0.234252 0.934798 
0.335938 -0.544549 0.112033 0.196955 -0.006561 -0.938143 
-1.183369 0.675502 -0.573581 0.789132 0.253664 -0.548302 
0.162178 1.075312 0.639146 -0.086869 -0.087351 0.920475 
0.318763 -0.244517 0.120769 0.367013 0.032321 -0.924961 
1.243534 1.286971 -0.125226 -0.381164 0.492350 -0.779833 
1.150296 1.735308 0.378727 0.390374 -0.460583 0.791499 
-1.025361 1.434158 -0.152513 0.755288 -0.153607 -0.573252 
-0.018384 0.320477 0.570799 -0.054708 -0.232036 0.969150 
1.400504 2.050313 0.509118 0.267025 -0.665047 0.685095 
-0.069461 -0.564269 0.039531 -0.103087 -0.339730 -0.930584 
-0.642870 2.117094 -0.238306 -0.725173 0.597279 0.338757 
-0.754135 2.222885 -0.625509 0.733183 -0.535096 -0.416991 
0.651474 -0.619827 -0.041681 0.560529 -0.041998 0.820709 
-1.204018 1.045226 -0.434904 -0.813688 -0.015902 0.532758 
-0.166240 2.729487 -0.157577 0.778674 -0.439985 -0.439144 
-0.209062 0.564736 -0.011510 -0.601843 0.142277 -0.752188 
-0.380868 -0.077902 0.087004 -0.187979 0.090563 -0.916688 
-0.993807 1.615037 0.002728 -0.862266 0.265421 0.389057 
0.193266 0.131920 -0.053523 0.605660 -0.009682 -0.785902 
-0.956987 1.709593 -0.135158 -0.867353 0.280076 0.392325 
-0.319926 2.513270 -0.193360 0.781903 -0.476708 -0.391764 
-0.617523 2.043708 -0.032623 -0.738944 0.605022 0.258736 
0.056559 -1.122645 0.176140 0.125311 -0.261269 -0.942207 
0.130943 0.006708 0.472322 0.188027 -0.236476 0.951316 
0.097204 1.288613 0.312505 0.710211 0.591758 -0.164039 
-0.496182 1.974811 0.492836 -0.675208 0.695720 0.178013 
-1.014990 2.068364 -0.833650 0.743105 -0.479592 -0.453707 
-0.693470 1.120599 0.373844 -0.902186 -0.049554 0.385316 
-0.105642 0.572786 -0.048633 -0.496169 0.186373 -0.816020 
-0.602048 1.247871 0.464395 0.958327 -0.100871 -0.057447 
0.216773 -0.601678 0.298706 0.370736 -0.299110 0.863366 
-0.163435 2.555381 0.082888 0.889635 -0.412015 -0.161285 
-0.781602 0.814054 0.125272 -0.912631 -0.095801 0.371448 
-0.673361 0.635033 0.071939 0.489966 0.442862 -0.668161 
-0.289275 0.444285 0.532581 -0.303984 -0.185581 0.929054 
-0.003574 0.235535 0.546055 -0.051634 -0.238200 0.969205 
-0.323334 0.437392 0.106747 -0.572174 0.179539 -0.746217 
0.363388 0.267110 0.101372 0.377360 0.130062 -0.892812 
2.117978 2.632864 0.970881 0.079380 -0.771008 0.625580 
0.058483 -0.654071 0.321109 0.301461 -0.268319 0.909438 
0.106156 1.242570 0.474243 0.216479 0.838308 0.450170 
1.781455 1.129031 -0.247497 -0.050330 -0.686816 0.670770 
1.720288 2.499752 0.847031 0.157426 -0.794969 0.574691 
0.720204 1.326411 0.363223 0.698308 -0.221357 0.601036 
0.140751 -1.177024 0.189902 -0.149517 -0.231033 -0.956790 
1.141278 2.086831 0.665026 0.344756 -0.519965 0.753123 
-0.081789 1.314855 0.298954 -0.669639 0.632445 -0.281062 
-1.315817 1.481860 -0.525225 0.785948 -0.267389 -0.530524 
-1.098604 0.262744 -0.603392 0.681443 0.242670 -0.592833 
-0.103175 -1.051862 0.151192 0.060187 -0.249762 -0.959526 
-1.425547 1.449987 -0.675633 0.780466 -0.282337 -0.524675 
1.477029 1.107922 -0.210866 0.026725 0.672194 -0.658471 
1.156920 1.859174 0.460747 0.358491 -0.552051 0.749091 
0.454836 1.357890 0.499339 -0.774703 0.043396 -0.619921 
-0.328659 3.206169 -0.735230 0.805998 -0.304859 -0.505311 
1.504404 1.515678 0.092639 0.368147 -0.342197 0.846004 
-0.834505 1.238328 0.083941 0.700738 0.068809 -0.639582 
1.098607 1.978048 0.568358 -0.223850 0.436197 -0.857379 
-0.175466 -0.446353 0.372636 -0.232314 -0.229627 0.936579 
0.312486 0.527231 0.049517 0.669157 0.173184 -0.701117 
-1.210200 0.499920 -0.694827 -0.802881 -0.293736 0.482569 
0.312650 0.286482 0.027820 0.602130 0.043826 -0.773982 
-0.612987 1.103065 0.346505 0.856943 0.139265 -0.468949 
-0.558905 0.544060 0.423581 -0.330714 -0.232420 0.864793 
-0.625063 0.445604 -0.004581 0.272052 0.246023 -0.774055 
-0.278401 3.132881 -0.611146 -0.831965 0.302740 0.456130 
-0.546001 2.375785 -0.444434 0.570471 -0.657678 -0.473574 
-0.660156 1.694908 0.603069 -0.964648 0.180300 0.175250 
-0.284540 0.171931 0.017633 -0.668948 0.001499 -0.721319 
-0.836542 0.859110 0.046544 -0.897293 -0.060664 0.395577 
0.355948 0.611876 0.165270 0.670780 0.349856 -0.594866 
-0.592690 0.622794 0.199657 0.432455 0.462313 -0.285184 
-1.295794 0.688867 -0.768710 -0.826488 -0.329982 0.446638 
-0.034853 -1.027102 0.196014 -0.366085 -0.080327 0.922819 
1.313885 0.697871 -0.366690 -0.657420 0.176526 -0.726537 
-0.695011 0.507863 0.153540 -0.832744 -0.276608 0.461023 
-1.209460 1.962571 -1.002987 -0.659730 0.620936 0.386548 
-0.502231 0.217229 0.017366 -0.005561 0.162724 -0.855456 
-0.665203 1.813224 0.282765 0.715268 -0.333995 -0.557961 
0.445840 0.165852 0.098661 0.199242 0.140367 -0.918894 
-0.157019 1.135366 0.552187 -0.910223 0.069699 -0.230117 
2.079563 2.463339 0.774569 -0.062207 0.715900 -0.694614 
-0.802103 0.151833 -0.171487 -0.791166 -0.160606 0.576189 
-1.203413 1.652700 -0.538617 0.673614 -0.522143 -0.446240 
1.875378 2.245001 0.579077 -0.097890 0.772161 -0.620970 
-0.270021 0.057091 0.433117 -0.437405 -0.258285 0.831532 
0.692600 0.241849 -0.011570 -0.119002 0.146656 -0.841685 
-1.120190 1.063086 -0.343953 -0.815418 0.039246 0.519593 
1.152993 0.203990 -0.334557 0.646406 -0.078500 0.748128 
0.049289 1.274186 0.258997 0.565604 0.250560 -0.752470 
-0.687997 2.362205 -0.669680 0.631967 -0.595370 -0.473162 
0.229713 -0.831321 0.098477 -0.147856 -0.157026 -0.952333 
-0.677477 2.254031 -0.506728 -0.758238 0.508314 0.387869 
-0.551562 -0.617017 -0.016554 -0.681496 -0.035378 0.714504 
-0.696234 1.640086 0.523376 -0.953809 0.175898 0.204758 
-0.411631 -0.691653 0.106268 -0.677783 -0.075963 0.718048 
-0.650741 1.912724 0.120563 0.731043 -0.448324 -0.439963 
0.299544 0.818079 0.216780 0.798581 0.392684 -0.371810 
-1.288219 1.350519 -0.471726 -0.809040 0.114006 0.528471 
-0.782540 1.524544 0.337724 -0.927803 0.169968 0.273188 
0.004920 0.062246 0.494481 0.079241 -0.246348 0.965614 
1.567973 1.139527 -0.192511 0.075233 0.648533 -0.676225 
0.709148 0.858887 0.317440 0.569316 -0.123951 0.780183 
0.664938 0.371580 0.012091 -0.083485 0.183123 -0.861266 
-0.278605 -0.346675 0.078574 -0.418780 -0.041654 -0.887163 
1.383373 1.163097 -0.241678 -0.243246 0.557972 -0.726991 
-0.566426 2.022251 0.155011 -0.785285 0.561775 0.152730 
-1.440766 1.645602 -0.926226 -0.750959 0.463566 0.453720 
-0.484407 -0.443370 0.044789 -0.742988 -0.094305 0.647825 
0.053278 -0.931384 0.228451 0.308984 -0.128560 0.932199 
-0.241491 1.068342 0.427619 -0.896109 0.412620 0.102521 
0.456891 -0.315720 0.108313 0.691465 -0.161111 0.703997 
-0.434784 1.799489 0.942841 0.770484 -0.522506 -0.049324 
-0.304958 -0.293311 0.123209 -0.305065 0.031735 -0.947966 
-0.039731 1.381911 0.284144 -0.599092 0.704005 -0.357960 
-1.474998 1.217079 -0.699506 -0.804687 -0.038597 0.557736 
0.374783 0.176346 0.131336 0.292223 0.145275 -0.941952 
-0.618775 0.516439 0.057973 0.344238 0.306717 -0.757660 
-0.831581 2.293967 -0.831321 -0.738263 0.518477 0.427658 
0.529555 -0.914189 0.029487 0.524047 0.030823 0.835842 
-1.457723 1.050573 -0.700143 -0.807916 -0.148754 0.569381 
0.903783 2.055216 0.763965 0.415019 -0.510256 0.712254 
1.247133 1.170761 -0.151738 0.456438 -0.449845 0.751037 
0.239941 1.051945 0.287845 0.837412 0.414576 -0.293444 
1.195186 0.793734 -0.217353 -0.564538 0.310766 -0.742994 
-0.149914 2.620353 0.034764 0.914468 -0.346519 -0.138408 
-0.030516 1.279332 0.448752 -0.165139 0.795161 0.577125 
-0.415225 0.527865 0.468918 -0.450819 -0.018685 0.861101 
0.681171 1.821361 0.642582 -0.069992 0.462107 -0.866556 
-0.398522 -0.131281 0.242984 -0.702515 -0.199779 0.668966 
1.054529 -0.075379 -0.292186 0.580828 -0.024838 0.795678 
-0.233248 2.487796 0.060271 -0.747808 0.564487 0.338415 
-0.329306 0.741766 0.216116 -0.814073 0.399735 -0.355165 
1.468393 2.007792 0.432802 -0.230574 0.492164 -0.825972 
0.039736 1.289394 0.432305 0.248590 0.777876 0.564190 
0.141069 1.150056 0.517609 0.982025 -0.124942 -0.067304 
-0.335981 0.078675 0.410394 -0.536569 -0.265465 0.781260 
0.721090 2.047830 0.813143 -0.474850 0.773475 -0.327118 
-0.467093 -0.192724 0.109874 -0.784853 -0.176901 0.586340 
1.603428 2.532257 0.891801 0.181284 -0.822960 0.534300 
-1.001902 1.066198 -0.217280 0.761595 -0.008931 -0.584012 
-1.381150 1.386386 -0.591133 -0.802602 0.156589 0.524647 
2.166128 2.045005 0.358686 0.105756 -0.686073 0.715613 
0.829883 -0.344894 -0.166925 -0.391076 0.002992 -0.885564 
-0.597971 1.948352 0.188598 0.672454 -0.514772 -0.465991 
-0.034946 -0.427138 0.387610 -0.036800 -0.215575 0.975320 
-0.801676 1.787436 -0.066677 0.507087 -0.729671 -0.341711 
-0.427420 0.501416 0.222119 -0.289454 0.436358 -0.727427 
-0.108422 2.848242 -0.168539 0.962341 -0.164243 -0.167156 
0.805180 1.139244 0.260980 0.693454 -0.130286 0.622248 
-1.408227 1.638622 -0.859838 -0.768468 0.427341 0.458714 
0.444063 0.461834 0.483280 0.371789 -0.120781 0.909369 
-0.656799 2.668629 -0.877073 -0.804560 0.380725 0.447236 
0.410191 -0.513868 0.084361 0.065277 0.006802 -0.925032 
-0.261325 -0.952777 0.108718 0.268982 -0.158834 -0.941091 
0.920983 1.726204 0.480056 0.506362 -0.455654 0.688059 
0.316792 0.188780 0.457529 0.419616 -0.262746 0.851906 
-0.462504 -0.067550 0.193980 -0.771487 -0.241674 0.573793 
-0.022067 -0.608560 0.068521 -0.314183 -0.345345 -0.877336 
-0.238431 2.905319 -0.416501 -0.860304 0.309652 0.390879 
-0.112164 -0.154483 -0.077620 -0.521940 -0.101679 -0.828813 
1.302619 0.938511 -0.287263 0.545472 -0.373553 0.725536 
-0.736798 2.329935 -0.716149 0.668164 -0.567470 -0.461401 
-0.206922 1.037602 0.596160 -0.469709 -0.339753 0.715269 
-1.105661 1.353678 -0.296049 0.784825 -0.192902 -0.546692 
0.687422 0.044890 -0.022237 -0.134223 0.099768 -0.833722 
0.151705 -0.660045 0.082353 0.049985 -0.185806 -0.974154 
1.565082 0.764550 -0.610427 -0.660402 0.076310 -0.737992 
0.647974 1.479888 0.449185 0.703963 -0.294584 0.582716 
-0.708752 1.710612 0.477373 -0.948425 0.200505 0.210470 
-0.190124 2.918639 -0.363033 0.780865 -0.383218 -0.491641 
1.374213 1.401009 0.010133 0.089349 -0.722455 0.623151 
-0.337139 -0.940040 0.087275 0.192163 -0.074624 -0.974342 
0.600738 0.625829 0.238204 -0.378233 0.431369 -0.435073 
-0.925947 0.851610 -0.104182 -0.863153 -0.053876 0.449993 
0.335319 0.574841 0.105976 0.640332 0.292337 -0.680904 
0.234858 0.980138 0.537653 0.757729 -0.069779 0.626389 
-0.738105 0.611097 0.172149 -0.711669 -0.138474 0.600091 
0.747399 -0.271389 -0.054871 -0.426591 0.067156 -0.860239 
0.158448 -0.511788 0.039840 0.160580 -0.369895 -0.888805 
-0.327839 2.573860 -0.278231 0.788549 -0.442267 -0.418356 
-0.272418 2.350442 0.174156 0.790776 -0.486173 -0.360871 
1.299473 2.450131 0.901263 0.107174 -0.431722 0.884206 
-1.077917 1.494016 -0.180894 -0.836963 0.257160 0.456910 
-0.252698 -0.178350 0.007556 -0.633453 -0.093844 -0.759304 
1.713669 1.142409 -0.222024 -0.082488 -0.721694 0.638558 
-0.347675 0.572241 0.530437 -0.484286 -0.068377 0.852960 
-0.503293 1.997931 0.421865 -0.671584 0.692761 0.196677 
-0.180223 0.775150 0.044179 -0.540958 0.474274 -0.657639 
0.263510 0.501704 0.548994 0.268015 -0.138972 0.949859 
-0.316122 -0.825058 0.180459 -0.454985 -0.157116 0.848553 
0.254625 -0.443383 0.017406 0.511098 -0.149678 -0.816834 
1.008507 0.828544 0.006406 0.687995 -0.184373 0.656780 
-1.034612 0.593850 -0.364764 0.773960 0.196750 -0.600735 
0.487429 1.810614 0.775369 0.409405 -0.479303 0.766918 
-0.911497 1.711722 -0.027968 -0.882058 0.266037 0.359681 
1.694916 1.016724 -0.300155 0.171513 0.736400 -0.621597 
-0.799018 1.731956 0.080227 0.591456 -0.502832 -0.471250 
-0.691289 2.600245 -0.875015 -0.793812 0.403436 0.443781 
1.762283 2.451427 0.787645 -0.102781 0.695063 -0.710362 
-0.544077 0.400385 0.403327 -0.614888 -0.298055 0.697821 
0.525980 -0.557991 0.055296 0.607812 -0.092243 0.777137 
0.149198 1.035939 0.170110 0.556136 0.402615 -0.710626 
0.140200 -0.828944 0.104858 -0.100224 -0.233854 -0.959645 
-0.550414 2.645844 -0.696451 0.830374 -0.334553 -0.437452 
-0.564692 -0.129758 -0.001350 -0.794224 -0.150811 0.585132 
0.093262 -0.213777 -0.077313 0.472128 -0.159126 -0.844924 
0.273479 0.027232 0.004787 0.638426 -0.052610 -0.760413 
-0.281078 -0.217552 0.065267 -0.452893 -0.026851 -0.863282 
-0.592602 2.169554 -0.220754 -0.744761 0.577188 0.329162 
-0.666877 1.416996 0.546902 -0.760645 -0.161103 0.620814 
0.775775 1.821272 0.617025 0.570867 -0.510619 0.582287 
0.837816 0.150626 -0.049175 0.698181 -0.174283 0.690568 
-1.103606 0.706458 -0.386725 -0.819002 -0.156316 0.536499 
1.597626 1.925490 0.328924 -0.216131 0.568712 -0.783745 
-0.657399 1.957017 0.060057 -0.724480 0.625338 0.205147 
-0.943222 0.354026 -0.327632 0.722590 0.192559 -0.626532 
-0.543046 1.952949 0.371358 -0.822706 0.531234 0.035825 
-0.283043 0.953351 0.435271 -0.913970 0.284914 0.236237 
-1.361235 1.527079 -0.590979 -0.796318 0.350231 0.491483 
-0.022941 -0.811303 0.117787 -0.311631 -0.244787 -0.912577 
1.401391 0.448819 -0.502301 -0.599362 0.036058 -0.776494 
-0.600090 0.135740 -0.062393 0.174031 0.131709 -0.797925 
0.441974 0.307575 0.427273 0.481573 -0.249603 0.821262 
-0.417119 -0.992302 0.081271 -0.562650 0.006406 0.806724 
-0.812764 0.349733 -0.116613 -0.803456 -0.229841 0.541572 
-0.247490 -0.822064 0.210417 -0.254350 -0.240813 0.930349 
-0.284225 -0.090986 0.397417 -0.524493 -0.244225 0.781500 
-1.085156 1.658445 -0.301100 -0.831399 0.296932 0.464472 
-0.236195 0.264944 -0.027557 -0.694189 0.016152 -0.710722 
-0.722638 2.229277 -0.556977 -0.738129 0.538941 0.396568 
0.686529 0.640733 0.274799 0.184696 -0.066635 0.937600 
-0.893851 0.390173 -0.261434 0.677862 0.182648 -0.640543 
1.272398 2.286326 0.776633 0.270748 -0.613356 0.723220 
-0.280184 0.040008 0.027466 -0.611398 -0.016530 -0.760795 
-0.379654 0.308595 0.458517 -0.454892 -0.233836 0.845068 
-0.144884 -0.382499 0.390439 -0.161957 -0.182752 0.966707 
0.386860 1.790526 0.753118 -0.468753 0.741568 -0.366901 
-0.348915 2.330192 0.004651 0.784771 -0.504270 -0.349577 
2.042242 2.161735 0.483502 -0.088724 0.742024 -0.657401 
1.210636 0.424481 -0.319929 0.680283 -0.120333 0.713148 
1.448908 1.232852 -0.115765 -0.001672 -0.720694 0.621168 
-0.312993 3.059808 -0.627749 -0.827780 0.315865 0.454282 
-0.231514 0.913330 0.156294 -0.679129 0.426773 -0.594975 
0.565805 1.691175 0.559217 -0.150463 0.751649 -0.637959 
-0.797215 0.604860 0.036688 -0.875442 -0.212461 0.428919 
-0.319767 2.299536 0.141681 0.774791 -0.499330 -0.375878 
1.933176 2.141619 0.468200 -0.107935 0.675600 -0.721084 
1.472518 0.969098 -0.497167 -0.493711 0.420048 -0.748321 
1.269765 2.394315 0.841322 -0.243033 0.670856 -0.696583 
0.084660 0.087934 0.494151 0.150022 -0.252030 0.953409 
1.260798 1.832203 0.394362 0.333599 -0.538057 0.769237 
-0.411426 -0.919665 0.080711 0.299637 -0.041401 -0.935807 
-0.441024 0.211818 0.063085 -0.112151 0.166380 -0.889999 
2.147795 2.169192 0.480877 -0.077930 0.723445 -0.681194 
0.638315 1.808917 0.700273 0.452782 -0.497002 0.729778 
0.739848 0.350016 0.156842 0.680076 -0.291157 0.666598 
0.811330 1.596001 0.423667 0.453609 -0.583833 0.500337 
-0.162999 0.718781 0.001490 -0.485880 0.360985 -0.747441 
0.689885 -0.480594 -0.034887 0.581635 -0.067572 0.799029 
1.181790 2.398310 0.885054 -0.381165 0.765541 -0.506157 
-0.316648 0.217265 0.074587 -0.478253 0.092411 -0.828564 
0.377510 0.587983 0.507351 0.558523 0.030026 0.802546 
1.391229 0.691982 -0.451766 -0.655567 0.128137 -0.734442 
-0.320941 -0.485878 0.112249 -0.183370 -0.002205 -0.944226 
0.243152 0.911571 0.519871 0.741506 0.029417 0.631923 
0.133758 0.943310 0.120501 0.545201 0.452998 -0.680454 
0.195754 -0.049295 0.441738 0.333113 -0.243860 0.881656 
-0.069577 1.172329 0.565464 0.205254 0.601011 0.747321 
0.740861 1.722655 0.562061 0.596381 -0.454739 0.605544 
-0.386084 -0.332097 0.172061 -0.758757 -0.160826 0.625981 
-0.069084 0.945809 0.619448 -0.197836 -0.082337 0.968809 
0.551097 0.242604 0.311947 0.661312 -0.335843 0.666882 
-0.239153 0.209137 0.491664 -0.353562 -0.242980 0.880109 
-0.459838 0.004140 0.237285 -0.746288 -0.264027 0.592397 
-0.475810 2.875932 -0.756293 0.807580 -0.339150 -0.477802 
0.633820 0.302271 0.021108 -0.043283 0.166272 -0.866283 
0.647599 1.572603 0.430526 -0.265104 0.425985 -0.859228 
1.902523 2.438521 0.762349 -0.086681 0.701837 -0.705751 
1.287466 1.005787 -0.265391 -0.482119 0.406971 -0.757229 
-0.916215 1.114781 -0.016388 -0.880191 0.067050 0.409881 
-0.320108 -0.370038 0.317362 -0.701120 -0.213966 0.679003 
-0.597814 1.997955 0.086558 0.687130 -0.549043 -0.414978 
-0.457893 -0.668140 0.043009 0.261462 -0.003569 -0.900287 
0.396597 0.451543 0.228854 0.419034 0.411640 -0.756580 
0.398394 -0.859737 0.129284 0.495894 -0.099743 0.852424 
1.716633 2.096098 0.461019 0.148894 -0.772753 0.609472 
-0.505944 -0.936228 0.016692 0.389973 -0.097436 -0.908827 
0.726992 0.740674 0.149271 -0.500066 0.327577 -0.779976 
-0.264125 1.016374 0.355748 -0.899223 0.380782 -0.064513 
0.488555 1.626279 0.619458 0.752933 -0.328525 0.511333 
-0.340483 0.502566 0.518615 -0.370471 -0.151862 0.904314 
0.545085 0.164969 0.051755 0.071283 0.134441 -0.885356 
0.786841 -0.169686 -0.047396 0.630315 -0.116294 0.751999 
-0.976837 1.222565 -0.087877 -0.862773 0.123994 0.432071 
-0.666636 2.167166 -0.414871 0.730261 -0.558431 -0.390270 
0.731392 -0.428134 -0.065161 0.585743 -0.065890 0.796350 
1.084951 0.553395 -0.169883 -0.627733 0.208649 -0.733703 
1.183881 1.289700 -0.037520 0.414789 -0.481931 0.761730 
-0.250507 0.112333 -0.009652 -0.679392 -0.023426 -0.722442 
-0.253107 -0.544136 0.301067 -0.510810 -0.231593 0.805696 
-1.372764 1.706440 -0.901521 -0.754893 0.459593 0.445070 
1.982031 1.514138 -0.044443 0.201719 -0.546173 0.802209 
-0.654119 0.315857 -0.089795 0.250285 0.177440 -0.771909 
-1.034743 0.136718 -0.533650 -0.758389 -0.219657 0.554001 
0.859456 1.623826 0.376450 -0.334493 0.381698 -0.855921 
-0.466852 2.828245 -0.699364 -0.720021 0.449754 0.501453 
0.382476 0.389126 0.195783 0.402995 0.327459 -0.811251 
-0.573804 1.049726 0.480331 0.917033 0.056508 -0.325746 
-0.026598 1.239509 0.228351 -0.520735 0.305146 -0.784654 
0.366730 0.701971 0.307986 0.924144 0.324588 -0.106363 
-0.600202 0.359600 0.231938 -0.762013 -0.361011 0.531518 
-0.370766 -0.290258 0.081537 -0.172521 0.035619 -0.918908 
2.116674 2.411703 0.717051 -0.063527 0.711459 -0.699146 
-0.016504 -1.250528 0.211510 -0.217732 -0.311150 -0.919501 
-0.956098 0.120756 -0.402171 -0.762180 -0.187787 0.572491 
0.335866 -0.880268 0.164954 0.407372 -0.143299 0.885788 
0.038316 0.967524 0.085995 0.397560 0.484409 -0.766732 
-0.171463 0.400581 -0.044905 -0.631705 0.102283 -0.745881 
1.340587 0.867082 -0.371838 -0.527971 0.373811 -0.744833 
-0.087239 1.220635 0.511315 0.003174 0.796453 0.567595 
0.012707 0.615069 -0.084229 0.389100 0.272217 -0.872913 
-0.639281 0.622330 0.275485 -0.337698 -0.152181 0.873299 
-0.004877 0.126080 -0.163351 -0.489209 -0.019609 -0.852788 
0.145558 -0.124306 0.443132 0.192979 -0.206134 0.957539 
0.208739 -0.934244 0.182941 0.188235 -0.168616 0.963853 
1.721889 1.666528 0.119688 0.312796 -0.366408 0.824991 
-1.185596 1.757452 -0.657470 -0.816139 0.337917 0.450728 
1.910756 2.579730 0.915801 -0.073215 0.721845 -0.685899 
1.684916 2.154999 0.522119 0.149044 -0.504968 0.844315 
-0.563368 -0.533246 -0.021374 -0.698043 -0.052859 0.694997 
-0.074038 1.053985 0.157434 -0.388453 0.439129 -0.786970 
-0.647700 1.832528 0.367025 -0.762275 0.598465 0.036316 
0.387078 -0.229546 0.094062 0.275460 0.037422 -0.907463 
-0.488964 -0.119980 0.119084 -0.782222 -0.199255 0.579693 
-0.375320 2.383520 -0.131244 0.811012 -0.475636 -0.330813 
0.091022 -0.467118 -0.009201 0.285792 -0.384011 -0.875176 
-0.429593 -0.497590 0.053714 0.092045 0.015357 -0.903635 
-0.412062 -0.159047 0.057503 -0.125119 0.065271 -0.896941 
0.941696 0.494839 -0.106077 -0.444786 0.201638 -0.777174 
-1.459039 1.383171 -0.710941 0.781606 -0.201338 -0.537810 
-0.091673 -1.130342 0.188474 -0.321696 0.004541 0.934830 
1.063218 2.025659 0.620094 -0.253341 0.732227 -0.627365 
-0.169427 1.196343 0.317387 -0.802216 0.549407 -0.223828 
-0.735681 0.545603 0.105420 -0.848580 -0.251758 0.450349 
-1.077803 1.999130 -0.829340 -0.576149 0.693432 0.342020 
-0.731401 1.464883 0.331217 0.690096 -0.020284 -0.681187 
-0.450250 -0.585206 0.063980 -0.719177 -0.068216 0.676796 
-0.316172 3.144831 -0.680167 -0.819088 0.312460 0.475107 
0.290520 -0.957126 0.146557 0.229872 -0.157621 0.952396 
-0.152223 0.437129 0.586437 -0.212762 -0.172838 0.960146 
0.459206 -1.332504 0.092163 0.882891 0.239484 -0.006871 
-0.232578 3.305028 -0.630953 -0.830685 0.281568 0.475822 
2.132345 1.977416 0.293726 -0.105370 0.653449 -0.745731 
-0.688900 2.772650 -1.017252 -0.774961 0.405984 0.481579 
-0.767540 0.414426 -0.167974 0.438798 0.195387 -0.710158 
0.187933 1.050656 0.514446 0.502903 0.760076 0.040873 
-0.523346 2.078741 0.149606 -0.804023 0.538794 0.149111 
-0.458105 2.743464 -0.616221 -0.680624 0.499787 0.505545 
-0.778071 -0.327906 -0.285961 0.518660 0.105852 -0.755574 
1.130199 1.473065 0.107596 -0.377879 0.437666 -0.812199 
-0.623139 1.782889 0.551630 -0.774933 0.594114 0.001574 
1.169351 2.189020 0.754280 0.316574 -0.579172 0.714465 
-0.278356 0.741525 0.532709 -0.506249 0.277479 0.803847 
-0.366910 -0.291523 0.240483 -0.724126 -0.189317 0.655506 
-1.194711 0.430812 -0.695544 -0.792965 -0.286860 0.492287 
0.602799 -0.959979 -0.001363 0.544780 0.173140 0.779853 
-0.317591 -0.391031 0.117599 -0.240161 0.016575 -0.948991 
-1.362027 1.600502 -0.722922 -0.805543 0.349077 0.472943 
-0.575195 1.515860 0.545200 0.839568 0.219164 -0.485515 
-0.734488 1.792199 0.051779 0.716210 -0.446260 -0.419717 
2.189049 2.660946 0.999713 0.048492 -0.725317 0.675935 
-0.050491 -0.269837 0.413952 -0.078439 -0.170291 0.978786 
0.504233 -0.329069 0.048236 -0.005518 0.037878 -0.894510 
-0.136285 -0.442569 -0.005123 -0.387759 -0.301678 -0.850128 
-0.814052 2.363252 -0.873124 -0.755185 0.484004 0.432737 
0.176165 0.341126 0.567277 0.226339 -0.207879 0.948256 
1.005938 0.364110 -0.142324 -0.575689 0.175280 -0.759590 
1.969192 1.751094 0.113445 0.179160 -0.590876 0.778183 
-1.044217 0.537977 -0.428346 0.773195 0.235576 -0.575513 
-0.205838 0.894225 0.556296 -0.556225 -0.017213 0.799275 
1.340458 0.953120 -0.345684 -0.497198 0.402990 -0.751630 
-0.891093 1.564770 0.110364 0.732116 -0.166109 -0.624577 
-0.328526 2.991336 -0.615423 -0.829129 0.323550 0.445291 
-0.599741 1.164939 0.454945 0.959330 -0.072861 -0.113433 
0.579608 1.045676 0.349101 -0.654884 0.118340 -0.707262 
0.742861 1.318071 0.296912 -0.349250 0.393674 -0.839572 
1.205194 1.971925 0.515134 -0.299974 0.478105 -0.814077 
-0.356219 2.285699 0.075344 0.779395 -0.498040 -0.367124 
1.197021 1.488078 0.125741 0.209490 -0.720727 0.595533 
1.501765 1.954834 0.375395 -0.233667 0.549767 -0.790699 
1.158562 0.654006 -0.215079 -0.617129 0.253717 -0.732957 
1.488109 2.147959 0.554192 -0.190278 0.786335 -0.580763 
-0.263952 -0.283102 0.040612 -0.515654 -0.076512 -0.831127 
-0.722919 1.701570 0.330106 0.647441 -0.281943 -0.608823 
-0.752659 0.475822 -0.115078 0.465840 0.234458 -0.707969 
0.237841 1.729051 0.827080 0.087300 -0.705366 0.673655 
-0.725928 1.606093 0.461343 -0.944833 0.175555 0.227505 
0.145646 0.274621 0.550577 0.194358 -0.221503 0.953865 
-1.126630 1.808065 -0.632808 -0.820478 0.332434 0.443769 
0.472470 0.654679 0.455335 -0.097680 -0.303654 0.854984 
1.218144 1.361122 -0.013853 0.330649 -0.546082 0.743346 
0.359128 -0.918267 0.089384 -0.214470 -0.085817 -0.968442 
0.908647 0.137814 -0.085906 0.673587 -0.155034 0.711084 
-0.975424 0.999514 -0.195380 0.755388 0.035817 -0.593478 
0.220816 -0.017907 -0.026484 0.604312 -0.054698 -0.785132 
-0.587139 1.589900 0.575377 0.758575 0.144780 -0.595061 
-0.367611 3.131701 -0.758290 0.799538 -0.321739 -0.505518 
-0.634503 0.493883 0.312038 -0.700120 -0.243748 0.600233 
-0.078850 1.312214 0.389535 -0.545229 0.716002 0.402839 
-1.158238 1.962635 -0.915019 -0.610755 0.665547 0.359829 
-0.887639 0.131140 -0.311469 0.656061 0.163662 -0.669170 
-0.333590 -0.207553 0.113048 -0.257548 0.058353 -0.940167 
-0.165671 0.829024 0.572377 -0.397906 -0.112619 0.886312 
1.960966 1.592173 0.011737 0.202684 -0.546958 0.796852 
-1.082057 0.352517 -0.529568 -0.789437 -0.240704 0.523881 
0.846432 1.929394 0.671986 0.455447 -0.443242 0.747319 
-0.232817 0.011054 -0.016093 -0.650316 -0.044305 -0.745987 
0.566907 -0.107072 0.098604 0.691406 -0.191854 0.692928 
-1.298788 1.105630 -0.536728 0.786333 0.038289 -0.579367 
0.639439 -0.900931 -0.020916 0.501949 0.140983 0.820377 
-0.365634 0.387342 0.490270 -0.377706 -0.212534 0.893498 
-0.995538 0.831344 -0.225430 -0.835846 -0.055283 0.494229 
1.728979 2.578987 0.947563 0.113244 -0.709149 0.686018 
-1.492500 1.519541 -0.825512 0.757019 -0.414684 -0.492348 
2.216078 2.149544 0.456669 0.085212 -0.672241 0.729057 
-0.696657 0.007020 -0.127344 0.432651 0.110803 -0.752635 
-0.980038 0.504297 -0.291622 -0.822721 -0.202393 0.530847 
-0.208069 0.691693 0.564226 -0.311240 0.257840 0.890743 
0.939688 1.993550 0.650994 -0.230582 0.721069 -0.646654 
-0.513122 -0.044955 0.125992 -0.779844 -0.221312 0.572880 
0.097618 -0.137889 -0.086708 0.498325 -0.110375 -0.840186 
0.754570 0.930854 0.199108 -0.485128 0.284688 -0.818499 
-0.326382 -0.290739 0.339820 -0.679784 -0.226993 0.694549 
1.094059 0.917315 -0.075450 -0.520470 0.331100 -0.761517 
-0.732960 -0.347752 -0.220860 0.515870 0.089313 -0.770904 
1.808679 1.685835 0.110726 0.267165 -0.442763 0.809701 
-0.740844 0.371281 0.012858 -0.786265 -0.285309 0.537542 
-0.148696 -0.530734 0.042536 -0.181883 -0.345908 -0.901926 
0.058883 0.090509 -0.136137 0.523257 -0.002117 -0.843265 
-1.083349 1.589629 -0.203757 0.769754 -0.297921 -0.543676 
-1.523825 1.343143 -0.795723 -0.792931 0.177621 0.521523 
-1.312782 1.667235 -0.739316 -0.798574 0.367765 0.460941 
1.885350 1.467868 -0.050626 0.255577 -0.455335 0.821956 
-0.113208 2.897846 -0.224875 0.935582 -0.202079 -0.255334 
0.581975 0.368714 0.067048 -0.005981 0.195537 -0.885599 
0.283642 -1.032168 0.134868 0.148834 -0.143614 0.926948 
0.830517 0.570164 0.017964 -0.421683 0.262636 -0.806681 
-0.087837 -0.850984 0.250799 -0.228426 -0.184654 0.946217 
-0.221037 2.658879 -0.162589 -0.797612 0.450901 0.378117 
-0.793288 0.529362 0.009041 -0.838313 -0.244326 0.474172 
-0.062601 0.598310 0.601865 -0.036205 0.241231 0.964924 
0.137270 -0.602066 0.321601 0.204355 -0.308189 0.926056 
2.141915 2.354542 0.659699 -0.063101 0.725980 -0.682176 
-0.253390 0.143245 0.461898 -0.382715 -0.257254 0.862733 
0.914930 0.557102 -0.048985 -0.482662 0.240599 -0.782732 
0.865663 1.034331 0.138026 -0.456610 0.337543 -0.809636 
0.563982 1.848017 0.710315 -0.162466 0.710762 -0.680175 
1.055601 0.486554 -0.161585 -0.596730 0.194101 -0.741102 
0.906163 1.423223 0.194505 -0.324834 0.454809 -0.822176 
1.868624 2.068060 0.410061 -0.136686 0.498654 -0.836184 
0.976575 2.184491 0.785939 -0.243701 0.673578 -0.693705 
-0.741953 0.207061 -0.089545 -0.802771 -0.203391 0.553875 
-0.893172 0.316336 -0.233802 -0.803513 -0.178122 0.557325 
-1.143937 0.195268 -0.620987 0.686351 0.153193 -0.601916 
1.575040 1.056045 -0.251774 0.135599 0.709082 -0.631534 
2.166626 2.500889 0.813639 -0.051913 0.727597 -0.682948 
-0.094535 0.466931 -0.077819 -0.561660 0.160084 -0.792619 
0.756112 0.472067 0.009340 -0.260037 0.221760 -0.831630 
-1.360089 1.007657 -0.604964 -0.810505 -0.121052 0.557501 
-0.677885 0.703843 0.192052 0.909727 0.295794 -0.199907 
-0.650976 2.468897 -0.706187 0.624156 -0.584339 -0.488966 
-1.239318 1.711707 -0.680491 -0.812027 0.343260 0.456974 
0.125247 0.139325 -0.097958 0.568871 0.005089 -0.813221 
