0.041226 -0.797295 -0.041516 0.224834 0.066597 -0.949650 
-1.283040 0.876616 2.494762 -0.497637 0.777066 -0.353783 
-1.523787 0.694441 1.960839 0.258706 -0.858267 0.304114 
0.077166 -0.367543 0.310871 0.039320 -0.284271 0.950255 
0.645392 0.752782 1.035254 -0.334352 -0.756481 0.549286 
-0.682018 0.442347 0.485062 0.266048 -0.555274 0.772251 
-1.547024 1.122396 2.989574 0.441038 -0.654356 0.613109 
0.167012 -0.215087 -0.117030 0.495057 -0.103610 -0.852427 
-0.772242 0.326424 0.370005 -0.683578 0.287351 -0.632554 
-1.156163 0.286225 0.800104 0.564001 -0.510489 0.614934 
-1.254662 1.235573 2.903474 -0.528718 0.596289 -0.594645 
-0.512916 -0.033863 0.174306 -0.732789 0.106921 -0.637623 
-0.756501 0.549419 0.664068 0.282332 -0.663483 0.676722 
-1.779485 0.557722 1.795700 0.283227 -0.903539 0.293215 
-1.661084 0.398984 1.351893 0.155000 0.328942 -0.759575 
1.380324 1.005580 2.167799 -0.486415 -0.568463 0.644789 
0.209471 -0.626600 0.194312 0.280586 -0.370193 0.879621 
0.468012 -0.589590 0.102332 -0.091356 -0.235467 0.961753 
1.331274 0.589905 1.769668 0.572769 0.387142 -0.673102 
-0.578504 0.608396 0.621298 0.713240 -0.516719 0.448059 
-0.775635 0.814281 1.137038 0.438812 -0.752660 0.461801 
-0.453776 -1.141226 0.032722 -0.320909 0.146045 -0.888461 
0.717354 1.188623 1.818178 -0.339718 -0.654561 0.641111 
1.461828 1.400336 2.536363 0.422958 0.648353 -0.628184 
0.487618 1.351917 1.771631 0.551448 0.633692 -0.525830 
0.908906 1.242471 2.007827 0.506816 0.525817 -0.665140 
0.038566 -0.159099 -0.166461 0.370166 -0.146808 -0.896215 
0.188446 -0.389191 0.296070 0.219734 -0.313750 0.913892 
-0.621113 1.354249 2.118261 -0.775176 0.561251 -0.235297 
-0.330390 1.322591 1.290720 0.160700 0.567032 -0.701620 
1.155185 -0.169859 0.720569 -0.354395 -0.553354 0.644762 
1.117521 0.560664 1.415577 -0.583151 -0.670738 0.410045 
1.844358 0.922731 2.352811 -0.417423 -0.494719 0.756165 
-1.102892 -0.159576 0.683434 0.462142 -0.378782 0.743801 
0.990199 0.629616 1.281933 0.638373 0.651033 -0.380750 
-1.098055 0.579643 1.111728 0.550285 -0.675312 0.445322 
1.362172 0.366224 1.373386 0.543082 0.735371 0.015955 
0.766316 -0.191416 0.451101 0.581955 0.287951 -0.670410 
0.820125 -0.001032 0.513876 -0.299800 -0.419822 0.770450 
0.737128 -0.386989 0.390419 -0.307658 -0.366943 0.810695 
1.120351 0.358632 0.871728 -0.536723 -0.602575 0.579724 
-1.440112 0.381348 1.082917 -0.574408 0.539182 -0.607144 
-0.450081 -0.005071 0.290123 -0.178611 -0.272881 0.903247 
0.359054 -0.976002 -0.000928 0.377385 0.060172 -0.917609 
0.322242 0.701381 0.389180 0.765123 0.208520 0.570827 
1.303037 0.960477 2.064220 -0.490013 -0.496319 0.699835 
-1.629976 0.713007 2.340868 -0.332006 0.913478 -0.177027 
0.299058 0.025988 -0.047088 0.490321 -0.100302 -0.863338 
0.040275 1.145799 0.483820 -0.111651 0.458329 0.850408 
-0.185689 1.179889 0.283445 -0.789371 0.574847 -0.082642 
-0.456756 0.201806 0.380239 -0.233488 -0.301681 0.865213 
1.090009 0.037349 0.738371 0.534076 0.489449 -0.608978 
1.104766 1.598663 2.491177 0.454783 0.599787 -0.656543 
-0.876371 0.843395 1.705124 0.534797 -0.801203 0.199765 
-0.952746 0.679561 1.091441 0.502570 -0.697366 0.470383 
0.691668 0.178225 0.447486 -0.311299 -0.446785 0.795758 
-1.234665 0.619247 1.498379 0.241972 -0.699767 0.291132 
-1.022591 -0.135777 0.620836 -0.554355 0.328435 -0.702988 
0.570376 0.104308 0.325884 -0.237150 -0.400335 0.856176 
0.151305 1.107894 0.418542 0.868669 0.177488 -0.048976 
0.539919 0.278179 0.118570 0.719740 0.123748 -0.672142 
1.036092 1.018810 1.852727 0.529769 0.717531 -0.414335 
-0.312219 -0.218258 0.308940 -0.472932 -0.286798 0.824151 
0.214893 -1.049525 -0.024157 -0.347513 -0.319968 0.879662 
-0.534658 0.372496 0.077207 -0.681713 0.176498 -0.708206 
0.398299 0.264414 0.008770 0.561653 -0.007287 -0.807168 
0.566815 0.262723 0.361220 -0.291110 -0.446457 0.833832 
-0.578256 -0.255389 0.260276 -0.668376 0.140359 -0.658656 
-0.417922 -0.026074 0.060444 -0.733371 0.061060 -0.665864 
0.957713 1.386443 2.191077 -0.408252 -0.558410 0.711054 
0.135596 1.192777 0.149884 0.622538 0.507374 -0.550556 
-0.761538 0.121531 0.453814 0.265767 -0.421740 0.791555 
1.393203 1.421957 2.516716 -0.418425 -0.609278 0.669281 
-0.576254 1.189233 1.492526 -0.776301 0.535222 -0.128340 
1.287724 0.857190 1.957683 -0.429823 -0.366241 0.796463 
1.034269 0.389979 0.832932 -0.497160 -0.624460 0.581669 
-0.817330 0.368697 0.410177 -0.677564 0.315773 -0.627828 
1.297616 -0.319385 0.704849 -0.253749 -0.697912 0.600740 
-0.887812 0.719832 1.058564 0.483143 -0.697600 0.494832 
-1.074826 1.057070 2.548329 -0.567166 0.692203 -0.427066 
-0.037379 -0.054213 0.446557 -0.096395 -0.307968 0.945749 
-0.696260 0.627486 0.528827 -0.563589 0.643413 -0.449384 
1.343301 1.348028 2.415078 -0.416123 -0.550478 0.714025 
-0.182333 -0.694977 0.172302 -0.156261 -0.388009 0.883869 
-1.409839 1.377163 3.143809 0.463600 -0.607304 0.639868 
0.133554 0.202593 -0.139319 0.468053 -0.001627 -0.879337 
-0.564046 1.136711 1.435123 0.402263 -0.819395 0.389190 
1.457188 0.274264 1.334057 -0.502010 -0.777166 -0.138755 
-1.224547 0.506993 1.046369 -0.610139 0.602576 -0.477671 
-0.367608 -0.412743 0.191110 -0.335139 -0.283216 0.862017 
-0.857003 -0.465102 0.448495 -0.493636 0.223161 -0.791718 
0.273773 0.624470 0.446789 0.544660 0.227410 0.754730 
-1.510338 0.528867 1.516182 0.095213 -0.631460 0.414425 
-0.413226 1.273576 1.417765 0.368871 -0.816572 0.433515 
0.687545 1.493751 2.074501 0.523658 0.632834 -0.550856 
1.242901 1.606880 2.591727 0.457530 0.580591 -0.671786 
0.833921 -0.407665 0.455283 -0.324046 -0.407944 0.773158 
0.138423 1.113906 0.338092 0.775491 -0.039235 0.591042 
-1.026866 0.629723 0.898432 -0.689461 0.566417 -0.402735 
1.060449 0.942627 1.807209 0.568932 0.719784 -0.365990 
0.286383 -0.118764 0.354529 0.417150 -0.276407 0.854602 
-0.871798 0.984352 2.027934 0.573835 -0.793050 0.111649 
1.145152 0.512385 1.278236 0.615144 0.633077 -0.422525 
0.709036 0.830212 1.243581 0.680419 0.678271 -0.232875 
-0.723111 0.812287 0.849031 -0.636846 0.679856 -0.302323 
0.039811 0.109030 -0.187009 0.452627 -0.000263 -0.881004 
-1.188897 1.156630 2.768420 0.513691 -0.678651 0.516818 
1.485569 1.462352 2.612203 -0.406443 -0.646339 0.644043 
1.269424 0.359291 1.154228 -0.547232 -0.673300 0.292021 
1.376860 0.876131 2.046669 0.558708 0.532195 -0.604525 
1.525102 0.527910 1.927109 0.635959 0.518355 -0.542006 
-0.823591 0.074996 0.495127 0.292579 -0.408753 0.769891 
0.025778 -0.402407 -0.137003 0.226695 -0.327035 -0.910958 
0.694371 0.471748 0.657662 -0.359887 -0.649401 0.643600 
-0.538680 0.690939 0.635819 -0.085925 0.839357 -0.448201 
-0.464161 -0.106095 0.138870 -0.742602 0.072348 -0.637728 
0.363503 -1.360975 -0.054305 0.275957 0.244972 -0.915957 
0.680693 0.450955 0.423217 0.683271 0.386888 -0.522131 
-0.863991 1.353655 2.649287 -0.652228 0.581274 -0.467162 
0.297247 0.327878 -0.046230 0.454967 -0.048223 -0.887663 
1.930620 0.954735 2.395712 -0.388832 -0.509869 0.765758 
1.159333 0.290027 0.877560 -0.550261 -0.580709 0.584832 
-1.567921 -0.009681 1.051956 0.559468 -0.395862 0.700592 
-0.135187 -0.274651 -0.123041 -0.446962 -0.152443 -0.864692 
1.032223 -0.125101 0.656661 0.491331 0.449068 -0.643124 
-0.854605 0.213579 0.544221 0.341591 -0.457125 0.743074 
-0.151846 0.312051 -0.127344 -0.441616 0.010651 -0.894620 
0.614048 1.239038 1.794728 -0.269252 -0.697053 0.623630 
-0.099704 -0.683310 0.191423 -0.190269 -0.433590 0.873697 
-0.717796 0.599568 0.735233 0.409872 -0.665381 0.590662 
0.340293 0.772223 0.272790 0.939777 0.232359 0.145835 
1.292283 1.138371 2.184533 -0.462925 -0.676995 0.566071 
-0.214435 -0.387256 0.285865 -0.284095 -0.314312 0.885213 
0.161777 1.175005 0.471812 0.932122 -0.172664 -0.268451 
-0.455142 0.191838 0.030668 -0.640105 0.088857 -0.744848 
-1.494874 0.295022 1.049558 -0.655256 0.443655 -0.601870 
-0.845810 0.894786 1.765539 0.538522 -0.697823 0.454413 
0.402072 0.657405 0.256789 0.545631 0.779773 -0.121989 
0.348784 0.749885 0.196156 0.941679 0.284208 -0.063044 
0.249563 1.179067 1.448897 -0.552147 -0.732816 0.360557 
1.345699 0.325806 1.460931 0.646139 0.667987 0.014855 
1.677681 0.370311 1.972475 -0.599863 -0.455771 0.646271 
0.275917 -0.055460 -0.059950 0.498607 -0.104613 -0.857329 
-0.493981 0.055123 0.125227 -0.721992 0.110436 -0.659757 
1.739351 1.134063 2.446773 -0.394659 -0.526554 0.747129 
0.853270 -0.204576 0.524050 -0.375424 -0.425667 0.748445 
1.276907 0.430037 1.358183 0.570152 0.700203 -0.143529 
-0.304248 0.399826 -0.051924 -0.457545 -0.022748 -0.885797 
-0.397595 -0.122441 0.065662 -0.745731 0.037055 -0.653401 
-0.724511 0.383527 0.470333 0.301309 -0.508891 0.781340 
1.278795 0.462166 1.608243 0.667895 0.477864 -0.351155 
-1.596966 0.117649 1.110606 0.601793 -0.393529 0.678873 
-0.570760 0.644935 0.444606 -0.308376 0.814451 -0.364992 
0.527259 -0.318296 0.187957 -0.077915 -0.269144 0.935518 
-1.168739 0.822192 2.314099 -0.520345 0.761665 -0.380237 
-0.037096 1.375209 0.263758 -0.494316 0.712748 0.455556 
-0.076578 0.377788 0.548285 -0.187458 -0.005999 0.972154 
-1.407290 0.355124 1.022377 0.590572 -0.507378 0.617606 
0.429816 0.673143 0.562427 0.289210 0.897705 -0.245343 
-1.352534 1.035730 2.752384 0.500797 -0.648736 0.564401 
0.407400 0.392636 0.388553 0.071797 -0.106057 0.943902 
0.631741 0.678383 0.899167 -0.636625 -0.646388 0.348868 
-0.390551 1.215351 1.204661 0.812039 -0.269211 -0.157414 
0.207573 1.118535 0.182092 0.775887 0.456991 -0.356187 
1.707349 1.748159 3.029856 0.424974 0.632939 -0.646580 
-1.222716 1.000221 2.601578 0.541242 -0.615825 0.561921 
0.640241 0.293923 0.431551 -0.331261 -0.470570 0.799292 
-0.053747 -0.916343 -0.070361 -0.221675 0.154304 -0.938580 
-0.648728 0.610857 0.455044 -0.569704 0.639318 -0.431803 
-1.359168 -0.249287 0.809797 -0.468002 0.444915 -0.713406 
0.131408 0.735557 -0.090495 0.389137 0.329087 -0.824163 
-0.069962 -0.592113 -0.028134 -0.061668 -0.174757 -0.964824 
-1.351718 1.100012 2.831872 0.480198 -0.675328 0.553514 
-0.235555 0.609130 0.470068 -0.537228 0.089225 0.791338 
-0.653038 -0.229298 0.320958 -0.633509 0.192208 -0.669646 
0.653933 0.669586 0.770851 0.180172 0.842371 -0.474472 
0.624498 -0.411379 0.300332 0.544145 0.201885 -0.731420 
0.322838 -0.550868 0.170377 0.326283 -0.291082 0.884522 
-0.573794 0.306878 0.142949 -0.689263 0.186359 -0.684790 
0.367178 1.196867 1.586151 -0.240570 -0.792264 0.522532 
-0.291360 -1.180579 -0.042609 0.089819 0.129182 -0.984930 
0.362439 0.336445 -0.013894 0.497834 -0.038279 -0.857091 
1.061067 1.236833 2.130228 -0.451611 -0.561850 0.692573 
0.513364 1.132349 1.622202 -0.316134 -0.796708 0.456112 
0.111826 -0.160918 -0.140625 0.450505 -0.105791 -0.869583 
0.283524 1.311549 1.557584 0.713877 0.621688 -0.202182 
-1.424264 0.418465 1.260107 0.486357 -0.603387 0.588421 
0.466508 1.497907 1.967260 -0.448590 -0.591531 0.666097 
-0.081884 -0.621593 0.226639 -0.200094 -0.392897 0.886910 
-0.457678 0.367241 0.031272 -0.595315 0.091783 -0.777481 
-0.804420 0.944739 1.458360 -0.661979 0.665962 -0.182207 
1.297391 1.268912 2.306255 0.414785 0.736034 -0.526692 
0.671291 0.362999 0.480169 -0.364591 -0.503190 0.770731 
-0.814424 -0.686888 0.341007 -0.388069 0.280278 -0.824606 
-1.227714 0.801121 2.348313 0.369856 -0.917731 0.028716 
-1.019261 0.863026 1.842734 -0.464256 0.878432 -0.027561 
-0.541047 1.201219 1.401284 -0.798200 0.534947 -0.074608 
-0.825117 0.521240 0.550141 -0.631143 0.475595 -0.557162 
-1.275807 1.033155 2.684777 -0.515598 0.686664 -0.490609 
-0.148168 1.185826 0.165378 -0.657872 0.521715 -0.472911 
0.090018 0.041983 0.478118 0.178093 -0.289880 0.936838 
-0.771083 1.429192 2.615341 -0.511162 0.806183 -0.266983 
0.554033 1.574736 2.083872 -0.599374 -0.318410 0.679601 
-0.741881 0.862406 0.978267 -0.738514 0.616849 -0.203759 
0.079905 0.685255 -0.121027 0.337119 0.207217 -0.900449 
-0.530150 1.132966 1.355165 0.390437 -0.805220 0.428600 
-0.062676 -0.381057 -0.138350 -0.324183 -0.256311 -0.899637 
0.956677 0.573476 1.127913 -0.489682 -0.676519 0.524694 
-0.317562 -0.810598 0.102538 -0.111219 -0.264541 0.919355 
0.692227 0.705597 0.998703 -0.350717 -0.750558 0.546008 
1.706678 0.142976 1.143829 -0.365462 -0.797639 0.436570 
-0.442706 1.409162 1.825034 0.541739 -0.652156 0.524078 
0.295676 0.761433 0.001992 0.670773 0.515156 -0.494146 
0.288990 -1.393724 -0.034212 -0.607649 -0.687084 0.260807 
1.525483 0.592786 1.975770 0.617398 0.505141 -0.569400 
-0.767799 -0.829460 0.209787 -0.247238 0.454452 -0.813335 
0.782575 -0.349003 0.439439 -0.343170 -0.389225 0.785302 
0.358607 0.694599 0.048753 0.667652 0.541749 -0.367809 
-1.557983 0.539922 1.569563 0.171106 -0.722423 0.359214 
-0.411050 1.373057 1.602455 -0.873297 0.368458 -0.123552 
-1.143944 -0.431926 0.616136 -0.423997 0.397324 -0.755412 
-0.490426 -0.403604 0.149006 0.031094 -0.254155 0.949333 
-0.610871 -0.342852 0.259264 0.156776 -0.301528 0.884008 
-0.122027 -0.041228 0.441949 -0.188932 -0.293053 0.934453 
0.058322 -0.923457 0.020695 0.163244 -0.453851 0.837487 
0.743940 -0.765454 0.249689 0.284998 0.373076 -0.796907 
1.476707 0.279864 1.683563 -0.733088 -0.552029 0.193387 
-1.299156 0.004255 0.862241 0.528826 -0.401442 0.702272 
-0.954311 -0.457923 0.518472 0.375279 -0.307093 0.826318 
-0.682891 0.697506 0.715110 -0.033363 0.819217 -0.541187 
1.552282 0.362210 1.837162 -0.660322 -0.546652 0.448838 
-0.054837 1.188923 0.453910 0.146087 0.663719 0.716532 
-0.869977 0.874595 1.451588 -0.628786 0.702621 -0.201824 
-0.094236 1.292410 0.235107 -0.685401 0.620143 -0.006284 
-0.885357 0.907928 1.676493 -0.587421 0.745156 -0.270439 
0.391411 -0.305801 0.108413 0.771360 0.002178 -0.615308 
0.595495 0.734928 0.975314 -0.400413 -0.767161 0.474556 
-1.431916 0.288854 0.998740 -0.649092 0.446949 -0.600032 
0.280727 0.834399 0.377328 0.790381 0.152341 0.525667 
0.813170 1.124849 1.828710 -0.386823 -0.601302 0.673255 
0.335437 1.165778 1.512712 -0.220356 -0.778456 0.565137 
-0.071639 1.041502 0.518946 -0.006244 0.042533 0.954284 
0.940952 1.533265 2.305122 0.462421 0.623414 -0.630107 
0.211233 1.227419 1.485912 -0.666958 -0.619534 0.171746 
0.757241 1.592130 2.229876 0.479050 0.643078 -0.587222 
-0.867421 0.785375 1.136139 -0.664055 0.681521 -0.231120 
0.280345 1.118636 1.381231 -0.603203 -0.733915 0.309762 
0.802313 0.377921 0.459076 0.674378 0.347744 -0.590421 
0.771447 0.697613 0.974413 0.668372 0.667968 -0.260175 
-1.517764 0.997414 2.840631 0.454722 -0.664976 0.586961 
0.976233 0.369249 0.650442 0.650300 0.443787 -0.569393 
0.738069 0.214480 0.495939 -0.342455 -0.466913 0.771446 
0.097658 -1.120161 -0.114166 0.312886 0.196061 -0.922120 
1.444649 1.751475 2.862031 0.352325 0.727756 -0.563535 
-0.476021 1.188523 1.363123 0.379258 -0.806732 0.439016 
0.506309 0.459219 0.146330 0.705866 0.357266 -0.502517 
-0.830962 0.498714 0.654360 0.343168 -0.611143 0.681101 
-0.898914 1.245779 2.556322 -0.639233 0.631440 -0.427815 
-0.495076 0.286384 0.051249 -0.665768 0.135903 -0.724005 
0.480101 1.073680 1.416798 0.745301 0.601834 -0.246937 
-0.700299 0.906858 1.074105 -0.721382 0.663167 -0.149176 
-0.584974 1.285504 1.946155 0.599594 -0.619254 0.489244 
-1.050419 0.829207 1.773527 -0.459454 0.881329 -0.016656 
-0.816759 1.162338 2.270885 -0.730019 0.601195 -0.320817 
1.274821 1.746036 2.757827 -0.498929 -0.449594 0.717063 
1.202195 -0.308199 0.701053 -0.284362 -0.564956 0.648148 
0.827557 -0.473548 0.429417 -0.297132 -0.401645 0.783536 
-0.928055 0.475839 0.696692 0.414649 -0.584727 0.659536 
-0.278343 1.545853 1.512739 -0.575448 0.670565 -0.412444 
0.145700 -0.823635 0.100512 -0.018030 -0.415233 0.878928 
-0.646046 0.913896 0.896006 -0.441418 0.733061 -0.497180 
-0.326633 0.485716 0.415111 -0.316165 0.047739 0.913000 
0.766509 0.481687 0.568853 0.667238 0.489853 -0.468369 
1.578176 0.728202 2.136230 -0.496542 -0.387777 0.766039 
0.898260 1.496605 2.256431 -0.380009 -0.617154 0.678855 
0.168921 0.665493 -0.104360 0.436318 0.203693 -0.852709 
0.908865 0.915430 1.643612 0.492757 0.454081 -0.686090 
0.403757 1.216249 1.644990 -0.218824 -0.562834 0.768126 
1.405732 1.639754 2.731955 -0.376316 -0.692609 0.612015 
0.772559 0.279308 0.541131 -0.378854 -0.493076 0.747687 
1.201202 1.113183 2.073702 0.491707 0.520571 -0.675715 
-0.545161 0.049043 0.268499 0.120621 -0.387444 0.890287 
-0.169499 -0.615556 0.210967 -0.233664 -0.387902 0.889206 
0.163507 -0.109375 -0.122539 0.502155 -0.067254 -0.854689 
1.001539 0.079455 0.689453 0.585683 0.442610 -0.613459 
-1.383898 0.422599 1.115192 -0.571093 0.572813 -0.562608 
0.145487 -0.609712 -0.024065 0.035426 -0.152325 -0.982501 
1.352463 1.175764 2.260423 -0.408161 -0.488425 0.767514 
-0.992452 0.926468 2.207695 -0.622301 0.693123 -0.343529 
-1.440717 0.777678 2.156092 0.305957 -0.944963 0.079839 
0.549091 0.739070 0.787251 0.295028 0.800835 -0.485808 
-1.417922 -0.056110 0.943362 0.535889 -0.365254 0.723879 
-0.628047 0.984682 1.235406 0.404666 -0.783725 0.450561 
-0.781466 0.347885 0.509493 0.327474 -0.499368 0.760758 
-0.554477 -0.585091 0.195034 -0.493697 0.159722 -0.796219 
1.509731 0.261579 1.150788 0.502543 0.729478 -0.223124 
-0.669799 0.442082 0.291717 -0.658972 0.311613 -0.640981 
0.286815 -0.589507 -0.049761 0.482465 -0.081379 -0.859947 
-0.312028 -0.994038 -0.023311 -0.016775 0.032916 -0.991659 
-1.266900 0.375977 0.878302 -0.647617 0.493170 -0.564346 
0.129179 -0.833401 -0.044645 0.075663 0.044073 -0.976074 
0.834720 0.520130 0.705114 0.652831 0.593942 -0.408267 
1.389892 0.685543 1.901125 0.639526 0.566372 -0.479714 
0.651559 0.614308 0.600818 0.244230 0.830068 -0.390595 
0.127780 0.802486 -0.055510 0.488061 0.377253 -0.760712 
-1.485975 0.582818 1.596541 -0.210291 0.675819 -0.570564 
0.371375 -1.192910 0.008080 0.611694 0.034959 0.680236 
0.477734 0.349447 0.392559 -0.060034 -0.278783 0.881360 
-1.523782 0.805602 2.605977 0.455540 -0.725009 0.474568 
-0.608181 0.770782 0.785493 0.681777 -0.551582 0.429753 
0.235551 1.299067 1.465096 0.093870 0.691306 -0.508999 
-1.181198 -0.357949 0.686370 -0.485613 0.329689 -0.756520 
-0.464737 -0.796514 0.096466 -0.431438 0.117591 -0.862078 
-0.962219 0.592941 0.861378 0.449526 -0.657361 0.579700 
-0.996625 -0.205773 0.591543 -0.542224 0.305248 -0.722387 
-0.402263 0.682793 0.559157 0.657336 -0.541299 0.489356 
-0.469200 1.299619 1.459600 -0.834713 0.487393 -0.046661 
1.573081 1.750283 2.947711 -0.451973 -0.550821 0.679472 
-0.524247 1.487389 2.188874 0.823752 -0.278325 0.435238 
0.006721 1.422267 0.221336 0.134554 0.907815 0.048153 
-0.033168 1.201209 0.111970 -0.463876 0.354142 -0.796355 
0.000683 -0.809428 0.134824 0.566192 -0.359447 0.732937 
-0.414622 0.614117 0.389885 -0.200957 0.904731 -0.215243 
0.047801 1.111196 0.068278 0.361231 0.433368 -0.814041 
0.484942 0.626862 0.562779 -0.845423 -0.368929 0.361817 
1.093734 1.014803 1.929456 -0.463269 -0.512883 0.707756 
1.690144 0.218529 1.155334 0.432854 0.782987 -0.418914 
0.807810 -0.855521 0.180282 0.140936 0.585914 -0.792090 
-0.500092 -0.041259 0.245319 0.012117 -0.330192 0.909547 
1.216552 0.535186 1.615823 -0.684216 -0.649592 0.216965 
-0.972487 -0.602771 0.439890 -0.356634 0.404807 -0.783864 
1.549681 0.075303 1.030542 -0.371510 -0.729292 0.493099 
-1.505908 1.265616 3.097762 0.438248 -0.643357 0.624262 
1.132793 0.426681 1.048212 -0.559389 -0.621696 0.539795 
-0.466911 0.436062 0.054231 -0.624344 0.209943 -0.687672 
-0.234328 -0.517821 -0.030054 0.019775 -0.210400 -0.928863 
0.919886 0.983560 1.780784 -0.418588 -0.479228 0.768557 
-0.450051 -0.343360 0.137232 -0.051067 -0.241466 0.963322 
0.427740 0.970640 1.101202 0.002913 0.702812 -0.640739 
-0.078384 -0.879746 0.053766 -0.060044 -0.457820 0.851852 
0.141526 0.523897 0.528319 0.311818 0.061994 0.945776 
0.483194 1.001198 1.219426 0.728405 0.650338 -0.175798 
0.243002 1.189919 0.614019 0.724945 0.023968 -0.682502 
0.296710 -0.236395 -0.048054 0.555493 -0.107644 -0.814386 
-1.230105 0.547613 1.292793 -0.547437 0.691963 -0.409648 
0.505753 0.939521 1.260659 -0.287181 -0.774396 0.545610 
0.367286 0.044975 -0.008476 0.578339 -0.038041 -0.795385 
-0.301302 0.807613 0.363155 -0.800851 0.210905 0.479438 
-0.683943 1.309665 2.182038 0.562674 -0.659591 0.492453 
-0.662467 1.040229 1.430652 0.423157 -0.818425 0.366381 
-0.532153 1.011958 1.092678 0.375951 -0.758483 0.529735 
-1.004543 -0.062581 0.624239 0.466104 -0.423456 0.712135 
-0.199754 0.542012 -0.098458 -0.428471 0.059991 -0.889791 
0.464064 0.525332 0.510227 -0.739211 -0.419520 0.490931 
0.499583 0.407332 0.098138 0.697470 0.216355 -0.614486 
0.557592 1.435223 1.918932 0.563519 0.642094 -0.494019 
0.748917 0.183891 0.399616 0.694085 0.259468 -0.612989 
-0.235699 0.842175 0.000649 -0.592236 0.479787 -0.645441 
-0.486045 0.539695 0.187560 -0.597805 0.591254 -0.395889 
-0.357935 -0.588796 0.146415 -0.213473 -0.272580 0.907610 
0.319334 -0.290475 0.000428 0.669283 -0.069922 -0.718242 
0.079004 -0.718328 -0.032492 0.076406 -0.021035 -0.973355 
0.796906 1.009429 1.733862 -0.434988 -0.608486 0.623186 
1.363623 1.262369 2.345832 -0.411380 -0.494521 0.757881 
1.078402 -0.184149 0.667825 0.457120 0.465556 -0.636475 
1.201178 0.509799 1.455863 -0.563068 -0.709038 0.240683 
-1.507131 0.500989 1.449234 0.007804 0.446548 -0.714499 
-1.024740 1.286405 2.795594 0.506393 -0.709278 0.486353 
0.464271 0.692483 0.631646 -0.694855 -0.553200 0.379689 
0.638433 1.144971 1.687397 0.649707 0.619846 -0.353842 
-0.036504 0.231431 -0.193403 -0.459305 0.042158 -0.884913 
-0.224653 0.205710 -0.089246 -0.458003 -0.036065 -0.884235 
-0.352968 0.403939 0.403243 -0.214701 0.014575 0.973818 
-1.166425 0.708909 1.712237 0.304235 -0.803142 0.506387 
0.384478 1.486063 1.824104 0.455703 0.688397 -0.562149 
-0.943743 0.957028 2.073095 -0.555651 0.792055 -0.180174 
0.783734 1.630704 2.289149 0.415306 0.685252 -0.594780 
1.389364 0.170241 0.970129 -0.448246 -0.668666 0.529814 
-1.170022 -0.293590 0.718558 -0.544305 0.258036 -0.758770 
-0.173512 0.597737 0.502712 -0.384355 0.089305 0.893539 
0.302604 0.539737 0.425471 0.425602 0.047235 0.845826 
-0.846098 -0.265872 0.467827 0.397446 -0.382941 0.766474 
0.654860 1.627102 2.204492 0.243912 0.815570 -0.486270 
-0.591306 1.115389 1.318234 -0.772808 0.574679 -0.096173 
0.220497 0.614927 -0.091829 0.468616 0.146616 -0.847850 
0.978031 0.793798 1.591310 0.556135 0.550935 -0.557150 
-0.618377 1.145968 1.540978 -0.748968 0.543079 -0.212730 
0.295660 -0.355220 0.269297 0.468611 -0.304402 0.815890 
-0.990698 1.153629 2.584240 -0.606262 0.641495 -0.466727 
0.963713 1.706396 2.494765 0.331797 0.769147 -0.533888 
0.287709 -0.948769 0.045400 -0.141058 -0.280913 0.918863 
0.894005 -0.125699 0.572377 -0.395178 -0.446574 0.727074 
1.030421 0.843751 1.680799 0.482065 0.424138 -0.735011 
1.327843 0.342917 1.197132 0.563511 0.682687 -0.146368 
0.990144 -0.499235 0.510489 0.352424 0.429158 -0.696506 
-0.773619 1.015594 1.852105 0.629411 -0.697038 0.315685 
-0.963007 0.873148 1.777695 -0.504061 0.855724 0.014549 
-0.216569 -0.352384 -0.088200 -0.516385 -0.147272 -0.837312 
-1.120296 0.618497 1.316664 -0.556422 0.738892 -0.330378 
0.683370 0.938019 1.489937 0.706333 0.614465 -0.317007 
0.010606 1.018114 0.532929 0.094727 0.081612 0.971226 
-0.677403 0.495523 0.374900 -0.638248 0.391536 -0.599217 
-0.416493 0.087112 0.011101 -0.619970 0.043691 -0.761528 
-0.452373 1.332715 1.538365 -0.803450 0.506281 -0.043024 
-0.816104 0.967844 1.798355 -0.620373 0.764362 -0.057518 
-0.496493 1.272519 1.678653 0.458435 -0.792283 0.350051 
1.609369 1.516385 2.738716 0.430471 0.613378 -0.660175 
1.630778 0.988031 2.292507 -0.441668 -0.560280 0.678999 
1.213869 0.401708 1.084767 0.604851 0.614836 -0.412629 
-0.332830 0.813556 0.234993 -0.934300 0.271999 -0.005768 
-0.673193 0.970835 1.300383 0.418059 -0.795213 0.414146 
-1.754521 0.544774 1.727676 0.279409 -0.866342 0.373172 
1.171040 -0.442273 0.582901 -0.228524 -0.654089 0.651905 
-0.228349 1.056980 0.519296 -0.562120 0.666299 -0.435222 
-1.623264 0.037076 1.101382 -0.601347 0.391820 -0.674172 
1.179745 -0.388452 0.630164 0.308681 0.589767 -0.631759 
-1.014543 1.096257 2.538009 0.600323 -0.630400 0.485533 
0.286764 -0.285733 0.299143 0.466183 -0.298451 0.821867 
0.066842 -0.453057 0.288085 0.053388 -0.255849 0.960430 
0.442572 0.871063 0.937013 0.282283 0.796675 -0.514754 
0.384150 -0.893576 0.031175 0.411384 0.069890 -0.886331 
0.073524 1.244762 0.154672 0.561507 0.317968 -0.728660 
1.060667 0.630810 1.459306 0.626946 0.655100 -0.415210 
1.432191 1.263293 2.385592 0.410427 0.728766 -0.539327 
0.558922 -0.532874 0.228152 0.514242 0.164597 -0.768946 
-1.319534 0.205656 0.912112 0.574232 -0.461481 0.643932 
1.773165 1.416874 2.748373 0.413256 0.636128 -0.651458 
-0.785084 0.725384 0.900193 0.384221 -0.711450 0.574398 
-0.521583 -0.827935 0.136985 -0.413890 0.120634 -0.880530 
0.442959 0.645279 0.197059 0.688785 0.688290 -0.181758 
-1.291151 -0.210606 0.819602 0.482658 -0.335390 0.764965 
-0.440700 0.116621 0.350683 -0.257988 -0.273610 0.880966 
-0.672093 1.075533 1.715727 0.508794 -0.733443 0.414785 
1.697381 1.323715 2.609775 0.409732 0.659044 -0.623554 
0.857430 1.034223 1.687196 0.558199 0.657255 -0.475578 
-1.105037 0.849191 2.262861 -0.527870 0.765004 -0.351533 
1.097768 -0.535562 0.493063 -0.203293 -0.650916 0.679455 
0.734842 0.756125 1.074268 0.672644 0.681589 -0.228166 
-0.987629 0.514156 0.692599 -0.637144 0.516763 -0.537773 
-0.066452 -0.549725 0.252373 -0.126814 -0.321435 0.923808 
-0.794211 0.632906 0.799716 0.310840 -0.726105 0.612498 
-0.387278 0.417661 -0.017940 -0.547522 0.039957 -0.822638 
1.104908 0.492727 1.108968 0.627346 0.609591 -0.466247 
-1.419267 0.493836 1.369204 0.068619 0.347090 -0.764684 
-0.246780 -0.277404 -0.075481 -0.526626 -0.128004 -0.837469 
-0.098579 -0.704712 -0.032971 -0.018530 -0.040768 -0.982527 
-0.393163 1.355571 1.335213 -0.642933 0.691592 -0.263645 
-0.163525 1.106385 0.453091 -0.854770 0.248019 -0.222423 
1.049900 1.306040 2.180057 -0.462465 -0.507299 0.723793 
0.100630 0.611308 -0.120161 0.337482 0.111172 -0.921460 
-0.625985 0.427233 0.229463 -0.663900 0.276206 -0.658941 
0.085381 0.299066 -0.163500 0.452776 0.034548 -0.888654 
0.734818 0.761747 1.236963 -0.402690 -0.745239 0.504913 
-0.452439 1.251010 1.240918 -0.653249 0.694850 -0.248810 
-0.822889 0.832707 1.215995 -0.654814 0.714838 -0.182162 
0.189951 -0.318052 -0.100926 0.489247 -0.146458 -0.849723 
0.462437 0.230553 0.045176 0.663195 0.055455 -0.729043 
-1.169482 0.627506 1.426762 -0.342991 0.662665 -0.427164 
0.449478 0.360582 0.031987 0.627978 0.053108 -0.758268 
-0.841791 1.185067 2.351008 -0.709435 0.602020 -0.354698 
1.147329 0.962065 1.923332 -0.444665 -0.452299 0.743091 
-1.473474 0.757906 2.242328 0.304047 -0.942981 0.073022 
0.767127 -0.485000 0.392261 0.434732 0.296018 -0.757663 
-0.001680 -0.707884 0.210210 -0.507847 -0.359493 0.779887 
-0.013586 -0.740028 -0.034314 -0.432088 0.024428 -0.861902 
-1.152865 1.337343 2.936352 0.473636 -0.696008 0.530630 
-1.283496 1.274143 2.961558 0.462421 -0.681183 0.559280 
0.327641 0.797184 0.145883 0.877646 0.362912 -0.227027 
-0.123341 -1.040792 -0.064767 0.175102 -0.455233 0.867386 
-0.339257 0.220136 -0.026796 -0.474809 -0.052911 -0.870244 
0.348069 -0.144661 0.316031 0.471407 -0.267918 0.834900 
-0.419632 1.211088 1.293576 0.363190 -0.794450 0.480004 
-1.025696 -0.439784 0.576470 0.390883 -0.302367 0.823358 
-0.985654 -0.379713 0.561332 -0.516578 0.242916 -0.773725 
-0.391362 -0.944880 0.055689 0.112615 -0.235260 0.951262 
0.676682 -0.734133 0.265842 0.369686 0.233244 -0.810548 
1.225965 0.890034 1.900674 0.602429 0.617485 -0.479048 
-0.686710 0.756063 0.778999 -0.062553 0.787782 -0.593606 
-0.314942 0.352938 0.435513 -0.273872 -0.026865 0.951896 
-0.530709 1.239122 1.531046 -0.795516 0.499700 -0.160684 
1.382481 1.071031 2.206833 0.467311 0.335781 -0.805873 
-0.169255 1.133113 0.554476 0.413753 0.092099 0.857327 
0.359649 -0.246580 0.051988 0.768484 -0.017701 -0.634521 
-0.278406 0.979423 0.246333 -0.907987 0.370278 -0.075591 
-1.050302 0.818862 1.702555 -0.481200 0.861247 -0.073310 
-0.630396 0.793340 0.897376 0.592907 -0.650014 0.412548 
1.450274 0.933011 2.177531 -0.495431 -0.515204 0.682872 
1.310210 0.908158 2.005547 0.563342 0.563823 -0.573380 
0.311043 0.874587 0.273209 0.914172 0.281665 0.103057 
-1.568889 0.621696 1.755506 -0.338245 0.902653 -0.206976 
1.198192 -0.063556 0.775253 0.467479 0.531203 -0.589312 
-0.144044 1.605600 1.529317 0.811270 -0.560200 -0.004946 
1.562306 1.569740 2.763404 -0.389887 -0.669185 0.629608 
-0.875478 0.399152 0.469245 -0.672812 0.348944 -0.617190 
-1.343991 1.384152 3.105871 0.503630 -0.538762 0.652900 
-0.254652 0.965324 0.410592 -0.815475 -0.004570 0.535458 
0.303185 0.580747 -0.072046 0.542099 0.120173 -0.815939 
-1.517890 0.597951 1.689526 0.297325 -0.848404 0.430692 
0.730753 0.244822 0.359836 0.693609 0.249709 -0.626139 
-0.943207 0.949948 2.149994 0.495392 -0.862901 -0.002839 
0.123049 -1.053485 -0.094257 0.294791 0.194608 -0.927628 
-0.372543 1.197561 1.136230 0.743839 -0.355364 0.011325 
0.572280 0.732040 0.860510 -0.725210 -0.615570 0.241524 
-0.498537 0.591906 0.257169 -0.572112 0.706661 -0.319055 
-0.774106 -0.456419 0.383658 -0.487907 0.233614 -0.784276 
0.068289 0.127937 0.505901 0.163335 -0.241931 0.948124 
0.411642 0.305242 0.391756 0.155479 -0.175769 0.913216 
-0.161466 0.716180 -0.092919 -0.434613 0.274329 -0.824652 
-0.359743 -0.024501 0.350716 -0.453848 -0.252421 0.849586 
-0.288751 0.745838 0.404093 -0.672238 0.207430 0.661040 
-0.880537 0.457495 0.511452 -0.657145 0.400677 -0.597148 
1.644680 1.673694 2.915917 0.429706 0.621935 -0.653153 
-0.686056 0.557910 0.678573 0.336120 -0.683347 0.639475 
0.198824 -0.887053 0.076825 -0.152625 -0.365013 0.884644 
-0.124894 0.204365 0.517166 -0.236998 -0.162906 0.945789 
1.829606 1.260561 2.627621 -0.398651 -0.602926 0.686646 
1.143346 -0.267738 0.683370 0.408810 0.488699 -0.627184 
1.703763 1.545750 2.830211 -0.403543 -0.646930 0.645787 
-0.933759 0.504927 0.628903 -0.639677 0.486324 -0.552997 
-1.233780 0.298665 0.861929 0.579446 -0.503072 0.613850 
-0.361343 -0.577387 0.049047 -0.627149 0.017437 -0.734881 
1.428457 0.206511 1.567940 -0.788629 -0.551692 0.003541 
-0.699562 1.015751 1.351243 -0.717365 0.627831 -0.132514 
-0.298735 0.065892 0.410171 -0.377725 -0.251691 0.883739 
0.396128 -0.356665 0.191896 0.260531 -0.269073 0.880211 
-0.188121 1.220614 0.491593 0.372127 0.803937 0.356887 
1.332883 1.699080 2.736836 0.459773 0.575277 -0.674467 
0.779490 0.287717 0.406481 0.684298 0.283863 -0.622199 
-0.569895 0.939684 1.024271 0.415205 -0.736455 0.519140 
0.826929 0.984159 1.646055 0.506393 0.437046 -0.676513 
1.042047 0.674928 1.560562 -0.585772 -0.687950 0.421977 
1.081785 1.499878 2.377322 0.452360 0.618659 -0.641980 
0.205944 0.182892 -0.098996 0.471613 -0.034970 -0.876809 
0.146267 1.238966 0.304391 0.654660 0.707380 0.048474 
0.681598 -0.040381 0.383235 0.715409 0.205922 -0.593368 
-0.649046 0.336581 0.222323 -0.684325 0.227882 -0.669190 
-0.728913 1.284536 2.234064 0.564262 -0.658012 0.494552 
0.363443 -0.616917 0.140569 0.187887 -0.271202 0.908608 
-0.839508 -0.054171 0.488007 -0.610181 0.309220 -0.648743 
1.334383 0.359060 1.305995 -0.531440 -0.727166 0.092256 
-0.848945 0.573559 0.646955 -0.611180 0.559026 -0.513778 
0.531318 0.621692 0.500391 0.291330 0.859842 -0.274646 
0.155559 0.959844 0.498817 0.283817 -0.158308 0.921265 
-0.192672 -0.576136 -0.023795 0.029193 -0.194635 -0.965384 
0.005062 -1.130233 -0.090996 0.619424 -0.568580 0.431983 
-0.470810 1.049687 1.100265 0.723287 -0.501480 0.099164 
-1.292115 0.981579 2.633729 -0.504680 0.715345 -0.452143 
-0.042738 0.015977 0.473882 -0.121841 -0.300261 0.944119 
-0.447368 1.054280 0.999444 0.740463 -0.522810 0.195960 
-0.215824 1.204861 0.562377 -0.815111 -0.355993 -0.433117 
0.337206 -0.718235 0.133923 0.204428 -0.274105 0.900282 
-1.587982 0.730595 2.564858 0.436314 -0.775433 0.413744 
0.008306 -0.562162 0.263364 0.253437 -0.299386 0.884556 
1.148715 1.460298 2.391547 0.442873 0.628904 -0.637710 
1.420245 1.117908 2.248647 0.440945 0.305558 -0.838780 
-0.771482 -0.280870 0.403904 0.331188 -0.364068 0.796505 
-0.128359 -0.633196 -0.019046 0.004704 -0.103325 -0.993486 
0.803628 0.623954 0.847984 0.653996 0.684188 -0.305026 
-1.281054 0.920932 2.551252 0.530412 -0.587141 0.604159 
-0.371958 0.579714 0.460953 0.725057 -0.508311 0.440570 
-0.103606 1.665200 1.535596 0.817625 -0.418716 0.171293 
-1.285525 0.823732 2.430540 -0.495180 0.807050 -0.305920 
0.760511 1.272522 1.953759 -0.395101 -0.694843 0.590843 
-1.158756 0.544085 1.013394 -0.629266 0.607933 -0.444921 
-0.135710 0.934724 0.505570 -0.224270 -0.202064 0.951363 
-0.356557 1.257087 1.303977 0.743169 -0.445814 0.047702 
0.438932 0.631257 0.499098 0.201333 0.947959 -0.174463 
1.747795 1.275136 2.592817 -0.401633 -0.587077 0.695922 
0.545853 -0.682092 0.198181 0.429812 0.173006 -0.835280 
0.557330 1.519904 2.005677 0.542951 0.647927 -0.508683 
1.326616 0.331679 1.554795 0.730236 0.505964 -0.173924 
-1.618043 0.370561 1.266647 0.279996 0.182875 -0.862632 
1.129242 1.222871 2.143381 0.458225 0.448274 -0.748362 
0.138842 0.352774 0.548137 0.294906 -0.008414 0.950705 
-0.033698 0.900049 -0.063464 -0.430552 0.427657 -0.779328 
1.288944 -0.036319 0.842656 -0.381883 -0.615825 0.586882 
-1.337358 0.532267 1.391123 0.058723 -0.505659 0.507879 
-0.007632 0.730561 -0.127660 -0.246818 0.241978 -0.935107 
-0.574901 1.026850 0.990539 -0.491493 0.722291 -0.470312 
-0.531946 -1.068226 0.063199 -0.283714 0.252315 -0.867335 
-0.120729 0.918807 -0.003236 -0.536058 0.451144 -0.685362 
0.836729 0.478751 0.646943 0.657450 0.529526 -0.459180 
-0.232127 -0.163511 -0.083946 -0.510698 -0.102629 -0.848403 
-0.324560 1.474058 1.503259 -0.853408 0.481092 0.120194 
-1.106900 0.860951 2.021638 0.395325 -0.865915 0.198464 
-0.130991 0.627636 -0.113320 -0.382482 0.139930 -0.892196 
-1.032272 -0.337935 0.603558 -0.526432 0.254018 -0.763966 
-0.572464 0.191675 0.315344 0.168309 -0.437023 0.864641 
1.612506 0.779566 2.208341 -0.502504 -0.404274 0.761842 
-1.244095 1.105122 2.749412 0.520591 -0.665399 0.526355 
-1.537405 0.746727 2.141797 0.268783 -0.939610 0.115789 
0.432312 0.088495 0.031889 0.666218 0.027280 -0.726541 
1.430733 1.174071 2.300520 -0.405146 -0.460582 0.787396 
-0.004511 -0.493295 0.280534 -0.125877 -0.239855 0.937783 
0.592347 1.445349 1.989193 -0.309214 -0.587193 0.734386 
-0.440060 1.121675 1.126305 0.800757 -0.380877 -0.038373 
1.247793 0.590977 1.678124 0.601166 0.424921 -0.547465 
1.283595 -0.261699 0.753283 -0.285168 -0.621621 0.613067 
0.016351 -0.631041 0.243127 0.355600 -0.370981 0.839773 
1.202749 1.189516 2.173234 -0.438761 -0.713220 0.545317 
1.356740 0.625374 1.840464 -0.425355 -0.282994 0.832104 
-0.020361 0.124366 0.509920 -0.111363 -0.247490 0.955621 
0.040944 0.507738 0.532323 0.110378 0.083674 0.979982 
-1.558923 0.251103 1.095056 -0.654393 0.422038 -0.618740 
1.283172 0.403271 1.282642 0.572457 0.685429 -0.176018 
-1.419280 0.763036 2.327134 -0.417396 0.844687 -0.268635 
-0.623549 1.036564 1.340250 0.409657 -0.802399 0.411088 
0.570583 0.575528 0.626133 -0.804554 -0.419724 0.388405 
-0.544254 0.035184 0.190258 -0.723658 0.132418 -0.641826 
-0.091916 1.243396 0.164996 -0.628220 0.450160 -0.588898 
-1.298163 0.814183 2.143168 0.347309 -0.928365 0.081926 
-1.264110 1.165915 2.838614 -0.527278 0.614851 -0.576682 
0.322423 0.335695 0.423580 0.263020 -0.052351 0.950263 
1.338596 0.264761 1.520316 -0.772908 -0.576468 0.012229 
-0.519267 -0.284690 0.211162 -0.690842 0.100431 -0.653813 
1.793936 1.147477 2.493113 -0.393851 -0.546685 0.732786 
-0.945068 0.432717 0.540807 -0.667485 0.388225 -0.603915 
0.747298 -0.049677 0.452233 0.684376 0.254710 -0.597969 
-0.592501 -0.500217 0.223873 0.190671 -0.289400 0.890899 
-0.787549 0.583985 0.604165 -0.605886 0.554714 -0.515214 
0.982930 1.326747 2.146526 0.448715 0.679916 -0.578746 
-0.727428 0.296156 0.457303 0.283826 -0.479404 0.788737 
1.119214 1.100173 2.022526 -0.489256 -0.598864 0.631217 
0.091671 1.156096 0.102191 0.464669 0.400410 -0.776298 
0.704523 0.924087 1.563181 -0.412932 -0.733504 0.483191 
0.980502 0.185520 0.680141 0.660213 0.413953 -0.563557 
-1.352088 0.456557 1.244490 0.501839 -0.627319 0.542914 
-1.213426 0.234519 0.818311 -0.623018 0.446398 -0.603492 
-0.946792 0.743262 1.377525 0.481229 -0.808463 0.316059 
-0.632761 0.105472 0.272945 -0.713438 0.186372 -0.630152 
-1.118474 -0.503709 0.549740 -0.354843 0.481543 -0.750462 
0.777636 0.938032 1.578441 0.617579 0.540211 -0.482324 
1.066317 0.373710 0.762658 0.636767 0.507745 -0.547408 
0.362523 1.305080 1.679116 -0.123478 -0.745523 0.624212 
-1.510337 0.217860 1.052320 -0.645587 0.414215 -0.625833 
0.428271 -0.198561 0.121912 0.760482 0.030896 -0.623688 
-0.736980 0.971995 1.437873 0.439577 -0.819579 0.345006 
0.739060 0.126358 0.475436 -0.312044 -0.441056 0.784279 
-0.686606 -0.612209 0.294842 -0.458414 0.184619 -0.825714 
0.026462 0.564623 -0.150714 0.342475 0.111705 -0.928803 
-0.867739 0.593292 0.788200 0.333521 -0.709946 0.607384 
0.851241 0.521183 0.828195 -0.399717 -0.755210 0.514363 
-0.897939 0.034144 0.545132 -0.622197 0.342156 -0.627519 
0.057313 -0.983866 -0.027224 0.169002 -0.458788 0.834369 
1.537031 0.805028 2.156666 -0.489554 -0.404340 0.763293 
-0.585367 0.154849 0.202410 -0.708050 0.170076 -0.652829 
0.568544 -0.878950 0.131239 -0.179603 -0.296941 0.909295 
1.233865 1.283750 2.277876 0.421584 0.722116 -0.540657 
-1.593649 0.585500 1.686641 0.261528 -0.781404 0.515913 
0.224352 1.123847 0.595917 -0.341937 -0.161122 0.864633 
-1.353803 0.141262 0.918400 -0.621552 0.400112 -0.639569 
-1.013776 0.394331 0.702940 0.476403 -0.525550 0.657855 
-0.142934 1.043946 0.524143 -0.025843 -0.113061 0.935125 
0.888367 0.350113 0.520422 0.665213 0.358871 -0.608320 
0.859307 1.549622 2.283449 -0.395452 -0.634595 0.656243 
1.546644 -0.065067 0.955673 -0.309397 -0.771561 0.501249 
-0.157100 0.851439 -0.033376 -0.530365 0.438916 -0.711044 
-0.648340 -0.302965 0.306849 -0.594068 0.196985 -0.700567 
0.587775 0.641917 0.661859 0.174788 0.890462 -0.354968 
-0.468093 -0.257161 0.165478 -0.019210 -0.269638 0.949413 
0.035031 0.256104 -0.194208 0.460342 0.048307 -0.884851 
0.599598 -0.824775 0.179693 -0.197103 -0.288269 0.898013 
-1.115627 0.519447 0.820269 -0.637624 0.564955 -0.514243 
-0.585422 0.870451 0.965439 0.533439 -0.699530 0.424023 
0.482802 0.098563 0.324445 -0.004357 -0.330564 0.878193 
0.566998 1.366018 1.894251 -0.318010 -0.542447 0.764375 
1.459757 -0.159309 0.863354 0.310613 0.745299 -0.527395 
-0.527039 -0.475586 0.171179 0.101706 -0.265561 0.927599 
1.114329 0.910839 1.857226 -0.414995 -0.395855 0.793722 
-1.416895 0.777605 2.088692 -0.326659 0.940041 -0.069752 
0.976453 0.272000 0.650048 0.656369 0.414592 -0.577560 
1.616346 0.236902 1.183174 0.462893 0.769604 -0.261821 
-0.408992 1.464064 1.865984 0.553726 -0.669524 0.478015 
0.873670 0.954897 1.695261 -0.502079 -0.797393 0.309360 
-1.138309 0.515853 0.921000 0.579138 -0.589872 0.547628 
0.234374 -0.705670 0.149939 0.160832 -0.347176 0.879083 
-0.359430 0.685729 0.184565 -0.425971 0.555094 0.033979 
-0.320135 1.464437 1.429916 -0.339684 0.691188 -0.453174 
1.024327 1.138584 1.992493 -0.465462 -0.627770 0.619367 
-0.385947 1.371500 1.422420 -0.877393 0.448322 -0.019277 
-0.420692 0.303209 0.013948 -0.559408 0.044806 -0.804798 
-0.624973 0.497587 0.307995 -0.625602 0.386439 -0.601723 
-0.475225 1.364180 1.776597 -0.806782 0.558587 -0.098286 
-0.426111 1.282770 1.584218 0.458432 -0.674847 0.551164 
-0.284670 1.378313 1.439512 0.669801 -0.647967 0.316488 
-0.249949 0.997470 0.169044 -0.804126 0.386972 -0.353294 
-0.949146 1.260944 2.666384 -0.617987 0.601631 -0.495464 
-1.089852 0.191259 0.714716 -0.606490 0.441527 -0.609193 
-0.472206 -0.181047 0.170931 -0.751826 0.065478 -0.621312 
0.594389 -0.114742 0.299070 0.731947 0.144900 -0.600783 
1.149812 1.750241 2.679787 -0.545406 -0.339420 0.749126 
-0.373351 -1.158615 -0.000126 -0.363137 0.047247 -0.913499 
-0.215961 0.189918 0.483242 -0.318322 -0.174882 0.920797 
0.651458 0.306574 0.245641 0.702011 0.199218 -0.652528 
-0.959021 0.046550 0.593425 -0.588570 0.385501 -0.640404 
-0.938721 1.095486 2.401073 -0.649975 0.643146 -0.388325 
1.442191 1.677633 2.792258 -0.381403 -0.685647 0.616507 
0.832814 -0.312761 0.486621 -0.365116 -0.412792 0.761341 
-0.681057 0.037335 0.374827 0.199186 -0.389582 0.833932 
0.204935 0.328546 -0.094798 0.448855 -0.010126 -0.890217 
0.266846 0.238908 -0.065095 0.466812 -0.050637 -0.880322 
-0.898385 1.294206 2.624702 -0.638728 0.602668 -0.462544 
-1.446285 0.708259 1.922503 0.249777 -0.810114 0.390288 
0.405900 0.950349 1.181960 -0.618414 -0.681097 0.216069 
0.844045 -0.797261 0.235098 0.170229 0.570394 -0.774768 
-1.305541 0.084456 0.880769 0.546621 -0.425603 0.678983 
0.501763 0.183211 0.353638 -0.061203 -0.364500 0.859224 
-1.448485 0.534638 1.476030 -0.033073 0.474984 -0.707905 
1.457329 0.271159 1.102185 -0.485565 -0.718384 0.339482 
-1.570701 0.462254 1.415725 0.058708 0.408623 -0.726236 
1.016170 0.216260 0.734123 -0.453843 -0.523825 0.658104 
0.384753 -0.615609 0.066357 0.585447 0.035149 -0.755638 
0.110913 0.649640 0.495208 0.094178 0.221451 0.958629 
-0.996325 0.923938 2.108844 -0.524699 0.806705 -0.201702 
-0.400158 -0.443947 0.097684 -0.678350 0.030976 -0.687965 
-1.264943 -0.134607 0.813669 -0.574876 0.307540 -0.716811 
-1.541533 1.183193 3.043158 -0.444799 0.644448 -0.620259 
1.785484 1.328490 2.668666 0.408940 0.629107 -0.657693 
0.017081 -0.897734 -0.067301 0.399749 0.147398 -0.876708 
0.325539 -0.913476 -0.010097 0.199999 0.001578 -0.943593 
-1.269782 0.578726 1.435253 0.172235 -0.608708 0.404372 
0.884015 1.107677 1.840814 0.488129 0.693590 -0.499411 
0.305081 0.891832 0.196153 0.903901 0.353045 -0.186483 
-0.897851 0.822601 1.528970 0.517652 -0.808587 0.109804 
-0.319570 -0.958195 0.047550 0.101863 -0.257912 0.940744 
-1.025548 0.190643 0.664689 -0.627418 0.418143 -0.597128 
-1.667247 0.549520 1.660190 0.296855 -0.876059 0.280580 
0.373437 0.226634 0.393543 0.336444 -0.154193 0.914409 
0.493260 1.449739 1.884228 0.577774 0.641816 -0.477741 
-1.113624 1.395657 2.961922 -0.416821 0.772959 -0.433804 
0.475742 0.925996 1.172022 -0.264590 -0.785112 0.555143 
0.387205 -0.068263 0.308933 0.344304 -0.242561 0.883285 
0.599226 0.355679 0.411449 -0.336514 -0.480516 0.806693 
0.660544 0.617262 0.676655 0.127063 0.886600 -0.389269 
-0.792997 0.586765 0.732814 0.293403 -0.701706 0.639458 
0.702653 0.578471 0.560104 0.639413 0.630266 -0.368952 
-0.285132 0.052557 -0.055309 -0.478340 -0.086179 -0.869927 
1.626147 1.115025 2.359442 -0.396784 -0.488431 0.773782 
-1.029591 1.400859 2.913738 -0.394466 0.823014 -0.369643 
1.599784 1.610218 2.824368 0.432929 0.613845 -0.658153 
-1.329164 0.754247 1.908967 -0.356128 0.930537 -0.056312 
0.570073 0.870769 1.046487 0.694977 0.705439 -0.131462 
-0.029920 1.121347 0.065975 -0.343758 0.413619 -0.834958 
-0.249408 1.446071 1.488688 0.759599 -0.449615 0.065827 
-0.410141 -0.217987 0.228542 -0.252885 -0.249593 0.903238 
-0.348805 1.485168 1.603545 -0.782909 0.596096 -0.162131 
-0.916412 0.351812 0.617812 0.408912 -0.506762 0.703261 
0.833516 1.622522 2.340089 -0.421202 -0.659637 0.622429 
0.226776 -0.381252 -0.083065 0.510793 -0.159717 -0.839764 
-0.759692 1.031403 1.649413 -0.649691 0.721750 -0.115238 
-0.346955 0.078371 -0.023472 -0.528667 -0.040902 -0.831109 
-0.147813 1.076529 0.356216 -0.635054 0.398324 0.435422 
-0.672801 -0.050152 0.361620 -0.723851 0.186698 -0.596953 
-1.537809 0.737145 2.312634 -0.359846 0.891617 -0.199111 
0.974916 -0.250546 0.589485 -0.360056 -0.474709 0.710052 
0.287664 0.956969 0.296110 0.925899 0.331770 0.077777 
-0.930030 0.736419 1.132429 -0.650183 0.676073 -0.270101 
1.158326 0.560627 1.482324 0.599661 0.684192 -0.281546 
0.789310 1.087763 1.742044 0.577375 0.690591 -0.367649 
-1.488896 0.956469 2.765120 -0.458656 0.710202 -0.510720 
-0.073453 0.042219 -0.169737 -0.470178 -0.017683 -0.872072 
0.738593 0.408227 0.428647 0.679981 0.355620 -0.564504 
-0.605119 1.017819 1.111505 -0.766481 0.613745 -0.110876 
-0.369054 1.473863 1.700196 -0.833095 0.531943 -0.055697 
0.181232 1.416592 1.596418 0.483037 0.694081 -0.517690 
-0.247236 0.859191 0.408064 -0.724300 0.086054 0.645447 
1.456572 0.209446 1.429214 0.638047 0.682970 0.187256 
-1.046185 1.185376 2.683579 -0.585832 0.622745 -0.511973 
0.585781 0.282468 0.172969 0.712829 0.154494 -0.662955 
1.297482 0.539089 1.703347 -0.706975 -0.647237 0.172769 
0.633940 -0.036269 0.324211 0.722151 0.174302 -0.604216 
0.962628 -0.007310 0.652373 -0.432361 -0.481493 0.690621 
-0.486084 1.487895 2.099914 0.803770 -0.290967 0.424527 
-0.318035 0.644704 0.422067 -0.695934 0.192286 0.685988 
1.514664 0.140263 1.032246 -0.407293 -0.718521 0.495455 
0.772828 0.613930 0.916076 -0.376087 -0.751480 0.531002 
0.258010 1.166718 1.310548 -0.779128 -0.375939 -0.156302 
1.620033 0.224090 1.260606 0.460592 0.792824 -0.056406 
-0.714752 0.948894 1.224436 -0.710050 0.655406 -0.143885 
0.218901 0.094952 0.457860 0.302976 -0.261092 0.912675 
0.209915 -1.149638 -0.042825 -0.533963 -0.343089 0.660354 
0.741960 1.469333 2.118779 -0.343392 -0.601459 0.707768 
-0.576679 0.421765 0.427635 0.298658 -0.569921 0.745897 
-0.477586 1.437743 1.908956 -0.804095 0.547868 -0.139486 
0.216657 -0.144588 0.376821 0.342968 -0.291495 0.877536 
-1.055716 0.898047 2.062290 -0.431267 0.888965 -0.117330 
0.018703 1.273517 0.363050 0.140840 0.773376 0.613834 
0.854629 0.723583 1.361177 -0.474211 -0.719721 0.477372 
-0.011001 -0.910430 0.045855 -0.486921 -0.397061 0.763597 
-1.055202 1.229965 2.745287 -0.584290 0.598642 -0.539721 
0.218484 -0.530109 -0.028866 -0.082791 -0.242114 -0.936774 
0.466136 0.568393 0.176630 0.669661 0.526918 -0.383666 
-0.039233 0.402268 -0.168471 -0.405360 0.068948 -0.908701 
-1.246566 0.750710 1.797836 -0.381574 0.921672 -0.050207 
-0.405753 -0.522677 0.090690 -0.629108 0.043854 -0.724197 
0.542821 0.400457 0.443969 -0.426183 -0.497889 0.731211 
0.915479 0.641638 1.245107 -0.486931 -0.696491 0.499520 
0.196648 -0.920128 -0.021604 0.033146 0.057628 -0.987852 
-0.247000 -0.990530 0.014866 0.292888 -0.343697 0.886531 
0.560503 -0.938930 0.084255 -0.128602 -0.332850 0.897224 
-0.910199 0.943602 1.910068 -0.537094 0.822699 -0.082557 
0.875475 -0.696219 0.326817 -0.185462 -0.518687 0.774462 
1.455247 0.532925 1.870587 -0.481417 -0.336758 0.771909 
-0.590818 0.867372 0.847864 -0.173593 0.730356 -0.642461 
-0.935274 -0.199688 0.543516 -0.537937 0.312860 -0.716981 
0.772725 0.048191 0.468017 0.697571 0.270105 -0.587272 
-0.918650 0.744234 1.310856 0.473524 -0.793115 0.351531 
1.294739 0.338363 1.089392 0.579726 0.645974 -0.267014 
-0.713987 -0.287864 0.359005 -0.558948 0.243372 -0.713639 
0.959907 -0.126613 0.622591 -0.416725 -0.475462 0.698756 
0.320758 -0.491483 0.017184 0.659012 -0.041077 -0.716384 
0.238272 -0.261937 -0.080851 0.520031 -0.124246 -0.841808 
-0.865890 0.882739 1.562312 -0.618312 0.667544 -0.350557 
1.474920 -0.045421 0.946778 -0.336323 -0.691800 0.531352 
-0.246776 0.701766 0.447294 -0.495318 0.223403 0.809062 
-0.784587 -0.773081 0.262739 0.228024 -0.418294 0.841685 
-1.129744 0.722512 1.638977 0.416188 -0.897131 0.021868 
-0.602475 -0.862506 0.156624 0.215848 -0.289842 0.910864 
-0.338034 -0.451774 0.049253 -0.715320 -0.013643 -0.672757 
1.674039 0.810171 2.252350 0.505851 0.419293 -0.751051 
-0.748928 0.682726 0.669244 -0.404628 0.754302 -0.446496 
-0.205377 0.349348 -0.092464 -0.428245 -0.004272 -0.900372 
