0.902456 0.111631 0.243930 0.155446 -0.396591 0.876560 
1.654931 0.710610 0.620258 0.016988 0.710276 -0.680160 
-0.231852 0.196912 0.483404 -0.404841 -0.167939 0.877126 
1.837679 1.780513 1.807545 -0.234024 0.683370 -0.675460 
0.229018 1.502886 1.499153 -0.092567 0.843642 -0.514803 
1.101874 0.888257 0.881775 0.150614 -0.712056 0.672821 
-0.486105 0.519280 0.164659 -0.408423 0.515296 -0.624545 
-1.772969 0.736561 0.399960 0.156027 0.655701 -0.718010 
-0.781317 0.149137 0.179558 -0.288532 -0.396346 0.836003 
0.955466 0.860699 0.773403 0.214159 0.770347 -0.574702 
1.098063 0.461448 0.373143 0.070952 -0.561268 0.810410 
-0.117402 0.570670 -0.102416 -0.394701 0.090422 -0.901169 
0.315818 -0.708684 0.141927 0.384827 -0.274766 0.861581 
-0.786961 0.939873 0.621913 -0.057438 0.745909 -0.621896 
-1.444497 1.003043 0.876646 0.108228 0.735034 -0.649096 
0.705890 0.783522 0.679944 -0.319572 0.669268 -0.643465 
-0.360914 -0.918563 0.052553 -0.233823 -0.219449 0.936270 
-0.285614 -0.805149 0.102716 -0.188170 -0.299099 0.877760 
1.522150 -0.001441 0.259706 0.081881 -0.466595 0.862431 
0.328233 -0.779222 0.113742 0.322269 -0.258770 0.888439 
-0.328876 0.825491 0.323991 -0.901854 0.307519 0.249327 
-0.124846 -0.787086 0.140822 -0.090625 -0.407699 0.897286 
-1.778049 1.071728 0.797376 -0.440438 -0.610221 0.541511 
-1.503711 1.957264 1.648756 -0.228670 -0.402035 0.885186 
0.721936 0.625788 0.364942 0.305526 0.763102 -0.453870 
0.551788 0.466555 0.463904 -0.274911 -0.583684 0.759285 
1.383133 1.224162 1.334637 0.083705 -0.624422 0.772148 
-2.382935 1.843938 1.196131 0.488724 0.616419 -0.602264 
-0.999777 0.652185 0.298137 -0.052625 0.628564 -0.743301 
-0.638657 1.469196 1.250245 -0.442397 0.630736 -0.615849 
-0.578234 -1.016544 -0.014414 0.107791 0.162825 -0.965213 
-1.090605 0.122824 0.160868 -0.091611 -0.418242 0.880346 
-2.189208 1.696026 1.148360 -0.479152 -0.723268 0.488109 
-0.845982 1.775651 1.521497 0.279397 -0.154966 0.900686 
0.106241 0.368140 -0.124444 0.404877 0.041362 -0.910158 
-1.407145 -0.072302 0.134260 -0.096627 -0.427974 0.872769 
1.431744 0.994690 1.033387 0.035203 -0.791336 0.595119 
1.821004 1.424078 1.497850 0.171156 -0.728430 0.655277 
-0.214162 1.134804 0.297439 -0.871581 0.472580 -0.058377 
0.007202 -0.965171 -0.055742 0.539592 0.111473 -0.811980 
1.839482 1.193225 1.194599 -0.033221 0.841947 -0.497793 
-2.296047 1.970664 1.380228 0.439108 0.519014 -0.716293 
-0.311238 -0.867808 0.080304 -0.202177 -0.265150 0.906750 
2.010964 0.660607 0.524244 -0.013506 0.723700 -0.673298 
2.113067 1.727284 1.622728 0.312858 -0.526231 0.783326 
-0.597683 -0.056764 0.104479 -0.404520 0.165838 -0.843086 
-1.230869 1.802453 1.565293 -0.103604 0.535878 -0.818339 
1.090574 1.446294 1.571920 0.044396 -0.736108 0.668942 
-2.344445 2.243065 1.484645 -0.453520 -0.355816 0.806850 
0.238998 -0.779579 -0.003830 -0.066440 -0.068569 -0.985421 
-0.889505 0.349808 0.221446 -0.240321 -0.472942 0.816130 
0.705530 1.481421 1.538784 0.189588 -0.602715 0.770795 
0.900973 0.361448 0.192889 0.284833 0.329844 -0.857806 
0.721425 0.286024 0.135486 0.362419 0.255560 -0.855663 
-0.147042 0.705247 0.485354 -0.168061 0.159452 0.950427 
0.167888 1.131645 0.566671 -0.350998 0.060306 0.882551 
1.763260 0.287542 0.350946 0.017147 0.482402 -0.846942 
0.244047 0.791082 -0.008142 0.602919 0.494461 -0.604391 
1.379424 0.326688 0.321905 0.076015 0.466878 -0.864854 
0.462705 0.126047 0.058863 0.480623 0.139099 -0.847623 
-0.873314 1.016509 0.824231 -0.258032 -0.686656 0.678586 
0.286050 -0.838016 0.092876 0.144824 -0.292667 0.894004 
0.007258 0.078218 0.515774 0.099103 -0.290628 0.949593 
-0.135395 0.082192 -0.121196 -0.475946 -0.013994 -0.872368 
0.668709 1.119114 1.133623 0.284219 -0.702229 0.646635 
2.177624 1.868108 1.725250 -0.314634 0.658670 -0.670474 
0.181635 -0.215903 -0.095161 0.519335 -0.087122 -0.843755 
0.946649 1.032256 1.046438 0.200127 -0.721840 0.647794 
0.083863 0.399096 0.560348 0.195146 0.002502 0.969268 
-1.737158 1.289084 1.049473 -0.589756 -0.178068 0.782597 
0.964152 0.148882 0.238399 0.276291 0.315027 -0.840383 
1.028997 1.400025 1.477379 0.210539 0.679009 -0.651512 
1.518800 0.813007 0.771953 0.017143 0.714745 -0.680689 
-0.355136 -0.806799 0.007055 -0.192725 0.030843 -0.948146 
-1.125808 1.059519 0.871957 -0.089200 0.744836 -0.605863 
1.897064 0.976641 0.929715 0.019444 -0.877076 0.447642 
0.183481 -1.140987 -0.032721 -0.304766 -0.272096 0.857527 
0.164264 1.215505 0.298873 0.697880 0.674814 -0.084802 
1.870585 0.774572 0.689260 -0.019000 0.812117 -0.577581 
1.739842 0.436225 0.374556 0.035801 0.519602 -0.839543 
-2.064711 2.261121 1.641390 0.342751 0.308647 -0.877109 
1.013591 1.672498 1.786035 0.041976 -0.721936 0.683125 
0.550939 0.617635 0.438340 0.038929 0.872719 -0.267597 
-2.145849 1.876231 1.426474 -0.379012 -0.353964 0.828969 
1.386582 0.884845 0.893125 0.055920 -0.731858 0.665124 
-1.981683 2.100446 1.621829 0.326603 0.399978 -0.840579 
0.174138 0.510067 0.527896 0.296961 0.034280 0.952099 
-1.172486 0.777086 0.438763 -0.104736 0.631391 -0.731835 
-2.260492 1.830086 1.312332 0.439642 0.532206 -0.706097 
1.251494 1.628675 1.714710 0.160032 -0.604000 0.775947 
-0.215906 -1.098329 -0.024338 -0.045712 0.059040 -0.966511 
-0.456381 -0.908158 0.014980 -0.239947 -0.174520 0.950583 
0.908932 0.204158 0.214514 0.301456 0.303628 -0.842394 
0.139820 -0.117789 -0.117839 0.501202 -0.060083 -0.854337 
1.075972 0.322983 0.313254 0.082769 -0.476585 0.856684 
1.975121 2.144642 2.036459 -0.218956 0.553915 -0.793231 
-0.671159 -0.631880 0.050026 -0.039909 0.165474 -0.960338 
-0.621900 0.064998 0.097402 -0.375346 0.198672 -0.852903 
1.931397 2.083277 2.004508 -0.210050 0.548878 -0.797960 
-1.893175 2.413474 1.761657 0.254553 0.225200 -0.929494 
-1.688221 1.002654 0.791040 0.366780 0.549526 -0.671263 
2.088685 1.594141 1.523023 -0.267153 0.483980 -0.818341 
-2.045099 2.022280 1.555959 -0.343443 -0.286608 0.888332 
1.361723 0.800412 0.785034 0.047962 -0.687420 0.704130 
0.107384 1.139638 0.514561 -0.321459 0.358585 0.852324 
-0.668719 1.670558 1.432103 0.385015 -0.038539 0.904930 
-1.978326 0.760019 0.433191 -0.259937 -0.687300 0.674731 
-1.490438 0.960750 0.835900 -0.181531 -0.706302 0.674392 
-1.690293 1.644486 1.486984 -0.219252 -0.799087 0.544105 
0.842107 0.115361 0.200362 0.337917 0.264826 -0.835735 
-0.498055 0.066838 0.066714 -0.415203 0.161823 -0.863308 
1.946782 0.900409 0.826604 0.032699 -0.856365 0.491274 
-1.266846 2.060101 1.748042 0.152431 -0.316489 0.927502 
-1.085851 0.892985 0.610734 -0.129111 0.704944 -0.651405 
-0.659443 0.508546 0.160144 -0.227889 0.417345 -0.812691 
2.195363 0.915307 0.780468 -0.094515 0.787641 -0.603974 
0.010084 -0.537820 -0.032817 0.477659 -0.319832 -0.784370 
0.530676 1.133860 1.111867 -0.601128 -0.582211 0.262244 
1.833338 1.316751 1.369593 0.200705 -0.614165 0.738021 
-1.905052 0.780612 0.475849 -0.253614 -0.688135 0.675167 
2.148519 0.954934 0.839559 0.097605 -0.808929 0.562551 
0.545473 -0.938207 0.007592 0.240649 -0.185638 0.910444 
0.048811 0.221734 0.544513 0.149389 -0.154736 0.965583 
1.087950 -0.325355 0.177564 0.110730 -0.337916 0.908009 
1.496441 1.714842 1.829007 -0.068949 0.670761 -0.729133 
-0.142664 0.207483 -0.117144 -0.446734 0.004405 -0.889736 
-1.082002 -0.308158 0.110447 -0.036697 0.275652 -0.919722 
-0.781869 1.125595 0.866683 -0.309097 0.739937 -0.571588 
0.310568 -0.357146 0.039196 0.581208 -0.024672 -0.810387 
-1.521405 2.229178 1.816644 -0.127053 -0.350825 0.904776 
1.210288 1.531372 1.642372 0.077867 -0.581388 0.801113 
1.353680 1.274545 1.388677 0.034739 -0.672825 0.731619 
1.345316 1.359263 1.476007 -0.025788 -0.745141 0.665586 
-1.889450 1.084497 0.699633 0.608817 0.334495 -0.702835 
0.541274 -1.044629 0.000494 -0.045937 0.163632 -0.963484 
-1.344472 0.145379 0.171091 -0.039486 0.408549 -0.877906 
-1.829355 0.929196 0.605473 0.530171 0.402477 -0.666417 
-0.282859 0.203622 -0.037340 -0.415775 -0.043878 -0.904169 
0.150522 0.522284 -0.100211 0.433590 0.066799 -0.889876 
0.675659 1.247616 1.289466 0.283343 -0.727162 0.616003 
0.230615 -0.059967 0.414201 0.409493 -0.270943 0.853844 
-0.926566 1.649760 1.431925 -0.203535 0.618446 -0.732414 
-0.350359 0.013180 0.003579 -0.466117 0.070452 -0.865084 
-1.599125 1.599610 1.450338 0.143126 0.638691 -0.733470 
0.085421 0.060850 0.501014 0.192469 -0.284452 0.934155 
0.600648 -0.866885 0.017339 0.159264 -0.238539 0.951991 
0.553332 -0.626668 0.067036 0.200752 -0.222919 0.943078 
1.708245 1.231701 1.288604 0.234957 -0.510050 0.797576 
0.503960 1.346041 1.399782 0.206186 -0.601366 0.707142 
0.849934 0.417484 0.342409 0.142851 -0.548206 0.812548 
-1.001194 1.884022 1.601160 0.229321 0.720087 -0.597658 
0.300616 0.797624 0.382606 0.755329 0.264033 0.514006 
-0.066886 -0.579876 0.260458 -0.173427 -0.340284 0.908808 
-0.794158 0.623818 0.442507 0.069604 -0.598507 0.759795 
1.966982 1.917429 1.864253 -0.252201 0.614739 -0.742304 
-0.786739 0.041604 0.128987 -0.281633 0.254429 -0.853828 
-0.121447 -0.750739 -0.013231 0.003202 -0.052989 -0.989972 
-1.665288 1.858640 1.622659 -0.124442 -0.404099 0.896605 
0.888966 0.467445 0.249128 0.268556 0.446994 -0.792634 
1.412117 -0.127188 0.220244 0.091936 -0.450700 0.871101 
-1.565001 2.157448 1.776167 -0.213919 -0.466427 0.844560 
-2.287230 2.395446 1.575705 -0.434622 -0.288733 0.852180 
2.369668 1.646211 1.422927 0.351866 -0.577183 0.732547 
-1.854934 1.108260 0.763120 -0.492044 -0.595936 0.514248 
1.344568 0.723103 0.650876 0.075273 0.647338 -0.730049 
2.014548 1.021384 0.945517 -0.134384 0.697714 -0.687884 
0.846790 0.515448 0.471016 0.209726 -0.680753 0.691056 
-1.830856 2.002800 1.658627 0.273894 0.438719 -0.842267 
0.981230 1.144762 1.184732 0.190522 -0.747562 0.618569 
-0.783389 1.062847 0.789858 -0.298020 0.760862 -0.560375 
2.097870 1.838664 1.742451 0.302634 -0.553409 0.768192 
-0.577043 1.496108 1.227121 0.092664 0.738900 -0.626326 
0.137592 -0.213416 0.388893 0.167905 -0.302038 0.935817 
-0.922061 -0.600705 0.031751 -0.167000 -0.312111 0.920100 
-0.525137 -0.727624 0.028960 -0.253424 -0.192498 0.938144 
1.548757 0.649651 0.549047 0.041641 0.646687 -0.735801 
-0.779953 0.292797 0.220004 -0.291635 -0.460257 0.808040 
0.563806 -0.300639 0.113453 0.285519 -0.251284 0.913655 
-0.312964 0.721165 0.416910 -0.683666 0.276862 0.624611 
0.596676 1.183087 1.090422 -0.052685 0.757323 -0.635071 
1.543108 0.602772 0.486532 0.050555 0.622520 -0.755875 
1.949741 1.338097 1.373381 0.212176 -0.625535 0.733527 
-0.222635 1.042105 0.511331 -0.516194 -0.407837 0.651679 
-0.765427 0.320360 0.105393 -0.284073 0.295414 -0.865830 
-1.312630 1.367561 1.256968 -0.036047 0.793014 -0.555276 
1.372950 0.228614 0.304285 0.066843 0.440870 -0.870887 
-0.309284 0.758468 0.103744 -0.796942 0.379336 -0.368039 
0.869889 1.641614 1.696426 -0.069897 0.804504 -0.551940 
0.902408 0.594329 0.403911 0.231914 0.712314 -0.620103 
1.279076 0.908582 0.917215 0.095975 -0.735696 0.657874 
-0.390432 0.234523 0.007169 -0.417793 0.148085 -0.886048 
-0.733562 0.093706 0.121819 -0.334092 0.238269 -0.846467 
1.420732 1.580500 1.709396 0.048420 -0.584502 0.802077 
1.682229 0.947736 0.928454 -0.063135 0.723788 -0.666815 
0.752465 1.075143 1.085829 0.258711 -0.704810 0.651160 
-0.172916 -0.393368 -0.081467 -0.456749 -0.187497 -0.853205 
-0.714897 0.823801 0.598057 0.114435 -0.641831 0.716668 
0.835213 0.037168 0.219253 0.182802 -0.368821 0.883177 
-2.015515 1.544930 1.102307 -0.505160 -0.571809 0.569522 
0.259571 -0.466564 -0.046669 0.433954 -0.128759 -0.854633 
1.035794 1.493832 1.588954 0.105488 -0.579607 0.799391 
0.193463 0.966954 0.486955 0.515829 -0.116284 0.792569 
1.669993 1.980750 2.028897 -0.141695 0.529627 -0.831447 
-0.739601 0.684395 0.380968 0.285298 0.724575 -0.380258 
-0.844175 0.603215 0.256279 -0.116698 0.561554 -0.758377 
-0.270525 0.979197 0.209420 -0.867657 0.384402 -0.241126 
0.274082 0.987861 0.358687 0.918049 0.303535 0.217696 
-0.747706 1.062846 0.858944 -0.267592 -0.682081 0.680109 
0.300709 0.870063 0.363765 0.887292 0.203950 0.402897 
-0.008672 -1.027848 0.002668 -0.566244 -0.327271 0.736806 
2.048560 0.962404 0.869279 -0.111545 0.733340 -0.653738 
-0.979272 0.401801 0.149321 -0.200436 0.376799 -0.856073 
-0.197712 -0.010354 0.447221 -0.371231 -0.270162 0.873812 
0.008078 -0.142863 -0.163631 0.349416 -0.154780 -0.904179 
0.233452 -0.890253 0.085573 -0.031161 -0.336366 0.918136 
-0.711035 1.292359 1.127729 -0.267045 -0.702400 0.659055 
2.001842 1.598059 1.567382 0.278167 -0.707874 0.632624 
1.050131 0.178097 0.270032 0.104801 -0.416463 0.876018 
0.672222 0.825496 0.729647 -0.320931 0.637617 -0.684391 
2.323990 1.590620 1.416728 -0.316182 0.582381 -0.741852 
-0.933653 -0.049258 0.132954 -0.144394 -0.365169 0.890129 
-2.145698 1.355065 0.707416 0.498290 0.664160 -0.538765 
-1.842378 2.474985 1.799782 0.232499 0.207224 -0.942542 
0.959700 0.515629 0.434537 0.131501 -0.667241 0.716757 
-0.525827 -0.012684 0.082067 -0.420116 0.153484 -0.853298 
-1.718533 1.725092 1.538946 -0.148053 -0.342584 0.912067 
2.120826 1.418600 1.426583 0.241814 -0.665810 0.700658 
1.665797 1.766342 1.860236 -0.175672 0.652257 -0.729610 
-1.135574 1.585239 1.452237 -0.059355 -0.621696 0.769337 
-0.231514 -0.365451 0.301884 -0.363415 -0.305160 0.842298 
-1.069542 0.669538 0.311053 -0.028323 0.650463 -0.741130 
0.552680 1.033554 0.990174 -0.463022 0.488360 -0.597265 
-0.896188 1.090448 0.916560 -0.255018 -0.695748 0.670109 
0.842223 0.661890 0.586888 -0.375235 -0.609946 0.677890 
-1.673137 1.409904 1.226186 -0.406477 -0.478389 0.710042 
-0.347016 -0.259069 0.280743 -0.602358 -0.270398 0.748287 
0.951270 1.403688 1.487590 0.208614 -0.770814 0.565698 
-1.282923 1.654275 1.487056 -0.073216 0.588989 -0.785758 
0.299082 0.431668 0.459478 0.317318 -0.046737 0.945296 
-1.523898 0.754077 0.476193 -0.128426 -0.623024 0.752920 
-2.222862 2.408305 1.608437 0.402001 0.276677 -0.866760 
-0.502939 0.573303 0.218708 -0.425970 0.632814 -0.516128 
0.886236 0.733074 0.594687 0.235885 0.787204 -0.566422 
-0.716246 1.512404 1.317681 -0.420150 0.468242 -0.741470 
-1.301100 1.848586 1.575005 -0.221245 -0.398221 0.888820 
-0.509719 -0.396555 0.069530 -0.301110 0.116050 -0.889965 
-0.209679 -0.733486 -0.002356 -0.014164 -0.064892 -0.992617 
0.292461 -0.424783 0.002917 0.531709 -0.060845 -0.829709 
-0.344453 -0.422974 0.061850 -0.475651 0.031678 -0.856953 
1.225728 1.426516 1.544166 0.096926 -0.797317 0.569228 
1.271440 1.114049 1.172598 0.002782 -0.852130 0.459645 
0.221002 -0.290360 -0.073183 0.528259 -0.113043 -0.837595 
1.813910 0.470140 0.392826 0.027528 -0.544198 0.831068 
1.910549 0.610200 0.475785 0.030426 -0.652002 0.740903 
-1.181417 0.560645 0.242180 -0.105024 -0.533097 0.825971 
-0.260592 0.942572 0.415775 -0.818989 0.031770 0.530730 
-1.598356 0.565572 0.240135 -0.026010 -0.542775 0.834442 
-1.696298 0.312916 0.213032 -0.034584 0.475110 -0.850178 
-1.853336 1.631944 1.398888 -0.351688 -0.760044 0.539340 
-1.247020 1.517125 1.391232 -0.117164 -0.657868 0.718608 
-0.661568 1.302574 1.051471 -0.380732 0.694841 -0.588909 
0.420909 -0.216577 0.084109 0.539285 0.062091 -0.815745 
1.573591 2.044736 2.101720 -0.302526 0.785972 -0.532176 
2.024809 1.857296 1.790868 -0.276840 0.670358 -0.674340 
2.281114 1.504215 1.394807 0.293877 -0.608788 0.732368 
0.124200 0.247577 -0.129124 0.439486 0.013791 -0.894545 
-0.922837 0.606707 0.363196 -0.314121 -0.623983 0.704386 
-0.211816 0.923888 0.469147 -0.612487 -0.057171 0.754765 
-0.046231 0.597442 0.531366 -0.017543 0.338554 0.932063 
0.020050 0.698973 -0.116439 0.274161 0.207602 -0.930170 
-1.921687 1.507192 1.123036 0.380510 0.780192 -0.485076 
0.683541 1.389593 1.476202 0.054252 -0.707201 0.696911 
1.122978 0.218838 0.274511 0.155919 0.395054 -0.865267 
0.334248 0.183353 0.425615 0.518641 -0.174140 0.824827 
-1.251925 1.317965 1.263911 -0.168086 -0.589967 0.765745 
-1.345118 -0.124429 0.127168 -0.105049 -0.408781 0.878577 
1.490057 1.400558 1.505949 -0.038887 0.762111 -0.640334 
1.665358 0.439036 0.368091 0.046731 0.515342 -0.843297 
0.634158 0.732698 0.638695 -0.106548 0.749163 -0.648842 
0.084348 -0.429603 0.312452 0.045716 -0.258545 0.962585 
-1.374354 2.151186 1.786527 0.214315 0.609883 -0.754000 
0.602004 1.257799 1.297050 0.305507 -0.719564 0.618708 
-2.004572 0.580234 0.260550 -0.032652 0.563967 -0.818132 
1.021104 -0.588964 0.073004 0.128207 -0.401764 0.900562 
1.378976 0.566941 0.454879 0.078680 0.552350 -0.818615 
-0.197605 -0.649672 0.205392 -0.280135 -0.374961 0.874532 
1.582771 0.847490 0.811837 0.002681 0.751989 -0.648045 
0.497666 0.424317 0.431374 -0.149729 -0.589594 0.772336 
-2.000188 1.831169 1.492169 0.351582 0.586481 -0.716242 
-0.878101 0.863439 0.549672 -0.168223 0.752937 -0.612014 
-0.717472 1.002123 0.825779 0.069321 -0.744317 0.651219 
1.598552 0.796154 0.759202 0.032547 -0.735716 0.662062 
-0.161932 0.291146 0.547029 -0.313787 -0.083284 0.939773 
2.186938 1.762450 1.614541 -0.322666 0.655049 -0.664972 
1.242831 0.585785 0.460072 0.130468 0.578275 -0.779487 
0.392987 -1.164109 -0.002446 0.002351 0.057033 -0.988013 
0.132419 1.241983 0.217914 0.754530 0.562739 -0.318340 
2.417172 1.741691 1.461042 -0.375045 0.562463 -0.736019 
-2.243508 2.055145 1.454356 -0.415637 -0.355369 0.817777 
-0.224479 -0.942503 0.056235 0.075852 -0.342782 0.926736 
2.134330 1.344261 1.344640 0.245922 -0.611803 0.744842 
1.202119 -0.200319 0.211402 0.097659 -0.370342 0.895912 
-1.670454 2.374093 1.863793 -0.187550 -0.204067 0.959384 
0.400726 -0.826633 0.071374 0.269008 -0.222575 0.919436 
0.017847 0.507663 -0.144066 0.365846 0.098494 -0.924447 
-0.224114 0.873390 0.032344 -0.621753 0.453730 -0.632566 
-1.499951 0.845190 0.612569 0.092852 0.654431 -0.729212 
-0.015830 1.335651 0.157766 -0.412395 0.032740 -0.867970 
-0.642664 0.766894 0.562502 -0.161339 -0.603369 0.774863 
-0.180225 0.449569 -0.081505 -0.419766 0.037168 -0.900829 
2.101127 0.916294 0.803613 -0.093952 0.766804 -0.622159 
-1.437814 0.757323 0.492462 -0.102473 -0.612133 0.766897 
-1.243313 -0.311461 0.075989 -0.122660 -0.406054 0.889718 
-1.356979 1.672011 1.508251 -0.047415 0.576387 -0.801401 
-1.219313 1.151807 1.043489 -0.227634 -0.725620 0.648220 
-1.801056 0.966036 0.664244 0.507266 0.419660 -0.675591 
0.575824 0.173822 0.094998 0.431710 0.185946 -0.848998 
0.133611 -1.087297 -0.052968 0.223952 0.102302 -0.963638 
1.885532 1.987421 1.950101 0.282767 -0.647745 0.704536 
-0.805752 0.526298 0.325479 -0.333296 -0.584856 0.727649 
-2.040339 1.168234 0.628288 0.592485 0.436852 -0.648632 
-0.881253 -0.136400 0.110539 -0.047922 0.304175 -0.917556 
-0.274923 -1.071586 0.020494 0.197829 -0.300088 0.876954 
-1.742500 1.624762 1.441708 0.260451 0.582702 -0.740206 
1.273813 1.175916 1.206481 0.010378 0.595889 -0.778105 
-1.111304 1.109739 0.930097 -0.106149 0.728754 -0.613049 
-0.572471 0.480799 0.126641 -0.270423 0.377448 -0.818360 
-1.174135 -0.359836 0.072015 0.088039 0.373704 -0.899438 
1.439909 1.769009 1.872861 0.151510 -0.665310 0.724488 
-2.322214 1.842982 1.264678 0.461946 0.564581 -0.665221 
1.336180 1.898652 2.010841 -0.079800 -0.490580 0.850013 
-0.598538 0.357186 0.262122 -0.379321 -0.509724 0.763997 
1.102856 0.387642 0.333380 0.068039 -0.502833 0.848953 
0.146070 0.938898 0.037010 0.563108 0.459645 -0.661881 
1.244892 0.968189 0.950942 0.095390 0.776288 -0.601599 
-1.601716 1.432612 1.259952 0.213745 0.804698 -0.534043 
1.960815 1.293725 1.316276 0.248066 -0.557961 0.773984 
-0.346877 0.370215 0.433613 -0.401561 -0.110925 0.901473 
1.296598 1.573330 1.684589 0.087660 -0.588138 0.795202 
0.617094 1.001471 0.938632 -0.525916 0.466782 -0.627295 
1.590764 0.951209 0.946686 -0.033879 0.750074 -0.648356 
1.349153 1.786521 1.907834 0.113120 -0.712870 0.684970 
1.035644 1.174148 1.227938 0.108600 -0.807859 0.512143 
1.780826 0.535882 0.405585 0.011835 -0.556511 0.829276 
1.121416 0.870997 0.809850 0.147409 0.758178 -0.605109 
-1.695596 0.709940 0.377741 -0.170727 -0.629197 0.739649 
0.378480 -0.136186 0.290120 0.537350 -0.241764 0.799021 
0.135673 1.139010 0.415213 0.973442 -0.114441 0.046737 
1.162905 -0.328005 0.170383 -0.005829 0.343050 -0.902948 
1.842836 0.897776 0.842475 -0.084067 0.719868 -0.662015 
0.679426 0.559067 0.494029 -0.397767 -0.540737 0.730371 
-0.379241 -1.332529 -0.046041 -0.195516 0.248933 -0.920226 
-0.040843 -0.803964 0.143100 -0.289585 -0.393041 0.855430 
1.004746 0.362692 0.321987 0.098855 -0.498647 0.846407 
2.007737 2.244226 2.099555 -0.244230 0.595765 -0.759988 
0.081994 -0.635806 0.240365 0.224564 -0.393647 0.883423 
1.887760 1.464755 1.520061 -0.181256 0.549133 -0.790315 
-0.566254 1.308863 1.091679 0.677481 0.331807 -0.528594 
0.989890 -0.204765 0.193334 0.076951 0.302184 -0.916187 
0.299879 -0.081490 0.368496 0.503563 -0.258047 0.809776 
-1.901701 1.244602 0.827898 0.545449 0.430716 -0.701231 
1.038577 0.083891 0.243699 0.148580 0.356891 -0.879495 
1.678931 0.845712 0.799635 -0.009720 0.782436 -0.620001 
-0.830677 0.424541 0.110301 -0.244664 0.336895 -0.870551 
1.220236 0.910521 0.874492 0.104023 0.770436 -0.605863 
-0.543263 -0.233845 0.103803 -0.395615 -0.253799 0.868427 
0.814429 0.749171 0.717037 0.179322 -0.703738 0.671912 
1.562473 1.356208 1.438792 -0.050372 0.813397 -0.557691 
2.028583 0.875629 0.776270 0.057583 -0.832414 0.533806 
0.713335 0.496017 0.482414 0.013297 -0.661489 0.709748 
1.610531 1.457741 1.574773 0.121604 -0.789345 0.593825 
0.316786 -0.939904 0.057271 0.131686 -0.248887 0.939058 
0.478319 -0.433563 0.079279 0.303591 -0.218416 0.924690 
-0.702894 -0.560134 0.058870 -0.040578 0.185827 -0.954195 
1.487413 1.923966 2.005668 -0.078681 0.585829 -0.795645 
0.952104 0.886913 0.871027 0.197128 -0.695358 0.681518 
0.647949 0.619419 0.342169 0.257400 0.751187 -0.401325 
0.928240 0.800099 0.691671 0.231529 0.737933 -0.600327 
-0.481634 0.399832 0.045249 -0.351827 0.247407 -0.882505 
0.914341 -0.452262 0.140099 0.118529 -0.302067 0.923119 
1.060249 -0.027938 0.241878 0.051290 -0.399823 0.893917 
-0.265470 0.899130 0.128201 -0.779555 0.387973 -0.427229 
-0.050617 0.177078 -0.169518 -0.474307 0.030619 -0.875898 
0.507926 0.614686 0.382244 0.210611 0.833891 -0.280206 
-1.481425 0.065955 0.172659 -0.029284 0.402517 -0.875555 
-2.150999 1.465435 0.854099 0.485405 0.697374 -0.511329 
-0.137761 0.013310 0.476241 -0.247647 -0.277305 0.924998 
2.002513 0.775795 0.663946 -0.037734 0.812852 -0.574597 
-0.016191 0.831752 0.517438 -0.129744 -0.232133 0.957127 
1.667742 0.986272 0.992425 -0.002516 -0.869699 0.463353 
0.054188 1.196141 0.128721 0.460560 0.325021 -0.810478 
0.385869 0.286465 0.396934 0.440510 -0.158455 0.865958 
1.144564 -0.263790 0.194246 0.104332 -0.353902 0.902033 
-1.873366 0.909556 0.553788 0.571594 0.365452 -0.667102 
-0.650712 1.018109 0.758717 0.440541 0.528335 -0.686560 
0.808494 1.472132 1.537742 0.168745 -0.584113 0.789281 
-0.785000 0.487557 0.117007 -0.234359 0.364340 -0.860836 
1.121711 1.672957 1.769157 0.144812 -0.667952 0.720201 
-0.586613 0.645857 0.332780 -0.075780 0.749234 -0.351746 
-0.152856 1.061188 0.381551 -0.576047 0.602354 0.334220 
-0.699176 0.893222 0.632659 0.440249 0.563671 -0.685312 
-1.965183 2.551598 1.761490 0.288280 0.213403 -0.923549 
-0.807486 0.868432 0.539529 0.224303 0.710070 -0.621890 
-0.918901 0.644584 0.423299 -0.365977 -0.643417 0.670922 
0.914248 0.357053 0.316589 0.125390 -0.502328 0.841526 
0.296941 -0.519157 -0.009952 0.455549 -0.056727 -0.858273 
0.337452 0.790926 0.319817 0.917434 0.273648 0.228318 
-1.642073 1.940276 1.663461 0.132127 0.444134 -0.873657 
1.373174 0.149755 0.298111 0.046985 -0.453571 0.869334 
0.309395 0.878253 0.288333 0.911907 0.284986 0.103254 
1.999398 1.696321 1.656790 -0.284685 0.730564 -0.600463 
2.195593 1.630609 1.492788 -0.301442 0.507574 -0.793235 
1.113930 1.416684 1.508358 0.166555 0.677890 -0.669728 
-1.082510 0.791498 0.441715 -0.154559 0.647678 -0.708529 
-1.723740 1.792843 1.573088 0.188804 0.549089 -0.792712 
0.823481 1.037619 1.045014 0.237081 -0.706953 0.655053 
1.310982 1.419115 1.544786 0.045551 -0.793842 0.588295 
0.781208 0.480384 0.249406 0.303534 0.470920 -0.753914 
-0.163033 1.190626 0.212399 -0.748572 0.542339 -0.312411 
0.873703 -0.142884 0.193145 0.128995 -0.344965 0.903022 
-1.917676 1.184262 0.759828 0.571727 0.401868 -0.694230 
-0.126903 0.924788 0.519814 -0.227203 -0.184446 0.952667 
-0.266493 0.131712 0.447355 -0.449157 -0.226618 0.843505 
-1.298258 -0.070825 0.145548 -0.104650 -0.391320 0.879913 
0.250904 -0.756010 0.136244 0.184909 -0.329734 0.877907 
0.563303 1.212541 1.151393 -0.406902 0.507873 -0.590006 
0.079210 -0.793185 0.143259 0.152877 -0.407258 0.877787 
0.721534 0.622645 0.447077 -0.159650 0.816068 -0.359004 
-1.356990 0.973885 0.807945 0.049786 0.726385 -0.650969 
0.503402 0.386838 0.348383 0.212512 -0.403628 0.850785 
-0.907692 0.409655 0.130857 -0.222283 0.356927 -0.862747 
-0.611133 0.940408 0.706388 0.091384 -0.693904 0.697683 
-0.674152 0.652732 0.297067 -0.258068 0.721298 -0.536633 
-1.419798 1.065714 0.973553 -0.212563 -0.731705 0.646997 
0.643430 1.468092 1.484874 0.266397 0.791595 -0.528415 
-2.226038 1.783836 1.266816 0.443288 0.580661 -0.653209 
1.320995 0.512342 0.418670 0.006252 -0.539141 0.835782 
-0.880846 -0.731573 -0.010457 -0.176188 -0.326646 0.925485 
-2.146692 1.420308 0.796231 0.489682 0.684759 -0.522038 
-2.367210 2.187652 1.443515 -0.461121 -0.388644 0.783507 
-0.171707 0.076478 0.488014 -0.321341 -0.263651 0.903122 
-1.559052 0.441366 0.222542 -0.040656 -0.514451 0.842397 
1.884519 1.086227 1.083589 0.194684 -0.652833 0.712929 
0.618291 -0.396464 0.110618 0.223302 -0.258046 0.922983 
1.491827 2.000299 2.074440 -0.275739 0.800147 -0.526421 
0.573049 1.308819 1.364058 0.278503 -0.653683 0.667692 
-1.077909 1.521024 1.368567 -0.193773 0.554074 -0.757688 
-1.174487 1.688843 1.491118 -0.115612 0.584088 -0.779276 
-1.834552 0.854905 0.607856 -0.264805 -0.691651 0.659902 
-1.296736 -0.253958 0.087010 -0.114936 -0.419010 0.884516 
0.559202 0.361000 0.309451 0.234495 -0.509230 0.821425 
1.274110 1.480458 1.618706 0.051478 -0.683583 0.715767 
1.963080 1.426084 1.472049 0.208120 -0.702457 0.672199 
1.967779 1.534363 1.552188 0.253060 -0.720041 0.634216 
0.167646 0.331590 -0.099295 0.409115 0.012324 -0.909528 
-0.930817 1.409677 1.232117 -0.197079 0.598806 -0.677791 
0.045825 0.332162 0.569554 0.151288 -0.053038 0.980403 
0.654102 1.369068 1.414823 0.319295 -0.734088 0.573872 
-0.870184 1.360635 1.235572 -0.195584 -0.755571 0.597686 
-0.184648 0.549000 0.515021 -0.292965 0.039195 0.951209 
1.557273 1.948411 2.020628 -0.103523 0.558612 -0.814298 
0.436530 0.610335 0.306514 0.456357 0.786573 -0.289635 
0.515061 1.348003 1.284556 -0.137983 0.719458 -0.621721 
-0.793988 1.299881 1.084178 -0.329927 0.681000 -0.604931 
0.329791 -0.713848 -0.000078 0.306096 -0.003523 -0.913067 
-0.428426 -0.078832 0.065170 -0.463297 0.110318 -0.854923 
0.009115 -1.172977 -0.051046 0.595890 -0.603527 0.438626 
-0.991101 0.777189 0.439694 -0.104684 0.702337 -0.676083 
-0.680271 1.446241 1.316938 -0.214681 -0.435184 0.849305 
1.022355 -0.283362 0.182728 0.064221 0.283865 -0.919041 
1.110486 0.421464 0.263199 0.197794 0.411382 -0.857604 
0.306539 -0.162140 -0.032684 0.517180 -0.046159 -0.841373 
-1.808344 1.478061 1.198186 -0.438216 -0.542256 0.641356 
1.047860 1.355286 1.425395 0.196918 0.736035 -0.589123 
0.235688 0.464341 0.495463 0.308267 -0.008270 0.948446 
1.450170 0.853343 0.856805 0.028884 -0.720786 0.677312 
-2.244836 2.129383 1.489526 0.421863 0.420188 -0.783419 
-1.787918 0.893209 0.652257 0.278998 0.649771 -0.662390 
1.930298 0.569644 0.418081 0.021304 0.571032 -0.817561 
1.968455 0.951909 0.875829 -0.106612 0.721061 -0.663863 
-1.911539 0.858991 0.512788 0.458663 0.481800 -0.667250 
0.495365 0.175525 0.293976 0.347928 -0.378786 0.827665 
0.355336 -0.608215 0.041853 0.381124 0.030085 -0.882278 
0.136393 0.333317 0.559498 0.281385 -0.043253 0.952184 
0.862412 1.249554 1.244915 0.265540 0.681520 -0.627349 
-1.256370 1.113169 0.970834 -0.018465 0.720345 -0.633201 
1.012253 0.452259 0.368517 0.097380 -0.565407 0.803900 
0.382857 0.452570 0.028775 0.518604 0.201740 -0.764350 
0.087102 0.510486 0.546349 0.187874 0.066285 0.968660 
1.308007 0.559218 0.477208 0.019519 -0.561787 0.814995 
-0.754412 1.172439 0.917408 -0.333378 0.725634 -0.576415 
2.249480 1.186443 1.108995 -0.171891 0.713345 -0.671544 
-0.896840 0.724836 0.367985 -0.017791 0.763499 -0.636857 
0.176010 1.044119 0.549082 0.138416 -0.335966 0.858524 
0.520677 0.292710 0.060494 0.437798 0.189226 -0.862053 
-0.597998 1.610000 1.394379 0.317462 -0.124066 0.896681 
0.325548 -0.972079 -0.006371 -0.043016 0.021516 -0.991070 
-1.344597 1.245193 1.175172 -0.012137 -0.867212 0.466593 
0.177682 -1.023916 -0.002237 -0.132260 -0.359687 0.920887 
0.230761 0.311257 -0.070008 0.406802 -0.014478 -0.911558 
-1.033372 -0.557351 0.024922 -0.153759 -0.360787 0.910475 
1.221180 1.780200 1.912569 0.084180 -0.747608 0.655694 
0.282479 0.466388 -0.058098 0.500572 0.012442 -0.861983 
-1.781091 0.625082 0.247424 -0.038735 0.560012 -0.826016 
-0.838692 1.357783 1.166675 -0.312104 0.659383 -0.621484 
0.532988 0.510997 0.191449 0.474448 0.513104 -0.594991 
0.067410 0.834189 -0.061237 0.452833 0.362063 -0.798763 
-0.141863 1.128346 0.545996 0.357639 0.158940 0.878461 
1.902960 1.767422 1.768860 -0.253798 0.708068 -0.640821 
-1.173676 1.280061 1.143178 -0.049404 0.568644 -0.745457 
-1.109345 1.662530 1.466262 -0.137491 0.599305 -0.762611 
-0.713229 0.497006 0.339123 -0.384471 -0.575375 0.718111 
-0.349189 0.658167 0.051319 -0.714891 0.340289 -0.496239 
1.358605 0.958125 0.954780 0.045881 0.777084 -0.615806 
2.240541 1.227852 1.166226 0.205434 -0.691253 0.685723 
2.273241 1.146260 1.050900 0.185279 -0.722244 0.659817 
2.185924 1.518750 1.445212 0.283136 -0.642581 0.701565 
0.641014 -0.092138 0.150682 0.440179 0.159028 -0.821459 
1.861229 2.089727 2.039113 0.288588 -0.652054 0.699282 
0.481605 -0.782419 0.043243 0.117819 0.103965 -0.966587 
-0.731147 -0.407271 0.074693 -0.042920 0.226492 -0.943002 
-1.461376 0.602993 0.220940 -0.045744 0.532502 -0.842843 
1.332802 1.664777 1.790046 0.028703 0.696254 -0.713336 
-1.477219 1.187865 1.074050 0.193004 0.531673 -0.793261 
-1.574830 1.536391 1.393768 -0.181511 -0.713305 0.655746 
0.279900 0.251441 0.471013 0.450940 -0.115892 0.867872 
0.661712 -0.035061 0.190842 0.240352 -0.349218 0.882773 
-0.407954 -0.533485 0.104419 -0.423449 -0.231785 0.866834 
-2.064567 1.493109 0.977286 0.441483 0.745308 -0.483560 
1.792123 0.853876 0.805765 0.018036 -0.843611 0.521478 
2.119794 1.493107 1.462990 0.264644 -0.666095 0.686711 
0.390687 -0.939499 0.037196 0.174140 -0.208840 0.956376 
0.441913 0.468940 0.122388 0.526738 0.421877 -0.627983 
-1.100831 0.943971 0.759462 -0.222876 -0.682897 0.688100 
-0.378294 0.312370 0.000132 -0.397119 0.120705 -0.900767 
-1.035966 1.373938 1.217685 -0.128660 0.533481 -0.753464 
-0.019291 1.327913 0.311084 -0.338731 0.661112 0.615895 
-1.549543 0.682617 0.347808 -0.118447 -0.597164 0.776097 
-0.864384 0.793835 0.571680 -0.321390 -0.660155 0.676548 
-0.241761 -0.202230 0.361716 -0.445662 -0.286322 0.824236 
-2.187485 1.986079 1.454824 -0.394951 -0.343330 0.831364 
-1.258135 0.191237 0.177127 -0.078230 -0.443194 0.869002 
-0.279059 0.971494 0.351850 -0.919291 0.302331 0.216668 
-2.039707 1.262659 0.717944 -0.490037 -0.664744 0.511129 
0.578473 0.616370 0.373440 0.156510 0.798228 -0.326221 
0.080607 0.629937 -0.109620 0.336396 0.134354 -0.917567 
-0.637764 1.550640 1.367886 -0.208314 -0.406314 0.887918 
-1.533709 1.464152 1.318979 0.154325 0.771730 -0.590274 
0.242335 0.750993 0.455643 0.480730 0.238518 0.833875 
-0.859989 0.268761 0.202647 -0.253025 -0.440373 0.826627 
-0.684493 1.364208 1.135765 -0.406938 0.664951 -0.601896 
0.882379 0.731582 0.675399 0.195934 -0.678048 0.699727 
-1.474105 1.028340 0.937780 -0.208698 -0.731944 0.648064 
0.241604 -0.694070 -0.002098 -0.136499 -0.130875 -0.970893 
-1.123230 0.707511 0.342926 -0.072691 0.635663 -0.744931 
-0.246607 -0.059645 0.403813 -0.447777 -0.266502 0.833132 
1.598075 1.745717 1.849843 -0.133171 0.654886 -0.736289 
-0.388578 -0.735746 0.095919 -0.375347 -0.228944 0.880936 
0.846792 -0.053369 0.200297 0.171572 -0.344940 0.894591 
0.754160 1.344724 1.400141 0.284281 -0.716262 0.604986 
1.294859 0.113868 0.277087 0.066186 0.405714 -0.881654 
-0.571337 0.566713 0.471144 0.202166 -0.604254 0.755757 
-1.699258 1.059815 0.837874 0.407598 0.503029 -0.694218 
-1.503064 1.872376 1.635717 0.013931 0.486141 -0.866920 
1.634084 1.590898 1.700216 -0.149238 0.767981 -0.605350 
-1.358570 1.047311 0.941387 -0.217856 -0.725365 0.651819 
-1.034292 0.385158 0.212142 -0.171819 -0.471955 0.834541 
-0.972843 1.198962 1.059190 -0.247069 -0.712255 0.655564 
-1.798745 0.697915 0.339728 0.101860 0.627909 -0.749376 
1.454730 0.938010 0.942629 0.008292 0.760798 -0.642107 
-1.004902 0.952069 0.689843 -0.163268 0.745757 -0.604224 
-0.153063 0.641380 -0.092203 -0.447625 0.145982 -0.851408 
-0.098969 0.295915 -0.141040 -0.436437 0.034011 -0.896887 
-0.411703 -0.389489 0.133137 -0.479991 -0.241055 0.837549 
0.146037 -0.023706 0.460959 0.239332 -0.280654 0.926689 
-0.680397 -0.064416 0.133094 -0.333055 -0.313196 0.859628 
-1.745311 0.952988 0.708815 -0.434273 -0.514715 0.650460 
-1.059476 0.736065 0.384445 -0.081253 0.669054 -0.712697 
-0.937097 1.732240 1.496626 -0.201036 -0.437977 0.870866 
0.253763 0.906556 0.109375 0.746857 0.401826 -0.482228 
-0.518310 0.295322 0.294904 -0.453825 -0.428580 0.760134 
-1.412889 0.282625 0.195738 -0.062870 -0.472101 0.857142 
0.015269 0.596696 -0.134260 0.317040 0.130069 -0.935697 
-1.847514 0.536678 0.244617 -0.035454 0.542166 -0.828501 
0.118311 0.232732 0.539287 0.246873 -0.137998 0.947035 
-1.864281 1.447727 1.119345 -0.507170 -0.447035 0.655938 
1.661451 0.767379 0.711278 0.034791 -0.740558 0.656758 
-1.233916 -0.229631 0.109876 -0.120587 -0.377703 0.889174 
0.045989 1.098885 0.077522 0.350347 0.440858 -0.814419 
-0.304959 0.516026 -0.047434 -0.573682 0.056494 -0.805257 
-0.198487 1.217698 0.533911 0.448694 0.713952 0.427031 
0.214132 0.303753 0.521264 0.380523 -0.066400 0.910265 
-0.169013 1.110224 0.126953 -0.582317 0.437064 -0.663041 
0.943434 0.425480 0.345437 0.113530 -0.540793 0.822072 
0.056346 1.346335 0.196447 0.591000 0.593915 -0.460372 
0.940702 -0.544608 0.108143 0.130603 -0.321225 0.919204 
-0.563353 0.303753 0.057420 -0.352540 0.231174 -0.880906 
-0.119055 1.179577 0.139826 -0.552859 0.421010 -0.707486 
-1.758583 2.320104 1.801884 -0.337483 -0.364301 0.866537 
-1.348513 0.486551 0.201884 -0.046086 0.495264 -0.855770 
0.248830 0.986817 0.427910 0.813534 0.000927 0.515792 
0.842723 0.626630 0.466893 -0.331432 0.789236 -0.414935 
-0.042896 -0.597514 -0.005467 -0.168779 -0.174646 -0.953559 
-0.424050 1.563950 1.345183 0.440791 -0.833715 -0.003937 
-0.207041 -0.519765 -0.018193 0.013950 -0.254195 -0.928629 
-1.841778 1.347902 0.996790 0.358370 0.799007 -0.468285 
1.470810 0.277666 0.331692 0.031798 -0.485769 0.857899 
1.697240 1.464755 1.565767 0.160032 -0.767742 0.615386 
-0.158046 1.229708 0.341901 -0.629819 0.746519 0.041253 
1.196585 0.827706 0.810449 0.107735 -0.688695 0.697142 
0.632023 0.103198 0.124158 0.419195 0.191886 -0.840573 
-0.461778 0.252869 0.339947 -0.524021 -0.333365 0.759133 
1.939085 1.697067 1.693343 0.276102 -0.501893 0.813365 
0.460503 0.407344 0.078061 0.475399 0.291590 -0.767058 
1.582456 0.518552 0.375263 0.066322 0.532182 -0.841226 
1.257074 0.019821 0.257242 0.061902 0.378658 -0.889100 
0.943708 0.289543 0.217225 0.277589 0.331018 -0.849642 
-0.848721 0.798942 0.468270 0.233851 0.726534 -0.579664 
-0.128547 0.627978 0.520855 -0.091189 0.284821 0.944391 
0.172744 1.097944 0.354111 0.557077 0.280063 0.603082 
1.725667 1.800692 1.877425 0.197271 -0.613917 0.761046 
-0.636687 -0.954837 -0.015479 -0.380989 -0.139385 0.833010 
-1.406149 0.937471 0.759020 0.070405 0.701298 -0.679924 
-0.631765 1.361685 1.084489 -0.046718 0.773810 -0.611392 
-1.709697 1.549745 1.334843 0.304459 0.754927 -0.577856 
-1.950655 2.375853 1.727190 -0.377034 -0.332010 0.861589 
1.185199 -0.391351 0.136590 0.112846 -0.420368 0.888543 
-1.603295 1.386542 1.205342 0.210604 0.820171 -0.510438 
0.871869 0.266077 0.193460 0.307793 0.302529 -0.849432 
1.312091 1.222881 1.332739 0.078308 -0.628774 0.767841 
0.404367 0.538727 0.130555 0.568805 0.455011 -0.545871 
-2.069621 1.592902 1.110652 -0.490565 -0.644593 0.529341 
1.123361 0.820894 0.745695 0.152099 0.728699 -0.631565 
-2.132778 1.719048 1.255159 0.428260 0.608919 -0.627148 
0.736301 -0.873038 0.005349 0.234894 -0.286608 0.877959 
-0.302249 -0.757962 -0.002882 0.069494 -0.089443 -0.972880 
0.357194 0.543112 0.054532 0.570858 0.289705 -0.647166 
0.814659 1.583074 1.679859 -0.065333 -0.624245 0.770541 
1.786127 1.244509 1.289313 0.243737 -0.515477 0.795868 
0.087247 0.994285 0.032197 0.475087 0.463009 -0.730389 
-1.238610 0.672640 0.284945 -0.080002 0.571184 -0.799997 
-0.061990 -0.260827 -0.134710 -0.380653 -0.181489 -0.887792 
-0.249965 0.039699 0.430839 -0.437478 -0.251917 0.843345 
-2.207946 2.805409 1.710317 -0.406345 -0.209483 0.888934 
0.879647 0.524061 0.323225 0.256287 0.571251 -0.711246 
1.192514 1.158131 1.222136 0.006342 -0.865060 0.424963 
-0.081184 0.834965 -0.056403 -0.467120 0.372452 -0.784688 
-1.144124 1.405260 1.271032 -0.144726 0.705292 -0.602629 
-0.609993 0.476507 0.416529 -0.131701 -0.661487 0.706602 
1.117638 0.754384 0.713426 0.119772 -0.645769 0.732877 
2.111494 1.042628 0.947481 -0.143712 0.708479 -0.679650 
-1.087276 1.729013 1.501555 -0.150653 0.575375 -0.777417 
0.032776 0.135242 -0.176037 0.455310 0.010139 -0.881336 
-0.175346 0.826467 -0.014714 -0.544191 0.420896 -0.705272 
-0.433466 -0.439894 0.062302 -0.360046 0.077362 -0.881967 
0.233341 1.093480 0.271980 0.876957 0.431964 -0.094869 
-0.941213 0.931797 0.719525 -0.237311 -0.670847 0.696205 
1.005127 1.632943 1.724230 0.146274 -0.663895 0.722742 
0.240281 -0.137314 0.385553 0.434469 -0.279796 0.837530 
0.721428 1.171804 1.129739 0.343364 0.738184 -0.556952 
-1.899389 2.175999 1.693833 -0.305369 -0.364012 0.874435 
-1.345091 0.849154 0.636043 -0.147201 -0.648648 0.728988 
-0.752430 0.692809 0.450709 0.485880 0.752743 -0.376397 
-0.460513 -0.342700 0.074543 -0.395871 0.090452 -0.865802 
-0.582712 -0.590404 0.049604 -0.251986 -0.220846 0.925427 
1.503754 0.752389 0.691907 0.029692 0.680976 -0.708959 
-1.306789 1.590100 1.453087 -0.159817 -0.762795 0.603709 
1.426186 0.085518 0.284428 0.044505 0.407126 -0.876394 
-1.642138 1.062399 0.886505 0.329369 0.577646 -0.686109 
-0.428191 0.115465 0.320453 -0.554192 -0.257112 0.776188 
-1.007308 -0.282792 0.105444 -0.137801 -0.328631 0.904174 
0.839091 0.327072 0.304666 0.150177 -0.494404 0.841160 
0.266172 1.012179 0.286016 0.904000 0.372302 -0.015230 
-1.285151 0.440617 0.192922 -0.046660 0.479284 -0.861777 
-1.484098 0.418404 0.216242 -0.045830 -0.504875 0.847098 
-1.340831 1.751155 1.540452 -0.133529 -0.411282 0.893706 
1.466892 0.453902 0.352142 0.076616 0.505913 -0.852871 
0.188277 -0.255733 0.358557 0.269696 -0.299182 0.894349 
2.199765 2.144392 1.947610 0.312843 -0.614815 0.722843 
-0.642617 -0.005036 0.154750 -0.352100 -0.343899 0.841584 
0.493549 0.055967 0.078586 0.477667 0.136605 -0.839976 
-0.214003 0.675964 -0.076549 -0.538973 0.189874 -0.787023 
-1.433521 1.236977 1.160161 -0.011161 -0.884176 0.439382 
-1.558446 0.944968 0.806480 -0.187127 -0.706747 0.672768 
-1.609181 0.491492 0.231185 -0.033497 -0.528078 0.837551 
-1.758570 1.013582 0.755654 -0.438870 -0.559939 0.596663 
-1.230190 0.886862 0.682885 -0.179542 -0.661557 0.712993 
0.800695 -0.374161 0.147906 0.111360 -0.307642 0.923119 
-0.325772 0.794458 0.167907 -0.887785 0.323982 -0.256382 
-0.325743 -0.501112 0.040026 -0.437907 0.011167 -0.870075 
-0.225251 0.353539 -0.062726 -0.390378 0.000874 -0.918585 
1.021646 1.073738 1.050567 0.203533 0.755941 -0.585027 
0.266046 0.919995 0.406125 0.822480 0.072134 0.520569 
-1.418100 0.006455 0.163018 -0.031164 0.381745 -0.882681 
2.166081 1.224606 1.179293 0.219555 -0.647666 0.712881 
1.073906 -0.524193 0.094033 -0.100374 0.403746 -0.897347 
-1.005580 1.255698 1.132548 -0.243514 -0.720346 0.648318 
-1.721022 0.679695 0.311516 0.065818 0.606184 -0.771661 
-1.746524 0.835192 0.590984 -0.218031 -0.688146 0.682056 
-1.257761 -0.000942 0.152627 -0.098690 -0.403243 0.878425 
-0.830062 -0.686969 0.017745 -0.179825 -0.286182 0.928855 
-0.298455 0.900172 0.313731 -0.907903 0.257585 0.184538 
-1.682427 0.771424 0.468365 0.134672 0.654782 -0.722167 
-0.331004 0.611676 -0.001998 -0.629131 0.243056 -0.676165 
-0.868341 0.414951 0.242513 -0.251534 -0.504288 0.799869 
-0.354687 1.614368 1.351149 0.417867 0.147232 -0.798514 
1.533758 0.534378 0.425225 0.003336 -0.595717 0.785758 
0.256033 0.366085 0.495265 0.340271 -0.054546 0.934550 
2.249398 2.363231 2.103400 0.295898 -0.595070 0.747009 
-0.991690 0.999556 0.823511 -0.248610 -0.693646 0.674491 
-0.374153 0.385104 -0.005626 -0.420472 0.122913 -0.890286 
-1.611740 1.341789 1.148953 0.213904 0.834183 -0.487054 
1.328776 0.375527 0.345670 -0.000350 -0.499377 0.859783 
-0.958260 -0.118668 0.117891 -0.043296 0.315179 -0.913498 
1.789078 1.376016 1.451597 0.145813 -0.709535 0.680362 
-1.708403 0.385381 0.222134 -0.041172 -0.512393 0.838008 
2.149513 2.176828 1.993248 -0.272679 0.584204 -0.757429 
-0.458301 -0.525844 0.052821 -0.271472 0.090736 -0.907811 
-1.337566 0.221320 0.177347 -0.041137 0.427316 -0.873355 
1.704361 1.882378 1.947672 0.217262 -0.643236 0.731345 
2.125686 1.258502 1.228430 -0.155241 0.720740 -0.649929 
-0.496449 0.649419 0.529221 0.179457 -0.575410 0.762807 
1.609728 1.406962 1.520867 0.103985 -0.764699 0.632639 
-1.854129 2.077248 1.680992 -0.270989 -0.366091 0.885833 
-1.541735 1.230021 1.075305 0.294815 0.457543 -0.803522 
0.330567 0.827163 0.236375 0.924334 0.305873 -0.068268 
-1.411604 1.576438 1.451972 -0.104280 -0.746062 0.635236 
-0.498178 1.580306 1.363035 0.179547 -0.172478 0.905687 
-1.332562 0.642919 0.299000 -0.051374 -0.552363 0.826055 
-1.104431 -0.375836 0.080503 -0.139564 -0.348238 0.901890 
0.120853 1.267389 0.344623 0.525650 0.760549 0.288484 
-1.849396 2.342066 1.766108 -0.360696 -0.351045 0.862097 
-0.975390 0.279604 0.190373 -0.198130 -0.431895 0.844647 
-0.675900 -0.489331 0.063138 -0.042860 0.201813 -0.950876 
-1.130120 0.725321 0.411446 -0.124056 -0.586780 0.784867 
0.433943 0.224876 0.367575 0.459326 -0.290357 0.809157 
-0.860991 0.881503 0.640227 -0.249817 -0.657905 0.703405 
-0.508688 -0.646463 0.040381 -0.294122 -0.196003 0.924567 
-1.849021 0.752328 0.433168 -0.229085 -0.668497 0.696054 
-2.187509 1.549415 0.933735 0.490660 0.707989 -0.498184 
0.585736 0.039285 0.209565 0.254033 -0.386637 0.867147 
0.413491 0.367022 0.010093 0.467001 0.138516 -0.869820 
-0.226756 1.202089 0.605545 0.627413 0.472697 0.598786 
1.869859 1.389815 1.438920 -0.149889 0.714537 -0.673530 
-0.754312 -0.650952 0.048703 -0.019770 0.181715 -0.954747 
-1.949317 1.400626 0.980570 -0.559023 -0.404432 0.656489 
-1.503236 0.663507 0.283492 0.030995 0.577182 -0.797591 
1.147780 0.533819 0.378530 0.157691 0.604086 -0.748599 
-0.042233 0.449655 -0.141955 -0.392476 0.079760 -0.914146 
1.473407 0.569200 0.448459 0.065616 0.583846 -0.789874 
0.590938 0.616022 0.510830 -0.488214 -0.499270 0.702622 
1.371501 1.532701 1.671525 -0.000056 0.753473 -0.650752 
1.050808 0.972646 0.928505 0.178270 0.777714 -0.575673 
-1.027799 0.458561 0.233577 -0.176171 -0.505278 0.819243 
-0.654926 -0.130941 0.117828 -0.344076 -0.286607 0.868028 
2.203669 1.698610 1.541245 -0.329989 0.648395 -0.665154 
-1.449061 1.833543 1.588004 -0.161566 -0.405993 0.892438 
1.081624 0.533618 0.446034 0.095232 -0.668459 0.720062 
-1.358919 1.108734 0.991191 0.044629 0.716696 -0.646198 
-0.636457 0.267131 0.079340 -0.335234 0.245468 -0.871315 
-0.330045 -0.680033 -0.000148 -0.300268 -0.003543 -0.911708 
-0.807194 0.546064 0.188474 -0.175684 0.465081 -0.807328 
-0.179237 1.226007 0.446977 0.067414 0.897595 0.192434 
-1.528095 0.802564 0.560651 -0.141912 -0.643640 0.733371 
-0.691870 0.961203 0.736207 0.300438 -0.721410 0.600086 
0.385100 -0.510791 0.134391 0.401360 -0.259264 0.869492 
-0.113012 1.186675 0.495557 0.315617 0.650725 0.665806 
-1.450474 0.222493 0.189769 -0.067898 -0.462017 0.858292 
-1.392925 0.080331 0.168994 -0.037082 0.395389 -0.879755 
-1.709196 2.436080 1.847800 -0.031281 -0.030891 0.984886 
-2.158916 1.297215 0.627465 0.554084 0.553517 -0.607188 
1.187829 0.058581 0.257503 0.075785 0.384123 -0.890492 
0.132357 -0.454517 -0.064376 0.263233 -0.325012 -0.892597 
-0.830364 -0.510016 0.073120 -0.038594 0.207262 -0.944829 
-0.870336 0.701750 0.454356 0.205547 -0.553460 0.799214 
-2.241781 2.261181 1.555087 0.418142 0.338571 -0.834098 
1.285312 1.826317 1.959400 0.060559 -0.715950 0.685806 
0.352598 -1.423702 -0.049173 0.049113 -0.766646 -0.208885 
1.140489 1.217138 1.239522 0.081857 0.601635 -0.751176 
-0.273106 0.786607 0.000376 -0.641996 0.521873 -0.551385 
-1.175132 -0.069081 0.140226 -0.108950 -0.383790 0.885704 
-1.815556 1.131459 0.823167 -0.453284 -0.650121 0.489716 
-0.927917 1.076636 0.843205 -0.212339 0.749013 -0.582339 
1.071948 1.256425 1.274357 0.098993 0.625099 -0.703080 
0.721747 0.460191 0.417835 0.167643 -0.625226 0.738341 
-1.023217 1.320131 1.159482 -0.165947 0.602745 -0.695297 
0.269400 -0.200671 0.350072 0.482670 -0.282158 0.811578 
-1.301200 1.150221 1.025692 0.010478 0.689163 -0.661363 
-0.787263 0.820247 0.587795 0.230689 -0.644048 0.713482 
-1.188408 0.734960 0.372633 -0.105074 0.606060 -0.758454 
0.872865 0.905092 0.818451 0.245117 0.794708 -0.542451 
-0.188169 -0.858548 0.105215 -0.004376 -0.366787 0.914590 
1.478394 -0.070431 0.235116 -0.048472 0.463964 -0.865412 
1.092491 -0.126739 0.216450 0.070326 0.329408 -0.906262 
0.548131 -0.812324 0.040632 0.152625 -0.206784 0.959790 
0.352239 0.641609 0.027477 0.634330 0.344740 -0.624303 
-0.082144 0.775211 0.493614 -0.139321 -0.110824 0.968430 
-0.993434 1.370578 1.287308 -0.174339 -0.561724 0.776210 
-0.233607 0.502209 -0.071583 -0.504032 0.038892 -0.855813 
-0.247728 -0.673971 -0.002260 0.148536 -0.145110 -0.969132 
0.568309 0.931638 0.878651 -0.277168 -0.718347 0.507736 
-0.699665 0.134495 0.186288 -0.327254 -0.399251 0.824598 
1.987662 1.478790 1.513221 -0.209226 0.506550 -0.821568 
1.605545 0.891807 0.884040 0.041812 -0.781010 0.622407 
1.102091 -0.391183 0.151461 0.116983 -0.360228 0.903686 
1.372551 1.837987 1.957660 0.120323 -0.729846 0.666053 
-2.195739 1.241420 0.543539 -0.594246 -0.536783 0.576589 
-1.641312 1.126279 0.949467 0.356696 0.543207 -0.709674 
1.999125 1.065270 0.999935 -0.151478 0.673342 -0.711433 
-0.601511 -0.430183 0.072952 -0.290149 -0.241228 0.904771 
1.587337 1.094398 1.136247 -0.040369 -0.916151 0.368372 
1.544493 1.130574 1.182165 -0.068643 -0.942451 0.314173 
0.465408 -0.271004 0.131884 0.354164 -0.231901 0.899427 
1.374113 1.634352 1.738266 0.119860 -0.600056 0.783144 
0.613649 0.131999 0.237983 0.235959 -0.424993 0.855390 
-0.174555 0.225100 0.523552 -0.328123 -0.142898 0.921619 
1.661555 1.317255 1.403637 0.159776 -0.644738 0.716455 
-1.247395 1.070168 0.915665 -0.016966 0.735186 -0.624168 
0.325831 0.331078 0.442149 0.390874 -0.100601 0.903036 
0.574927 0.064945 0.107598 0.445650 0.165643 -0.838514 
-1.201126 2.024027 1.716081 0.201824 -0.263824 0.932126 
1.498381 0.135599 0.301745 0.061549 -0.456927 0.863927 
-1.063253 1.399241 1.290018 -0.281152 -0.543009 0.774684 
1.401455 1.217767 1.249044 0.064719 0.876862 -0.462357 
