-1.054601 2.075437 -0.134020 -0.956429 0.105142 0.226034 
-0.716598 1.441550 0.475395 0.720474 0.288389 -0.564858 
0.232482 0.449073 -0.019765 0.566324 0.036228 -0.814436 
-0.506911 0.385340 0.305909 -0.792830 -0.326768 0.447719 
1.688299 2.031325 -0.064557 0.717266 -0.616172 0.317410 
-0.186746 -0.657625 0.257967 -0.305317 -0.404521 0.860059 
-0.639314 -0.227805 -0.179200 -0.751423 -0.144950 0.606925 
0.529482 0.466635 0.464429 0.430519 -0.366917 0.811189 
-0.056292 -0.507907 0.000440 -0.064837 -0.419714 -0.897880 
-0.224695 -1.164380 0.025747 0.120922 -0.246847 0.766994 
1.559186 2.183245 0.574967 0.703387 -0.619074 0.345275 
-0.270459 0.381570 0.536123 -0.385255 -0.134990 0.901052 
-0.329359 0.022234 0.091478 -0.172797 0.107882 -0.969014 
-0.405431 3.375700 0.082092 -0.765880 0.490684 0.415256 
-0.498806 -0.443068 -0.040394 -0.770023 -0.119427 0.605057 
1.663294 2.258386 0.502825 -0.705322 0.577198 -0.389630 
-0.131477 -0.595933 0.035117 -0.041037 -0.147610 -0.979103 
-0.924144 1.289921 0.038020 -0.899135 -0.101911 0.397482 
-0.728678 2.846156 -0.002935 0.770502 -0.461624 -0.392207 
0.693707 0.185267 0.000122 0.768859 -0.227851 0.595331 
0.771615 1.666833 0.829105 -0.450978 0.821854 -0.321758 
-0.350707 -0.436671 0.161290 -0.778749 -0.218395 0.573237 
-0.529312 2.456649 0.666043 -0.693228 0.421278 0.575725 
-0.714191 2.050162 0.610006 -0.797135 0.354815 0.450898 
0.617728 0.727414 0.262373 -0.613712 0.390494 -0.234558 
1.437055 2.360442 1.080592 0.689443 -0.491965 0.519083 
0.567699 1.209398 0.744894 0.881145 -0.204544 0.398238 
1.214123 0.826719 -0.339025 0.692709 -0.140215 0.699221 
-0.909301 0.472413 -0.426470 -0.804460 -0.261614 0.468432 
-0.012131 -0.576808 0.029363 -0.436246 -0.269129 -0.828610 
0.469537 -0.008954 0.205470 0.749978 -0.263767 0.595133 
-0.778918 1.558080 0.463521 0.746616 0.209632 -0.561375 
0.144774 -0.252870 0.416102 0.165436 -0.269925 0.946839 
1.805966 2.652624 0.750896 -0.744683 0.564869 -0.343501 
0.408523 1.438610 1.129588 0.572052 -0.446225 0.633927 
1.429410 2.013224 0.509579 0.743393 -0.442671 0.443759 
1.499573 2.434331 1.061631 -0.686053 0.635109 -0.324688 
1.536856 1.894382 0.002233 0.628664 -0.713267 0.238038 
-0.088739 3.572047 0.375910 0.735693 -0.476992 -0.478454 
-0.394488 2.072470 1.019339 -0.625888 0.323248 0.681457 
-0.110087 0.152859 -0.092852 -0.537954 0.015955 -0.839194 
-0.673141 -0.652605 -0.207140 0.526517 -0.058014 -0.843894 
-0.636117 2.854481 0.258968 -0.642098 0.558616 0.516461 
-0.938956 2.118542 0.101264 0.903268 -0.223856 -0.337718 
-0.258713 0.168498 0.002138 -0.574748 -0.026751 -0.816535 
1.393906 2.443182 1.255529 -0.665836 0.573030 -0.475234 
0.084184 -0.107794 0.471666 0.134883 -0.277699 0.948986 
0.391446 0.562229 0.295907 0.395036 0.624437 -0.579315 
0.856171 -0.129799 -0.215140 0.590773 -0.085926 0.793940 
-0.617651 2.914204 0.219395 -0.662851 0.546315 0.497609 
-0.364643 -0.415358 0.066300 -0.005367 0.075128 -0.924350 
1.261561 0.972361 -0.356513 -0.643548 0.158358 -0.730915 
-0.273574 -0.254174 0.036421 -0.421767 -0.020619 -0.872748 
-0.910700 2.417099 -0.120215 0.934581 -0.210546 -0.258184 
1.757912 2.376595 0.470072 -0.727569 0.586059 -0.353966 
1.032348 2.065560 1.197207 -0.543888 0.700467 -0.445638 
0.629873 -0.804319 -0.121017 -0.475510 0.043113 -0.878215 
1.062735 0.202518 -0.312051 0.560902 -0.063817 0.812511 
-0.176463 -0.587476 0.291338 -0.262272 -0.380618 0.877265 
0.740147 0.247567 -0.026050 0.767003 -0.226196 0.598274 
0.945439 0.218964 -0.231565 0.659839 -0.127062 0.733210 
-0.719158 0.627349 -0.178374 0.547661 0.232076 -0.636575 
-0.505534 2.535180 0.652064 -0.703764 0.425864 0.560426 
-0.259038 3.078485 0.638621 -0.783762 0.433761 0.442902 
0.063691 -0.432332 0.363205 0.030314 -0.234117 0.970426 
-0.026405 0.348749 -0.132436 -0.494883 0.080619 -0.862739 
0.776548 1.897694 1.233224 -0.458749 0.748970 -0.449101 
0.656188 -0.368103 -0.090430 0.642728 -0.137321 0.743656 
-0.413904 -1.155042 -0.029599 -0.754473 0.196970 0.612044 
-0.127489 -0.030118 0.493090 -0.219902 -0.266791 0.934029 
-0.813829 1.629563 0.519009 -0.936383 0.006485 0.339756 
1.406296 1.306968 -0.421677 -0.693361 0.189169 -0.684004 
0.827888 1.850798 1.097935 -0.540059 0.689042 -0.473745 
0.417233 1.258506 0.945069 0.064336 -0.668107 0.571103 
0.558429 0.677254 0.209502 -0.081075 0.581120 -0.611194 
1.214733 2.387668 1.407049 -0.611644 0.601163 -0.506342 
-0.304320 3.301874 0.320226 0.710544 -0.480481 -0.499770 
-0.215274 0.472564 0.557517 -0.324155 -0.067569 0.931419 
0.886767 0.202558 -0.182681 -0.528943 0.144214 -0.798267 
1.001884 2.201917 1.451202 0.458393 -0.578157 0.662191 
-0.305387 0.070517 0.434657 -0.575612 -0.246946 0.741419 
0.541044 0.233922 0.025100 -0.024561 0.157333 -0.872007 
1.231356 2.112367 1.047122 0.586019 -0.525141 0.611877 
-0.985424 0.967802 -0.438573 0.817096 0.319155 -0.456728 
0.784745 0.504930 -0.063211 -0.357022 0.213550 -0.757096 
0.648651 0.954701 0.534061 0.700782 -0.412939 0.568853 
1.405963 1.951927 0.437247 0.774479 -0.336528 0.492582 
-1.110838 1.055599 -0.605455 0.813562 0.362354 -0.405697 
-0.907831 0.973697 -0.263607 0.825505 0.253693 -0.495020 
-0.245477 0.543538 0.536553 -0.351385 -0.048881 0.915602 
-0.248248 3.338387 0.374392 -0.768644 0.468204 0.433821 
0.209970 0.973765 0.140432 0.654191 0.414257 -0.628564 
-0.418540 -0.109891 0.041249 -0.014707 0.106419 -0.876717 
1.038059 1.793020 0.773961 -0.490418 0.816730 -0.243482 
-1.021476 1.452447 -0.009896 -0.892382 -0.068016 0.421239 
1.720810 2.530686 0.742847 0.741753 -0.484944 0.444443 
0.122303 -0.745252 0.221043 0.155943 -0.386754 0.904542 
0.916450 2.117217 1.400566 -0.640163 0.694536 -0.292414 
-0.767558 2.755574 -0.026088 0.799328 -0.426249 -0.363707 
0.791507 0.070165 -0.094500 0.695223 -0.191972 0.675119 
-0.429628 2.840341 0.585595 0.729335 -0.389328 -0.557256 
0.248277 -0.447580 0.330085 0.419316 -0.294998 0.835060 
-0.521006 2.310945 0.743056 -0.696229 0.434884 0.560777 
-0.086587 0.383609 -0.088180 -0.502134 0.071783 -0.856708 
1.265130 1.670733 0.158209 0.593005 -0.725423 0.254173 
-0.286819 -0.430400 0.059695 -0.308727 -0.004628 -0.898934 
1.140092 0.415915 -0.345274 0.589253 -0.073877 0.791341 
-0.783276 1.136582 0.102858 0.764074 0.318502 -0.516621 
-0.736814 2.893201 -0.096725 0.808892 -0.432987 -0.353270 
-0.488024 0.060103 -0.009198 0.113057 0.135146 -0.820791 
1.089107 2.132650 1.226517 -0.560330 0.676816 -0.470042 
0.633373 0.424121 0.215777 0.767843 -0.362648 0.524255 
0.302445 -0.571294 0.225191 0.665880 -0.288611 0.687424 
0.323901 -0.542970 0.072407 0.161880 0.039701 -0.931395 
1.164966 0.768436 -0.299331 0.701081 -0.157032 0.684858 
-0.574147 2.358032 0.655688 0.779454 -0.203392 -0.575313 
1.029375 1.413187 0.233364 -0.681372 0.519541 -0.497168 
0.231378 1.165182 0.673973 -0.516506 -0.052490 0.835896 
-0.474875 -0.368727 -0.002624 -0.802660 -0.135135 0.561088 
-0.596575 3.131801 -0.037018 -0.777100 0.474761 0.386505 
0.732405 0.141556 -0.039810 0.742457 -0.212074 0.625554 
-1.087541 1.877670 0.088590 -0.924834 0.037478 0.366752 
0.316008 0.715459 0.482158 0.626227 0.319362 0.668380 
-1.013678 1.573395 0.113548 -0.908415 -0.017551 0.400318 
-0.985378 1.057953 -0.284499 -0.869830 -0.239157 0.420332 
1.462042 2.347192 1.013396 -0.679570 0.674546 -0.258355 
1.217049 1.930526 0.721199 -0.578572 0.750867 -0.268185 
-0.836051 2.106107 0.370466 0.919123 0.022977 -0.377084 
0.633736 -0.255410 -0.052943 -0.440474 0.146935 -0.830755 
-0.447128 0.550763 0.161440 0.080277 0.395092 -0.720911 
-0.592515 0.529943 0.349082 -0.719796 -0.359817 0.521976 
-0.646592 0.016816 -0.133440 -0.795133 -0.166845 0.555287 
1.661065 1.951666 -0.168697 -0.697519 0.637248 -0.326705 
-0.433945 -0.678528 -0.004689 -0.750708 -0.093331 0.638657 
0.254231 0.047036 -0.004988 0.527058 -0.049369 -0.845796 
-0.946231 1.526727 0.158015 0.828035 0.135889 -0.479237 
-0.602545 2.580645 0.529834 -0.660666 0.400569 0.629600 
0.213508 -0.762103 0.043477 -0.061866 -0.027549 -0.984041 
-0.729453 0.700125 -0.186724 0.570443 0.242820 -0.632961 
-0.483285 0.643538 0.191721 0.152609 0.484252 -0.620929 
-0.625243 2.028849 0.715573 0.698958 -0.120614 -0.651146 
-0.699017 1.640261 0.728523 -0.946809 0.005519 0.312452 
-0.986367 1.588582 0.181265 -0.917339 -0.002931 0.385022 
-0.025094 0.982549 0.604463 -0.162050 -0.027464 0.982320 
0.734328 -0.018137 -0.069968 0.698999 -0.188743 0.673159 
0.198436 1.154487 0.304388 0.838000 0.501375 -0.177537 
-1.084788 2.169545 -0.502091 0.865422 -0.422656 -0.237563 
-0.621076 0.857995 0.142140 0.755428 0.471572 -0.450895 
0.547022 1.714653 1.227999 -0.391384 0.810922 -0.410109 
0.610416 1.281202 0.658077 -0.513307 0.590827 -0.605210 
0.309679 -0.416241 0.099152 0.285197 0.042193 -0.933977 
1.001369 0.348618 -0.262500 -0.526053 0.112402 -0.813255 
0.195678 0.879728 0.078744 0.602029 0.441596 -0.651568 
-0.147778 -1.006336 0.059337 -0.083042 -0.292425 0.950244 
-0.391246 -0.022332 0.058976 -0.057739 0.115534 -0.912908 
-0.183265 3.325767 0.492273 -0.769108 0.459478 0.441991 
1.430264 2.398365 1.143521 0.684862 -0.533439 0.485596 
1.714470 2.378574 0.558411 0.733553 -0.590701 0.327738 
-0.351709 0.457495 0.485950 -0.443204 -0.154412 0.868215 
0.519809 0.864698 0.560726 -0.829389 0.260785 -0.492379 
1.429763 2.615323 1.409267 0.724886 -0.613924 0.310308 
-0.318815 2.696712 0.824071 -0.759892 0.316376 0.558532 
-0.140090 3.396801 0.486877 -0.747854 0.467951 0.464645 
-1.217095 1.869967 -0.383559 -0.939654 0.211376 0.242073 
-0.612902 0.873777 0.325906 -0.662087 -0.298243 0.657780 
-0.584314 0.943018 0.328504 0.968480 0.103044 -0.087985 
0.529805 -0.436562 -0.014697 -0.301510 0.114917 -0.874184 
1.413701 1.678197 -0.126330 0.628723 -0.705785 0.278256 
0.032127 -0.368431 -0.085030 0.327093 -0.261529 -0.899441 
-0.127754 0.305619 -0.079731 -0.535743 0.034719 -0.840870 
0.321124 0.007645 0.038615 0.344021 0.036786 -0.904279 
0.771911 0.603902 -0.062420 -0.349780 0.226824 -0.775809 
0.465721 -0.424758 0.023159 -0.128908 0.097685 -0.895132 
-0.045306 -1.234123 0.052456 -0.500479 -0.590179 0.488090 
1.800998 2.864661 1.101109 -0.722823 0.561448 -0.398932 
1.544071 1.976672 0.160738 0.749389 -0.464156 0.410003 
1.425586 2.103978 0.664899 -0.671638 0.652716 -0.347972 
1.390290 2.168333 0.881523 0.678844 -0.675537 0.279166 
1.507434 2.367295 0.959242 -0.686040 0.687195 -0.220911 
-0.515333 2.131209 0.833600 -0.697964 0.449738 0.546119 
-0.655799 2.506013 0.486239 0.725307 -0.360013 -0.575058 
0.394148 1.573732 1.156921 -0.449124 0.749701 -0.472623 
0.670415 -0.181679 -0.065308 -0.482621 0.158434 -0.814966 
1.077698 1.376017 0.177102 0.732496 -0.470021 0.466388 
0.383233 0.273718 0.074950 0.171210 0.151793 -0.970491 
-0.400015 -1.073295 -0.014831 -0.717706 0.071017 0.661789 
-0.891069 2.221114 0.213406 -0.702444 0.556178 0.360335 
0.322406 -0.711708 0.002723 0.076694 -0.012512 -0.891511 
-0.337660 3.104923 0.484809 0.695204 -0.459434 -0.542562 
-0.732971 -0.021644 -0.276257 -0.764987 -0.184924 0.561939 
0.939288 0.959380 0.096987 0.799171 -0.241914 0.530681 
-0.222388 1.140082 0.664530 0.493041 -0.045199 0.819408 
0.924150 1.303814 0.290309 -0.649768 0.521948 -0.532195 
-0.234174 -0.110885 -0.010741 -0.573509 -0.058963 -0.814884 
-0.560400 0.454616 0.327931 -0.762583 -0.377940 0.466406 
-0.043520 0.596578 0.581619 -0.015395 0.311309 0.942362 
1.176622 1.973859 0.882305 -0.607186 0.666817 -0.418669 
1.834880 3.017282 1.259279 -0.714835 0.570936 -0.402297 
1.056562 0.501035 -0.276440 -0.559515 0.130285 -0.787779 
0.745881 0.604366 0.157982 0.785513 -0.332923 0.516741 
-0.438987 1.966404 0.992167 -0.732633 0.474868 0.482464 
-0.686014 1.544727 0.681281 -0.948442 -0.010027 0.306727 
-0.574779 2.889536 0.333104 -0.665608 0.527167 0.518735 
0.620484 1.214438 0.679516 0.867234 -0.220445 0.408981 
1.328680 2.367579 1.242568 -0.649792 0.597315 -0.466876 
-0.425101 3.240412 0.199824 0.766711 -0.460525 -0.438919 
-0.880790 2.385041 0.053242 -0.766962 0.495989 0.296283 
0.086972 1.278864 0.256016 0.673493 0.463328 -0.496599 
1.866523 2.611943 0.550812 0.766245 -0.534247 0.356052 
1.303909 1.370831 -0.313454 0.774186 -0.311506 0.549594 
0.833717 0.951293 0.168090 -0.635277 0.417941 -0.628498 
-0.875226 2.035556 0.302605 0.725256 -0.437566 -0.487626 
0.401624 -0.003894 0.326928 0.690972 -0.232658 0.681324 
-0.502966 0.042185 0.093822 -0.861968 -0.231080 0.435764 
-0.654656 -0.391216 -0.221887 0.536257 0.103667 -0.765419 
-0.749954 2.275573 0.454308 -0.806813 0.284218 0.509526 
-1.217584 1.585203 -0.261341 -0.899076 -0.158617 0.372168 
-0.756295 2.955836 -0.253902 0.876297 -0.380509 -0.285021 
0.073359 -0.094910 -0.098564 0.461918 -0.080888 -0.863917 
-0.939577 1.364711 0.074187 -0.903733 -0.077078 0.394290 
0.568721 1.733436 1.296816 0.439979 -0.545871 0.655291 
0.649673 0.260351 0.102429 0.768262 -0.285964 0.564600 
1.720537 2.942504 1.357116 0.718516 -0.583521 0.374806 
-0.496310 0.431426 0.393925 -0.634153 -0.315481 0.650572 
-0.101945 -0.375339 0.375167 -0.075327 -0.230252 0.965177 
-0.860289 2.292046 0.229818 -0.753980 0.483633 0.357346 
0.892831 0.897361 0.058553 -0.656035 0.380981 -0.633728 
0.891999 1.348996 0.359746 -0.636259 0.554933 -0.522770 
0.904261 0.703774 -0.108769 -0.526046 0.250573 -0.708113 
-0.914869 1.979228 0.349668 -0.916546 -0.097435 0.381962 
0.738058 1.894344 1.341841 0.568691 -0.619482 0.538419 
-0.766366 1.316926 0.292963 0.748447 0.312893 -0.515791 
-0.332958 3.348367 0.227641 -0.768647 0.478711 0.423033 
-0.731009 2.345703 0.427488 0.835532 -0.261982 -0.468581 
1.127802 2.331072 1.466954 0.491649 -0.537420 0.667292 
1.639854 2.530352 0.929707 -0.708927 0.633572 -0.282728 
-0.664749 2.778915 0.296246 -0.620245 0.571133 0.535480 
1.826676 2.938375 1.161052 -0.721843 0.566425 -0.395919 
0.409409 -0.722288 0.057181 0.638766 -0.170774 0.741251 
-0.077354 0.881396 0.017200 -0.491563 0.396997 -0.757125 
0.415923 -1.300658 -0.024768 0.863225 0.317041 -0.032128 
-0.499448 2.198529 0.800287 0.759659 -0.129890 -0.611840 
-0.757590 1.250167 0.332817 -0.938253 -0.065293 0.322991 
-0.747271 0.807225 -0.114364 0.712468 0.315875 -0.547262 
0.183574 1.215741 0.569449 -0.392862 0.756647 0.418267 
-0.159409 -0.110779 0.460383 -0.255345 -0.264975 0.917144 
-0.514888 1.717361 0.935990 0.677246 0.248053 -0.651348 
0.361512 0.706591 0.415670 0.843263 0.331036 0.337345 
1.671705 2.087371 0.101912 -0.693190 0.638697 -0.323591 
-0.676428 0.674037 0.104620 -0.902850 -0.262372 0.324093 
-0.607213 1.957207 0.762063 0.672586 -0.068653 -0.675934 
1.367186 1.252130 -0.394107 -0.694270 0.195973 -0.682074 
0.434238 1.395419 1.071349 0.667598 -0.386720 0.623664 
-0.516892 -0.502187 -0.077145 0.513020 0.109502 -0.807099 
-0.721040 1.778294 0.633083 0.675147 -0.020548 -0.628132 
1.482326 2.153588 0.673428 0.691945 -0.636039 0.335031 
0.938884 1.247633 0.235000 -0.657697 0.492275 -0.545598 
-0.590311 3.026272 0.122883 0.854294 -0.357329 -0.353948 
-0.501013 1.810961 0.981115 -0.913579 0.320112 0.222017 
0.834577 -0.374952 -0.212271 0.500365 -0.044854 0.858530 
0.515448 0.315957 0.326225 0.733591 -0.342042 0.572980 
-0.188715 3.122458 0.700041 -0.490178 0.477075 0.708216 
0.150458 1.111692 0.403527 0.703852 0.033412 0.629396 
0.402495 1.351774 0.918861 -0.828472 0.254589 -0.494368 
-0.021844 -0.185470 0.441043 -0.022469 -0.286808 0.954240 
0.477582 -0.327885 0.027599 -0.091145 0.102888 -0.886578 
0.483286 0.977570 0.679629 -0.856796 0.137156 -0.410963 
-1.041547 1.959818 0.106526 -0.938779 0.015594 0.327426 
-1.172762 1.372527 -0.361563 -0.887978 -0.232237 0.375759 
1.335876 0.922895 -0.430501 0.646291 -0.092511 0.748231 
0.338858 0.629680 0.513882 0.566008 0.349698 0.733651 
1.392479 2.513333 1.339557 -0.647979 0.551141 -0.520552 
-1.166982 1.677804 -0.100237 0.889478 0.083498 -0.418009 
1.308189 1.437504 -0.289189 -0.748779 0.355004 -0.554596 
-0.261535 0.208366 0.497539 -0.476606 -0.189101 0.816421 
-0.413205 0.153890 0.040803 -0.007633 0.141288 -0.907226 
0.466968 0.591704 0.230241 0.182527 0.563558 -0.642047 
-0.355543 3.144938 0.417977 -0.765349 0.452120 0.454310 
-0.427651 0.056925 0.032503 0.009987 0.129437 -0.882918 
1.634991 2.622085 1.069584 -0.707164 0.584166 -0.386465 
-0.524665 2.618175 0.594167 -0.695861 0.412040 0.580843 
0.946869 0.938894 0.020781 -0.675634 0.362009 -0.624125 
-0.712525 0.794468 0.169240 -0.940461 -0.158328 0.259082 
-0.326137 2.366706 0.948604 0.912746 -0.214258 -0.257315 
0.674007 0.739232 0.145663 -0.462381 0.517706 -0.638550 
1.459638 2.027917 0.447118 -0.608945 0.729464 -0.262818 
-0.831859 0.732928 -0.224096 -0.859216 -0.250841 0.443888 
-1.329488 1.508268 -0.542407 -0.896097 -0.295495 0.330258 
-0.288206 3.163647 0.498514 -0.781595 0.448770 0.431556 
-0.401277 0.626147 0.326152 -0.512681 0.186008 -0.256079 
-0.550522 2.966597 0.288648 -0.680249 0.523297 0.502065 
-0.168617 1.029480 0.592532 -0.230879 -0.359251 0.852690 
0.576501 0.473983 0.397283 0.554067 -0.392625 0.691307 
-0.468720 2.482864 0.719907 0.737983 -0.244501 -0.616111 
-0.729540 0.726752 0.013762 -0.893952 -0.258383 0.350502 
-0.588037 1.908377 0.827717 -0.859443 0.326014 0.338912 
-0.506907 -0.678866 -0.101131 0.467245 0.096348 -0.835669 
-0.449428 -0.512455 0.003549 -0.782417 -0.116827 0.592224 
-0.301565 0.417991 0.022280 -0.542424 0.021727 -0.797464 
-0.876867 1.489685 0.248958 0.795556 0.199271 -0.492398 
-0.505783 0.350150 -0.026427 0.164213 0.175927 -0.830451 
0.474667 0.400122 0.063214 0.021351 0.205063 -0.910395 
-1.304606 1.439179 -0.611120 0.872633 0.342586 -0.343182 
-0.651507 0.280405 -0.136842 0.486048 0.188644 -0.686682 
0.936086 2.037102 1.269283 0.698132 -0.547063 0.445387 
-1.079439 2.010722 -0.097270 -0.960677 0.079818 0.239093 
-0.933683 2.393161 -0.189087 0.929353 -0.234816 -0.251690 
0.153093 0.004735 0.501392 0.254735 -0.265333 0.926766 
-0.936043 0.928506 -0.313173 -0.861677 -0.268582 0.427406 
-0.560654 3.089381 0.110199 -0.721353 0.511873 0.444911 
1.069486 1.704570 0.673984 0.547143 -0.783721 0.270952 
-0.873880 1.613951 0.351098 0.790211 0.145893 -0.524221 
-0.518085 0.262145 0.212510 -0.867486 -0.319839 0.365879 
0.203606 -0.062926 -0.034025 0.533969 -0.051418 -0.839804 
-0.094756 -0.909790 0.127223 -0.129637 -0.320381 0.927596 
-1.100522 0.768949 -0.615622 0.762563 0.285474 -0.467704 
-0.772369 0.723221 -0.086632 -0.868332 -0.285405 0.396981 
0.141015 -0.090195 -0.071843 0.532821 -0.036575 -0.839691 
-0.095981 0.672772 0.553179 -0.075872 0.157417 0.972618 
1.108069 1.333719 0.052971 -0.708261 0.443773 -0.525301 
-1.127554 1.604736 -0.076958 -0.898747 -0.072571 0.402364 
1.610502 2.051552 0.159788 -0.665655 0.669663 -0.300936 
-1.138536 1.752670 0.016017 0.893570 0.019975 -0.431168 
0.732163 -0.251173 -0.151630 -0.423836 0.083285 -0.880299 
1.170435 0.558985 -0.356257 0.626763 -0.090063 0.764266 
-0.271001 -0.688966 0.036526 0.257623 -0.118356 -0.949778 
1.106107 0.754516 -0.254127 -0.639094 0.193532 -0.718439 
-0.184193 0.152833 -0.045410 -0.556436 -0.006448 -0.827744 
-0.375008 0.638852 0.468170 -0.604332 0.222848 0.690414 
1.516023 1.743289 -0.233862 -0.677859 0.649570 -0.342346 
0.183776 0.727671 -0.009871 0.509257 0.341844 -0.734012 
0.255439 -0.336895 0.351729 0.489651 -0.278001 0.772465 
0.276531 0.136075 0.475903 0.467412 -0.242500 0.819191 
-0.348913 -0.851948 0.084641 -0.600096 -0.193464 0.766468 
-0.836550 2.177732 0.388367 -0.768215 0.414156 0.472884 
0.116807 -1.017703 0.057397 0.046553 -0.288171 0.954942 
-0.269509 0.901916 0.196653 -0.794633 0.389093 -0.392724 
-0.593617 2.263510 0.700589 -0.832494 0.236388 0.491675 
0.199193 0.198622 -0.041340 0.510392 -0.008248 -0.857482 
0.971704 -0.021530 -0.271951 -0.529496 0.062893 -0.836648 
1.667378 2.322707 0.581358 0.724312 -0.607947 0.316131 
-1.028857 1.093390 -0.334805 -0.872194 -0.257217 0.408057 
0.835592 0.634753 -0.084135 -0.433031 0.235785 -0.741314 
-0.546089 1.798014 0.927577 -0.880623 0.351389 0.267204 
-0.009174 1.206714 0.170164 -0.488362 0.310627 -0.785179 
-0.612859 0.552116 0.178706 -0.889934 -0.305784 0.324663 
-1.188291 1.511781 -0.284279 0.878381 0.190479 -0.404752 
1.371039 1.008547 -0.445994 0.654133 -0.094743 0.742197 
0.767659 1.788962 1.139248 0.670488 -0.484279 0.543864 
0.988626 1.596368 0.439167 -0.644966 0.560649 -0.500662 
0.539259 1.668944 1.140425 -0.485935 0.743252 -0.450427 
0.735535 0.824971 0.165533 -0.576354 0.562516 -0.591825 
-1.007580 2.152610 0.015797 -0.825409 0.484995 0.273009 
0.444902 0.435973 0.121792 0.081910 0.306318 -0.845733 
1.516597 2.624761 1.267913 -0.667339 0.546478 -0.495343 
0.849649 1.168095 0.350551 0.810495 -0.273331 0.468947 
0.729427 1.289998 0.519163 -0.569248 0.574401 -0.570372 
-0.580063 2.051605 0.782465 -0.885719 0.269855 0.331051 
0.673683 0.316530 -0.020753 -0.199626 0.178628 -0.802208 
-0.847890 2.453282 0.035231 0.916319 -0.242712 -0.298453 
-0.343369 -0.269158 0.316868 -0.730230 -0.260890 0.628747 
-1.087260 1.530414 -0.066152 -0.894516 -0.077555 0.411605 
1.139230 2.231920 1.304756 0.666671 -0.601434 0.429557 
-0.923371 1.870862 0.372763 -0.919956 -0.039821 0.378506 
0.300441 -0.644022 0.200593 0.600355 -0.285437 0.724977 
-0.357409 3.376082 0.157898 0.749501 -0.485713 -0.443209 
-0.669818 2.601326 0.404764 0.691898 -0.442711 -0.552448 
1.281202 1.932340 0.656652 0.708363 -0.498950 0.443153 
-0.588446 0.928845 0.259331 0.856264 0.303520 -0.331814 
1.104801 1.097134 -0.063232 0.758240 -0.341513 0.537147 
-0.692864 0.893435 0.211048 -0.951011 -0.146847 0.267860 
-0.179579 3.195839 0.645271 -0.599948 0.479697 0.624547 
-0.597631 -0.407091 -0.175730 0.521462 0.138943 -0.768851 
-0.815301 0.830714 -0.121847 -0.887132 -0.239566 0.382838 
-0.911318 1.793215 0.372109 0.780731 -0.041108 -0.537517 
1.075494 1.769337 0.620084 -0.505232 0.822056 -0.235615 
-1.183974 1.933405 -0.383346 -0.936980 0.219579 0.234397 
-0.749532 0.283394 -0.210956 -0.802723 -0.195617 0.531641 
0.667089 -0.747063 -0.138199 0.534243 0.014321 0.819470 
-0.171958 1.184513 0.275196 -0.780228 0.537230 -0.272694 
-0.787386 2.866707 -0.249917 0.891162 -0.357592 -0.270572 
0.858122 0.743387 -0.042013 -0.526013 0.321371 -0.692858 
-0.592513 1.664981 0.918870 -0.955809 -0.002936 0.288192 
-0.366615 -0.147036 0.078107 -0.108684 0.096514 -0.926330 
0.332323 0.815145 0.361056 0.889125 0.342329 0.183963 
0.919293 0.279885 -0.175646 0.689286 -0.169405 0.689813 
-0.706127 2.953916 -0.063926 0.780857 -0.464376 -0.381149 
-0.186040 0.402041 0.580630 -0.307153 -0.077898 0.943308 
1.634389 2.205075 0.455106 -0.688518 0.635438 -0.334110 
-1.111934 1.519843 -0.142344 0.875275 0.124186 -0.434108 
0.240382 1.049491 0.257816 0.834933 0.417351 -0.292100 
-0.331842 2.772709 0.739378 0.725828 -0.351209 -0.585553 
0.961605 0.486567 -0.178494 -0.607159 0.199749 -0.732915 
-0.179144 3.523969 0.286034 0.730654 -0.485554 -0.473859 
-0.772627 1.622645 0.586306 -0.940175 0.004422 0.329665 
0.614266 0.543833 0.397004 0.552785 -0.367832 0.691921 
-0.561261 2.496593 0.616563 0.780511 -0.247463 -0.567373 
-0.657887 0.621896 -0.136014 0.442897 0.225981 -0.699411 
-0.951600 0.623686 -0.467088 0.729023 0.293961 -0.515309 
1.308438 1.750019 0.242624 0.504578 -0.835459 0.135957 
-0.851122 0.303459 -0.378733 -0.790654 -0.236230 0.499779 
1.049255 1.304729 0.137120 -0.693671 0.466107 -0.523615 
-0.551649 1.855524 0.870771 0.603260 -0.020043 -0.748220 
1.500482 2.135654 0.603833 0.696090 -0.616839 0.359636 
-0.748130 0.976957 0.024029 0.753351 0.366283 -0.526294 
1.722120 2.604345 0.864307 -0.725484 0.599781 -0.315565 
0.532433 1.213145 0.810128 0.793935 -0.239338 0.515530 
-0.719347 2.573176 0.340598 -0.907958 0.238085 0.333831 
-0.673084 1.954189 0.702571 -0.817801 0.372949 0.387268 
-0.836885 0.382243 -0.351414 0.687486 0.247637 -0.584524 
-0.947789 0.260360 -0.469778 -0.687315 -0.155360 0.585937 
-0.482004 2.948945 0.427536 0.778723 -0.394341 -0.468229 
-1.091823 1.130339 -0.474599 -0.868134 -0.310863 0.375378 
0.504160 0.697071 0.477906 -0.696606 0.528979 -0.382462 
0.383120 0.407517 0.160437 0.295632 0.349392 -0.823962 
-0.126065 0.221754 -0.083321 -0.540735 0.020898 -0.838068 
-1.092227 1.922053 -0.000464 -0.938210 0.060901 0.315947 
0.396878 -0.095806 0.289214 0.702893 -0.232784 0.668427 
1.214221 2.181527 1.152380 -0.609261 0.666962 -0.420962 
-0.150430 3.264572 0.595573 0.817600 -0.404684 -0.385004 
0.835416 0.777403 0.021376 -0.559240 0.398245 -0.659423 
-1.077137 1.690912 0.069990 0.885491 0.005788 -0.452388 
-0.099213 0.072125 -0.098996 -0.536652 0.007790 -0.839302 
0.804141 1.612957 0.865279 0.660599 -0.573250 0.347014 
-0.483467 0.448462 -0.012721 0.133285 0.187272 -0.863027 
1.586709 2.331386 0.743129 -0.699043 0.445663 -0.527888 
0.642319 0.610985 0.361298 0.449956 -0.368759 0.786928 
0.709731 -0.367540 -0.146511 0.610994 -0.101156 0.781454 
-0.845477 0.800835 -0.209419 -0.860281 -0.270007 0.429551 
-0.141060 0.245412 0.571154 -0.268308 -0.156588 0.943954 
-0.277132 0.944854 0.253369 -0.850508 0.363283 -0.277703 
1.548828 2.610670 1.199192 -0.682988 0.558484 -0.461674 
-1.157169 1.024820 -0.676536 0.798018 0.367881 -0.398049 
-0.374268 0.636919 0.220174 -0.865635 0.100980 -0.368764 
1.053370 0.771738 -0.192189 -0.676280 0.242330 -0.677908 
0.714820 1.641140 0.914657 -0.312515 0.821420 -0.368517 
1.707349 2.792247 1.163093 -0.702638 0.553667 -0.435975 
-0.047846 -0.906039 0.029051 -0.213237 -0.042131 -0.961234 
0.169316 1.061156 0.492399 0.677280 0.609225 -0.049444 
-0.623410 -0.331296 -0.196783 0.536780 0.150263 -0.750284 
-0.971686 0.564001 -0.510737 0.707968 0.297763 -0.517451 
0.738216 1.537068 0.748629 0.766655 -0.481859 0.314570 
-1.181093 1.295160 -0.443862 -0.884293 -0.279765 0.369078 
1.655353 2.595840 0.999345 -0.709358 0.615797 -0.319383 
1.012364 1.541599 0.368067 0.738485 -0.512455 0.416307 
-0.346767 -0.699693 0.127945 -0.684439 -0.204683 0.689831 
0.266732 -0.707121 0.190599 0.433621 -0.319494 0.801285 
1.376628 2.081145 0.715493 -0.664761 0.650171 -0.357896 
-0.938080 1.117109 -0.143899 -0.875495 -0.174894 0.428718 
0.582108 1.525423 0.968503 0.770531 -0.470979 0.246446 
-1.206523 1.799623 -0.241924 0.899449 -0.207389 -0.335750 
1.211222 2.255414 1.241012 -0.603777 0.634397 -0.477152 
-0.750111 0.592718 -0.122782 -0.860844 -0.260622 0.430118 
0.177679 -0.487967 0.334035 0.212468 -0.322679 0.911896 
1.444427 2.217527 0.866631 0.689616 -0.672472 0.261452 
1.236244 2.435247 1.469575 0.572950 -0.541673 0.597492 
1.200056 1.869702 0.631888 -0.534563 0.801543 -0.215943 
-0.022974 1.213815 0.497326 0.024625 0.696699 0.698787 
0.239024 0.185992 0.509958 0.406038 -0.204476 0.861359 
0.823860 1.476762 0.525708 -0.583819 0.586903 -0.532236 
0.403108 0.007299 0.077581 0.170253 0.115016 -0.928859 
0.494267 0.546339 0.490154 0.216744 -0.477151 0.825546 
0.328971 -0.344879 0.110258 0.277894 0.062025 -0.937250 
0.041721 0.271320 -0.138979 0.494903 0.051686 -0.866684 
0.358395 -1.247273 0.008516 0.471892 0.041267 0.729146 
-0.755755 2.816069 -0.063527 0.806755 -0.426372 -0.355874 
0.145161 0.228581 0.566475 0.260229 -0.168166 0.944658 
-0.481420 2.267378 0.792024 0.749504 -0.157932 -0.618385 
-0.301227 -0.289635 0.103896 -0.260025 0.052413 -0.951994 
-0.147322 0.521730 0.588768 -0.260057 -0.007970 0.963832 
1.242939 1.029096 -0.298601 0.733539 -0.191474 0.642205 
-0.798539 1.238495 0.241191 -0.926156 -0.082809 0.344350 
-0.064306 0.748457 0.541705 -0.090475 -0.046613 0.983940 
1.136541 1.108127 -0.125597 0.763856 -0.322712 0.546326 
-0.099139 1.087926 0.145704 -0.429571 0.455525 -0.762546 
0.880017 0.836590 0.099001 0.814822 -0.263778 0.510512 
0.197104 -0.284061 -0.032866 0.547603 -0.090227 -0.827060 
-0.687376 0.558719 -0.155272 0.488577 0.220015 -0.662811 
-0.427852 3.187260 0.257403 -0.747957 0.472866 0.459849 
-1.111850 1.969087 -0.148507 -0.955203 0.104168 0.245801 
1.329359 2.040792 0.770380 0.666904 -0.650591 0.361545 
-0.084188 0.565468 -0.065116 -0.450360 0.112580 -0.864280 
0.215306 0.058590 0.487946 0.385773 -0.261015 0.859796 
-0.165586 3.591455 0.236729 0.745079 -0.488008 -0.453632 
0.237473 1.082364 0.353954 0.887634 0.419486 -0.019444 
-1.167188 1.873242 -0.219312 0.859457 -0.321723 -0.321729 
0.863423 -0.306216 -0.224973 -0.501887 0.050649 -0.857566 
0.718647 1.599294 0.815700 -0.516229 0.576897 -0.607996 
1.228533 1.342986 -0.168891 0.762118 -0.355845 0.527411 
0.346910 0.728476 0.224837 0.902523 0.321705 -0.248711 
-0.998345 1.874036 0.228735 0.795354 -0.213040 -0.496436 
-0.999789 1.246790 -0.185137 0.849903 0.180742 -0.468412 
-0.600126 2.177235 0.694239 0.669732 -0.188556 -0.670268 
-0.093050 -0.803604 0.191800 -0.173418 -0.357539 0.906906 
0.618379 0.725692 0.189494 -0.263142 0.578328 -0.602065 
-0.173656 0.068829 -0.051305 -0.555276 -0.015179 -0.827736 
0.474737 0.504705 0.149312 0.045546 0.388505 -0.776364 
1.079462 1.480081 0.216079 -0.695688 0.524481 -0.476697 
0.644044 0.401199 -0.014022 -0.169856 0.188654 -0.829336 
-0.943787 2.189245 0.104873 -0.623595 0.691315 0.301806 
-0.278098 3.377162 0.285004 -0.765332 0.476641 0.430772 
-0.032407 1.123850 0.136309 -0.350429 0.403796 -0.836900 
-0.518381 0.182597 -0.032241 0.173597 0.154368 -0.801233 
0.456804 0.334324 0.395745 0.604873 -0.247956 0.722752 
-0.591354 1.184780 0.481753 0.668635 0.457106 -0.565948 
-0.340767 -0.609943 0.150812 -0.716134 -0.218263 0.651232 
0.138720 0.869159 0.564004 0.260257 -0.201491 0.943124 
1.261338 1.873414 0.581153 0.735131 -0.406667 0.491323 
-0.230537 3.519984 0.208795 -0.751385 0.490669 0.439995 
-0.831436 1.633523 0.435873 0.769350 0.153786 -0.552484 
0.855203 0.152130 -0.143495 0.686126 -0.172522 0.691224 
0.829165 0.086526 -0.155285 -0.512297 0.142961 -0.807711 
-0.463141 -0.181220 0.038942 -0.855921 -0.166577 0.486716 
0.656915 1.723558 1.169467 0.708872 -0.466498 0.513132 
0.236262 -0.136339 -0.012747 0.542383 -0.073174 -0.833979 
-0.611748 2.825065 0.335233 0.872778 -0.292838 -0.369393 
0.132403 0.643025 -0.047803 0.457021 0.169352 -0.840598 
-0.168081 1.209537 0.347488 -0.710316 0.663919 -0.118323 
-0.292663 3.460476 0.172222 0.751307 -0.487000 -0.442034 
-0.930124 2.337947 -0.092057 0.939292 -0.181130 -0.261835 
-0.450484 -0.039378 0.018105 0.044067 0.118663 -0.850370 
1.137681 1.818507 0.644823 -0.493314 0.840659 -0.176703 
0.078879 -0.832857 0.032696 0.092172 -0.069006 -0.978806 
-0.500369 -0.061339 -0.027950 0.212694 0.130252 -0.811477 
0.072904 0.309634 0.593966 0.165389 -0.117087 0.971956 
-0.597763 1.797784 0.869748 -0.829637 0.402937 0.332761 
0.518763 0.018646 0.148510 0.767165 -0.270088 0.572287 
-0.638869 0.621002 0.159588 -0.902831 -0.275541 0.314036 
0.894564 1.763076 0.913774 -0.454623 0.749695 -0.408618 
-0.242834 0.094974 -0.007283 -0.572072 -0.032380 -0.817557 
-0.055177 0.477287 -0.087302 -0.466876 0.110471 -0.872724 
1.551695 2.140968 0.490453 -0.664813 0.662973 -0.318042 
0.615455 0.791825 0.390359 0.611268 -0.363611 0.674767 
-0.331142 0.730121 0.459570 -0.687785 0.355865 0.575643 
0.257865 1.466995 1.287120 0.277037 -0.882906 0.321230 
1.774702 2.985412 1.320055 -0.700091 0.566710 -0.428045 
1.103245 1.980975 1.012557 -0.553927 0.622798 -0.535210 
0.379365 0.516592 0.484596 0.505492 -0.055958 0.844711 
-0.649462 0.798602 0.074957 0.691511 0.386379 -0.538355 
-0.767603 1.062298 0.145235 -0.913902 -0.143019 0.354478 
0.188241 1.187776 0.409048 0.697236 0.684066 0.010639 
-1.116485 1.147419 -0.580488 0.837541 0.361894 -0.394328 
-1.028288 1.644917 0.116380 0.863429 0.052638 -0.462082 
-0.132816 1.012870 0.118039 -0.542244 0.436418 -0.701488 
0.263421 1.018177 0.332976 0.900005 0.379563 -0.041667 
-0.836936 2.522665 -0.011955 0.912262 -0.272178 -0.291376 
-0.607590 0.609331 -0.070814 0.392718 0.239849 -0.723029 
-1.005708 1.147578 -0.244946 -0.874527 -0.209346 0.418351 
-0.690724 2.643512 0.338978 0.692359 -0.477898 -0.516455 
-0.851657 1.458474 0.327061 -0.933731 -0.019933 0.344191 
-0.668276 2.959211 0.028327 0.878277 -0.338377 -0.323583 
-0.913764 0.144877 -0.437045 -0.667570 -0.126847 0.618264 
1.072711 0.967363 -0.080528 0.763093 -0.309302 0.554473 
0.953301 1.063075 0.144362 0.788326 -0.288036 0.510884 
-0.444668 -0.061265 0.161150 -0.852004 -0.225558 0.452290 
0.557791 0.828983 0.478760 -0.829329 0.242975 -0.486137 
1.556907 2.425920 0.948946 0.711041 -0.446661 0.529982 
-0.594519 0.605980 0.353788 -0.581405 -0.366865 0.716874 
0.282171 -0.932359 0.079224 0.211363 -0.290820 0.910528 
-0.129186 -0.303542 0.401162 -0.129476 -0.273346 0.952871 
-0.149019 1.112209 0.483500 -0.877062 0.145596 -0.030091 
0.893890 0.560217 -0.106824 -0.533441 0.234444 -0.704951 
-0.834064 2.421008 0.113772 0.911349 -0.239585 -0.317044 
1.068235 1.540414 0.294740 0.724215 -0.526633 0.429118 
-0.744515 2.768731 0.042248 0.762375 -0.460252 -0.400845 
1.606196 2.537471 1.009290 -0.701871 0.627232 -0.310676 
-0.767878 1.116214 0.192824 -0.920064 -0.121704 0.346957 
-0.754901 1.868966 0.558079 0.653890 -0.217528 -0.612439 
1.412320 1.942137 0.362378 -0.576619 0.769394 -0.228204 
-0.324039 -1.071125 -0.001561 0.251387 0.097347 -0.958151 
-0.572500 0.674662 0.357937 -0.524695 -0.363549 0.754187 
0.517329 0.166418 0.035096 0.011520 0.145966 -0.878590 
1.446107 2.285784 0.925853 -0.707150 0.562245 -0.417418 
0.221255 -0.523185 0.039629 -0.078078 -0.207362 -0.928061 
-0.575093 2.754622 0.444999 0.826106 -0.307408 -0.447830 
1.730586 2.448908 0.611382 -0.728924 0.511200 -0.426483 
-0.086524 0.941435 0.063807 -0.475829 0.492881 -0.704139 
-0.728321 2.085688 0.550315 0.812078 -0.075375 -0.520690 
1.560512 2.021633 0.224761 0.747938 -0.474743 0.405880 
1.492454 1.827468 -0.023507 0.623269 -0.716512 0.244853 
0.624781 1.306766 0.729368 0.858020 -0.276926 0.386878 
-0.746357 1.400881 0.395067 0.735934 0.295314 -0.537989 
-0.244916 3.249561 0.469602 0.675616 -0.475973 -0.550735 
0.752419 0.474443 0.079799 0.769088 -0.308320 0.553371 
-0.264465 0.680463 -0.011780 -0.628563 0.185028 -0.728061 
1.485567 2.560864 1.250368 0.707012 -0.590002 0.382300 
0.672665 1.240876 0.556239 -0.550018 0.575855 -0.589610 
0.386624 0.333425 0.459062 0.500256 -0.175342 0.832590 
-0.248262 2.837360 0.807667 0.877434 -0.305088 -0.360108 
-1.052944 1.296662 -0.235010 0.856118 0.196914 -0.449692 
-0.230123 3.421577 0.312499 0.719097 -0.482964 -0.489202 
-1.186953 1.814146 -0.172525 -0.926082 0.137507 0.321403 
-1.132204 1.203197 -0.508700 0.847700 0.328260 -0.403199 
0.351718 1.470945 1.064974 -0.828228 0.226111 -0.457040 
0.662105 0.391793 0.158273 0.768208 -0.331491 0.540757 
0.238486 -0.874985 0.127240 0.178940 -0.331430 0.921008 
1.704406 2.704723 1.055823 -0.717741 0.567864 -0.399061 
-1.003094 1.304091 -0.140438 0.854249 0.152465 -0.468924 
-0.773532 1.554298 0.534578 -0.940412 -0.006462 0.328022 
0.602240 0.130077 0.095425 0.767927 -0.262888 0.576482 
0.199731 1.041164 0.585885 0.347372 -0.437886 0.741666 
1.162531 2.285389 1.366204 0.641748 -0.648420 0.405533 
-0.300579 0.801629 0.175177 -0.782706 0.396177 -0.401024 
-1.015756 1.369246 -0.105334 0.859621 0.127534 -0.466112 
-0.637517 1.446182 0.694175 -0.953327 -0.026879 0.292388 
0.070578 -0.808022 0.194952 0.209619 -0.342578 0.900056 
0.724041 0.977740 0.320186 -0.594901 0.480520 -0.628076 
0.574309 0.491280 0.037931 -0.123250 0.238306 -0.852198 
-0.575546 0.476188 0.219622 -0.880604 -0.334132 0.327384 
-0.542420 1.035497 0.440006 0.949722 0.084986 -0.242803 
-0.707679 2.857142 0.075234 -0.911601 0.289377 0.274333 
-0.634666 1.540868 0.768642 -0.953145 -0.011838 0.294280 
0.390936 -0.179119 0.259219 0.712360 -0.234389 0.657705 
-0.770970 2.861791 -0.178744 -0.896680 0.348338 0.261160 
-0.831698 1.155388 0.033119 0.787034 0.275041 -0.507584 
-0.079154 1.066903 0.580683 0.083186 0.119527 0.940768 
1.029261 0.909241 -0.100137 -0.706031 0.312819 -0.626222 
0.080678 0.752158 -0.029303 0.456559 0.352508 -0.773594 
-0.873507 0.640675 -0.313524 -0.831781 -0.249671 0.465073 
1.083126 2.189845 1.311250 -0.569358 0.662707 -0.484536 
-0.582503 1.204597 0.659927 -0.684254 -0.407996 0.534142 
1.630266 2.866600 1.406061 0.607454 -0.488101 0.573605 
0.328254 -0.822887 0.116215 0.524482 -0.240852 0.797967 
-0.268546 -0.347267 0.047343 -0.429054 -0.028510 -0.876535 
-1.243183 1.550529 -0.347032 0.883868 0.214071 -0.385025 
0.469530 1.429344 0.925503 -0.420790 0.632792 -0.637198 
0.178212 -1.033213 0.024254 -0.089040 -0.025154 -0.985426 
-0.513613 1.237782 0.613897 0.832160 0.299745 -0.418000 
-0.669694 1.405719 0.524539 0.699197 0.323679 -0.581054 
-0.508005 3.271895 -0.020341 0.801228 -0.454293 -0.378561 
0.152159 0.348716 0.596449 0.265332 -0.085785 0.958370 
-1.210813 1.178054 -0.725278 0.826089 0.397218 -0.358224 
-0.747687 1.187444 0.211476 0.744566 0.343252 -0.521884 
-0.862445 1.922091 0.396076 0.693230 -0.327310 -0.561444 
-0.375039 2.007191 1.042627 -0.303268 0.319099 0.859723 
0.635412 1.389642 0.698131 -0.507379 0.602517 -0.591672 
0.991792 1.441814 0.298518 -0.666766 0.548174 -0.492344 
0.051136 1.235447 0.206993 0.504302 0.268096 -0.809553 
0.734131 0.407239 -0.043459 -0.284220 0.195939 -0.776332 
-1.071299 1.052396 -0.547227 0.821477 0.349770 -0.418362 
0.824757 1.874965 1.177605 0.695971 -0.493044 0.505531 
-0.679646 -0.262101 -0.250389 0.552901 0.148899 -0.729926 
0.319452 -0.457545 0.274807 0.687776 -0.283872 0.667373 
-1.279081 1.642132 -0.387821 -0.908947 -0.075573 0.328275 
-0.260496 0.926222 0.469306 -0.808641 0.049795 0.541681 
1.124843 2.043944 1.071138 -0.581034 0.681873 -0.434410 
0.810407 0.827273 0.103126 -0.606872 0.493883 -0.615818 
0.783849 1.019105 0.343791 0.838925 -0.183262 0.488910 
0.711958 1.810844 1.186626 -0.440655 0.780249 -0.413037 
0.581375 -0.722753 -0.091425 0.563449 -0.084232 0.816938 
1.409072 1.872850 0.255408 0.773344 -0.350420 0.478376 
0.671947 0.766210 0.220677 -0.727570 0.333192 -0.215595 
-0.468990 1.521102 0.897073 0.795295 0.354635 -0.459105 
-0.489753 1.049568 0.645156 -0.735116 -0.337193 0.529716 
0.488424 -0.127836 0.044544 0.021844 0.109911 -0.873496 
-1.096401 1.325751 -0.286089 0.860346 0.216448 -0.434026 
0.317403 -0.892760 0.018332 -0.268098 0.000109 -0.957524 
-0.817505 1.953184 0.446480 0.652543 -0.398487 -0.583015 
0.017713 0.411340 -0.124840 0.452948 0.103906 -0.882954 
1.495661 1.793198 -0.101692 -0.691656 0.611642 -0.370001 
-0.579473 0.742448 0.335037 -0.556333 -0.321803 0.736167 
0.454789 -0.756471 -0.009171 0.635670 -0.124533 0.755063 
-1.243195 1.783414 -0.341785 0.910346 -0.227242 -0.309899 
-0.650971 0.682784 -0.069683 0.510751 0.274879 -0.656261 
-0.894353 0.218319 -0.432136 0.657043 0.193659 -0.609526 
0.090375 -0.428333 -0.039331 0.293994 -0.297787 -0.895937 
1.557332 1.874774 -0.080203 0.655930 -0.684580 0.270056 
-0.542838 0.371630 0.229306 -0.869003 -0.348165 0.345026 
-0.478619 1.384059 0.767816 0.877673 0.264476 -0.379344 
0.411245 -0.264250 0.161175 0.743572 -0.212038 0.631179 
-0.525017 -0.380900 -0.073876 0.475627 0.118376 -0.797522 
-0.324358 -0.023799 0.400195 -0.633759 -0.251856 0.701564 
-0.714593 0.894412 0.142499 -0.935971 -0.169401 0.299138 
-0.697755 2.330401 0.504501 0.793498 -0.267609 -0.536490 
-0.866719 1.553265 0.315802 0.788668 0.176811 -0.512244 
0.499878 0.223959 0.296537 0.736796 -0.318657 0.582082 
-0.928090 2.459771 -0.261423 0.921207 -0.280417 -0.243842 
0.241156 0.988131 0.215572 0.755259 0.372639 -0.446661 
-0.062300 -0.321210 -0.078237 -0.386007 -0.207087 -0.880309 
1.029780 1.715639 0.611817 -0.650106 0.495848 -0.573951 
-0.177181 1.224622 0.532870 0.302086 0.884107 0.294073 
0.465089 1.606249 1.146022 -0.374090 0.726519 -0.540767 
-1.289331 1.449677 -0.517525 -0.892734 -0.292083 0.340459 
-0.739391 0.865849 0.071050 -0.928277 -0.186729 0.311002 
1.678827 2.521625 0.826190 0.732097 -0.479001 0.465426 
-0.007778 -0.827114 0.201631 -0.495911 -0.269549 0.816354 
1.401409 2.039664 0.584843 -0.632481 0.699945 -0.302457 
-0.858208 1.683505 0.480630 -0.932082 0.016125 0.351891 
0.917311 1.557093 0.464316 -0.615568 0.584433 -0.500595 
1.074213 1.154364 0.040302 0.748232 -0.385228 0.513621 
-0.365315 -1.181898 0.014964 -0.269018 -0.108533 0.868009 
-0.803949 -0.032273 -0.350760 0.610208 0.148400 -0.674397 
0.722741 0.965382 0.391705 0.857843 -0.151156 0.481989 
-0.569067 1.499089 0.761936 0.648288 0.320675 -0.660353 
0.114703 1.200837 0.210832 0.579825 0.422412 -0.654633 
1.646335 2.778330 1.250991 -0.685464 0.550354 -0.464520 
0.044278 1.111952 0.136351 0.358286 0.422758 -0.821434 
1.576079 2.699982 1.263177 -0.673226 0.543248 -0.489124 
0.989735 2.149743 1.399085 0.613175 -0.661749 0.424555 
-0.245816 -0.926103 0.093150 -0.167882 -0.316014 0.931521 
1.475638 2.072739 0.531206 0.727521 -0.509109 0.409318 
-1.005170 1.715922 0.246274 -0.918521 0.024718 0.388095 
0.880006 1.669601 0.730792 -0.585151 0.528763 -0.599074 
-0.515442 2.376922 0.712543 0.762406 -0.200832 -0.596158 
0.776004 -0.539253 -0.187170 -0.479967 0.040392 -0.874466 
-1.092876 2.040281 -0.253191 0.817649 -0.462448 -0.289514 
-0.897237 1.677347 0.407559 -0.928550 0.016051 0.361104 
-0.082855 0.455080 0.594495 -0.166584 -0.019406 0.974677 
1.360963 1.890778 0.361727 -0.553108 0.797128 -0.207157 
-1.118727 1.838297 0.038177 -0.919760 0.061179 0.372500 
-0.664889 0.958032 0.314560 -0.957069 -0.117399 0.261472 
-0.728406 0.629510 -0.043456 -0.863496 -0.297769 0.398831 
1.311383 1.059128 -0.373225 0.707982 -0.149485 0.682090 
0.908714 1.865837 1.105460 0.633845 -0.614313 0.463944 
0.530666 1.511799 0.904761 -0.436601 0.635423 -0.614753 
-0.883123 0.376284 -0.411164 -0.795603 -0.249921 0.484210 
0.571770 -0.191430 0.011604 0.730384 -0.188346 0.645933 
-0.585009 -0.681648 -0.151974 -0.629356 -0.017669 0.754223 
0.971494 1.593835 0.510001 0.657590 -0.614036 0.310605 
-0.559444 1.371959 0.822754 -0.704357 -0.389713 0.551356 
0.251579 0.905608 0.159760 0.738131 0.404589 -0.501137 
-0.750349 0.547182 -0.204807 0.639636 0.229300 -0.604329 
-0.932829 2.287390 0.014443 -0.674859 0.633246 0.277313 
1.636219 1.963365 -0.091077 0.680387 -0.662493 0.279052 
-0.715198 1.875789 0.711889 -0.798586 0.316370 0.482810 
0.623849 -0.140000 -0.015267 0.719240 -0.187884 0.655850 
-0.121577 3.587934 0.310394 0.729138 -0.486213 -0.477255 
1.163347 2.024161 1.004454 -0.581295 0.609470 -0.531898 
-0.462924 2.628266 0.663504 0.733991 -0.302974 -0.604193 
-0.849539 2.344731 0.155382 0.917053 -0.205272 -0.322050 
-0.938408 2.083038 0.239014 -0.863115 0.218947 0.339340 
-0.978314 1.962825 0.189669 0.757482 -0.368440 -0.455679 
-0.660782 -0.582541 -0.206488 0.526560 -0.007161 -0.822149 
0.808962 1.499859 0.606597 0.794051 -0.437782 0.380490 
-0.112007 0.804013 0.006119 -0.485636 0.376862 -0.764892 
-0.095380 -0.110358 -0.088108 -0.496696 -0.065362 -0.848561 
-0.705977 0.647062 0.020899 -0.875345 -0.297132 0.369583 
0.261754 -0.516976 0.285058 0.497658 -0.294847 0.789794 
-0.588305 0.810150 0.298080 0.950219 0.188482 -0.098534 
0.450567 0.061233 0.278085 0.721745 -0.260587 0.629800 
-0.530305 2.803722 0.482151 -0.689489 0.453562 0.554885 
-0.133294 -0.457679 -0.009545 -0.293643 -0.300918 -0.889221 
-0.043209 -0.434352 0.362831 -0.021650 -0.219219 0.974550 
1.628364 2.799853 1.317932 0.724183 -0.590680 0.351297 
0.391167 1.588251 1.256986 -0.703209 0.673468 0.198563 
-0.381127 0.691867 0.404353 -0.859431 0.370195 0.287079 
-0.914523 1.552200 0.236581 0.811515 0.158221 -0.485901 
-0.760888 1.492599 0.442332 0.740035 0.247106 -0.554069 
0.630570 1.781124 1.229667 -0.415837 0.788383 -0.424357 
0.779997 1.594378 0.721870 -0.545956 0.575471 -0.580348 
-0.510007 1.961394 0.919414 -0.720143 0.448522 0.514911 
0.876759 1.349675 0.428589 0.789957 -0.364150 0.433449 
-0.906769 1.440143 0.206591 -0.921066 -0.036813 0.367797 
1.692804 2.005661 -0.135348 -0.700885 0.635745 -0.322408 
-0.619613 0.716595 0.282959 -0.572937 -0.312261 0.747532 
-1.013674 1.038072 -0.445112 0.829895 0.321351 -0.443255 
1.300624 1.204486 -0.340794 -0.707087 0.234124 -0.655830 
1.122208 1.520398 0.156545 -0.703684 0.513353 -0.477662 
-1.036298 1.231875 -0.262753 0.850580 0.218414 -0.454034 
-0.269256 -0.981410 0.056297 -0.161218 -0.294577 0.940886 
-0.594041 3.080851 0.038026 0.846270 -0.381859 -0.350036 
-0.493336 0.504534 0.034562 0.220306 0.232008 -0.808832 
1.328591 1.956581 0.606703 0.723846 -0.468136 0.445138 
0.236206 -0.893470 0.037471 -0.204276 -0.014919 -0.971286 
-0.624303 1.374556 0.664842 -0.954868 -0.038615 0.287263 
1.777376 2.700795 0.901963 0.738867 -0.527268 0.407932 
-0.954441 2.401032 -0.294516 0.920062 -0.281726 -0.241250 
0.882128 1.421434 0.418963 -0.621097 0.570390 -0.518660 
-0.580673 0.258308 0.056192 -0.862905 -0.260452 0.417927 
-0.502653 1.875990 0.927462 0.544272 -0.033143 -0.804656 
0.396336 0.072548 0.381886 0.673517 -0.240952 0.697500 
-1.081123 2.141589 -0.425822 0.849021 -0.439462 -0.252612 
1.162916 1.145424 -0.195190 -0.728357 0.327777 -0.593404 
-0.254882 -0.664825 0.215159 -0.479720 -0.329333 0.773916 
-0.780895 0.971532 -0.039257 0.769626 0.338893 -0.520566 
1.434192 1.877434 0.178717 -0.719412 0.530422 -0.432124 
1.208839 2.023106 0.941726 0.627349 -0.702554 0.328406 
1.847100 3.069899 1.312932 0.717150 -0.569332 0.401698 
-0.823012 2.505639 0.080424 -0.874571 0.338455 0.313262 
0.702495 0.386981 0.099989 0.768663 -0.304179 0.555298 
-0.188776 0.768647 0.015226 -0.560041 0.452666 -0.644910 
0.101375 -0.743598 0.038299 -0.004127 -0.094379 -0.991715 
-1.233202 1.300175 -0.666412 0.852808 0.378735 -0.350764 
0.380960 0.642553 0.258891 0.874576 0.167610 -0.213000 
1.218054 1.693833 0.292866 0.577285 -0.735507 0.238300 
-0.228181 1.210602 0.656560 0.628519 0.517469 0.569944 
0.162868 0.529199 0.580044 0.260768 -0.007002 0.961793 
0.722496 1.732105 1.136725 0.650654 -0.617105 0.431323 
0.067534 -0.879103 0.151512 0.201384 -0.314839 0.909766 
0.447979 -0.519854 0.038265 0.701950 -0.159701 0.682630 
-0.398430 1.940462 1.058007 -0.451002 0.320208 0.775996 
0.563210 -0.805584 -0.083548 -0.394492 0.050756 -0.913173 
1.513371 2.080904 0.469145 0.744488 -0.469223 0.421940 
0.338867 -0.525955 0.181993 0.685752 -0.258298 0.675310 
-0.233565 0.447890 -0.013256 -0.611110 0.014939 -0.781419 
1.347387 2.448247 1.331033 0.687674 -0.607151 0.389195 
-0.348704 0.710065 0.201776 -0.861110 0.367387 -0.298406 
-0.833752 2.573727 -0.061272 0.911044 -0.291136 -0.282222 
0.131946 1.248961 0.419678 0.440899 0.795690 0.318242 
0.519272 0.584234 0.171020 -0.036772 0.467985 -0.706324 
1.111190 1.436203 0.152324 0.729471 -0.483138 0.463461 
-0.974328 0.887474 -0.410369 -0.849655 -0.293038 0.414578 
0.396398 0.603012 0.355605 0.283000 0.502593 -0.349010 
0.821803 1.213149 0.416693 0.815330 -0.275685 0.454043 
-0.400833 2.687779 0.704939 0.729800 -0.323971 -0.598711 
-0.647691 2.367209 0.570324 -0.879157 0.189165 0.419596 
1.071358 1.851983 0.835713 -0.553941 0.748683 -0.333316 
0.739663 -0.608014 -0.170515 0.478367 -0.038443 0.875408 
-0.964757 0.489352 -0.503126 0.698205 0.270394 -0.536740 
0.200314 -0.681061 0.242453 0.295765 -0.393043 0.867276 
0.067794 0.140817 -0.120722 0.508032 0.022822 -0.857208 
-0.905419 1.055964 -0.186616 0.827202 0.223114 -0.496556 
0.242071 -1.101474 0.038140 -0.043256 -0.262161 0.834462 
-0.273832 -0.076719 0.417037 -0.555185 -0.260013 0.749141 
-0.801120 2.117369 0.433091 0.890018 -0.028316 -0.426416 
-0.684405 1.818564 0.746061 -0.875513 0.067878 0.390636 
0.736201 0.854630 0.353726 0.795829 -0.311636 0.484941 
-0.338547 3.233083 0.344187 -0.773806 0.463402 0.429603 
1.385252 1.793734 0.153209 0.547485 -0.793216 0.172252 
0.278138 0.359938 0.004711 0.532342 -0.002037 -0.842395 
