1.488169 1.261513 -0.211108 -0.112182 -0.907114 0.391942 
1.169668 1.380698 -0.074149 -0.415369 0.612114 -0.644387 
0.756988 -0.677163 -0.137929 0.447668 0.058573 0.888718 
0.799807 0.299521 -0.097194 -0.348991 0.158334 -0.764421 
1.401835 2.359251 1.202619 -0.284471 0.912716 -0.246997 
0.236829 0.368166 -0.007997 0.610577 0.041574 -0.781826 
-0.637809 2.439917 -0.410447 0.688922 -0.512915 -0.505610 
1.303674 0.543962 -0.503865 -0.610019 0.018781 -0.774258 
-0.739424 1.943086 0.135619 -0.713479 0.555821 0.387917 
0.487199 1.494344 0.628500 -0.350591 0.529631 -0.765588 
-1.046767 0.689642 -0.539481 -0.857670 -0.278731 0.406411 
0.603555 -0.033056 0.051144 0.746767 -0.199588 0.631413 
-0.376585 -0.183880 0.265537 -0.745166 -0.207286 0.622941 
0.512171 -0.829063 -0.009537 0.583584 -0.053157 0.809321 
-0.303948 -0.510662 0.271422 -0.698109 -0.237503 0.673638 
1.000304 1.256220 0.065109 -0.491406 0.520826 -0.677467 
-0.157294 2.607834 0.172242 -0.731850 0.487974 0.458934 
1.632873 1.944635 0.485390 -0.235841 0.709525 -0.647787 
-0.306980 2.375225 0.198851 -0.649350 0.602854 0.442307 
-1.069336 0.929609 -0.422909 0.816439 0.183632 -0.529064 
-0.825755 2.098271 -0.259085 -0.348935 0.830928 0.384095 
-0.628484 2.676725 -0.587409 -0.737957 0.442131 0.501507 
1.003980 0.271690 -0.267048 -0.578206 0.105477 -0.770780 
0.421821 -1.286933 0.053384 0.846720 0.405732 0.026444 
-0.638238 0.493597 0.174065 -0.860795 -0.308865 0.387102 
-0.472427 -1.401198 0.005371 -0.616690 -0.707543 -0.087374 
0.600566 -0.749941 -0.058361 -0.364240 -0.020465 -0.922136 
1.749515 2.027103 0.569194 -0.197191 0.662847 -0.702416 
0.977634 1.451103 0.150484 -0.426955 0.594750 -0.676976 
-0.228571 2.523183 0.156687 -0.699326 0.527587 0.456737 
-0.380132 -0.553263 0.070614 0.077984 0.029475 -0.920586 
0.673108 -0.697184 -0.097003 -0.390576 -0.036510 -0.911637 
-0.042956 3.021727 -0.011227 0.768776 -0.347602 -0.534756 
1.545167 1.946467 0.537495 0.256569 -0.803623 0.517603 
-0.368206 3.086074 -0.503376 0.771894 -0.340862 -0.535351 
0.459878 1.019352 0.575022 0.470981 -0.325087 0.718055 
-0.861631 1.822361 -0.001462 0.579535 -0.544582 -0.487290 
0.573743 0.574305 0.397774 0.202123 -0.219134 0.896659 
1.340962 1.779294 0.423933 0.391030 -0.593116 0.662518 
-1.026068 2.149056 -0.586462 -0.472499 0.725030 0.429841 
0.364446 1.448457 0.795850 -0.152139 -0.607906 0.739087 
1.549856 1.815268 0.369982 0.329554 -0.647657 0.642322 
-0.083789 0.092659 0.521430 -0.176299 -0.256750 0.945611 
-0.308261 0.357668 0.514128 -0.400615 -0.186022 0.880833 
0.856906 0.397023 -0.122266 -0.428329 0.177684 -0.745769 
-0.679761 1.841597 0.243947 0.590447 -0.518572 -0.472855 
1.108617 1.100840 -0.084880 0.592249 -0.445418 0.625778 
-0.329824 2.016342 0.717776 -0.363339 0.585797 0.657638 
0.093257 -0.004556 0.494200 0.163010 -0.253026 0.950615 
0.074437 1.316687 0.349503 0.649383 0.650430 0.272788 
1.139460 1.600852 0.285180 -0.415728 0.546425 -0.724332 
0.352802 -0.936205 0.114190 0.445725 -0.159541 0.872667 
0.941855 1.577780 0.423382 0.307445 -0.821411 0.291813 
-0.454130 -0.110717 0.146490 -0.827615 -0.216821 0.503603 
0.314395 -0.062586 0.074650 0.381320 0.025525 -0.895565 
0.818204 -0.564234 -0.176781 -0.442922 -0.061777 -0.889022 
-0.856006 0.359737 -0.284478 -0.831893 -0.189058 0.497390 
-0.808702 0.702345 -0.043960 -0.907966 -0.193628 0.356712 
-1.095407 1.943355 -0.434708 -0.824349 0.267601 0.493781 
0.606810 -0.217245 0.007051 0.712069 -0.154657 0.674278 
1.813886 2.338759 1.052841 0.170149 -0.879933 0.426099 
-0.552450 0.253762 0.190106 -0.820485 -0.325852 0.457715 
-0.730237 1.917316 0.023068 0.587231 -0.648752 -0.424884 
-0.815855 -0.362510 -0.332591 0.583351 -0.038341 -0.734972 
0.000150 0.059993 0.520151 0.077805 -0.266468 0.960589 
-1.022278 1.738393 -0.105421 0.747672 -0.290590 -0.549818 
-0.095880 2.770485 0.076904 -0.785728 0.402762 0.457088 
1.093464 1.757568 0.535031 -0.318411 0.809314 -0.460994 
0.838812 0.980649 0.127924 -0.557509 0.385375 -0.713878 
-0.274511 -0.774472 0.193084 -0.406008 -0.249747 0.844188 
-0.702994 1.867520 0.328598 -0.748396 0.527401 0.366240 
0.285101 1.581959 0.940504 0.156958 -0.767797 0.548936 
1.905852 2.457717 1.270279 0.110099 -0.820703 0.535917 
1.102442 1.356129 -0.007849 -0.472430 0.570710 -0.658784 
1.465687 1.776285 0.360961 0.374079 -0.578766 0.672945 
1.410435 1.032201 -0.531584 0.673892 -0.214072 0.674602 
-0.580138 0.401669 0.230817 -0.829575 -0.353976 0.422894 
0.389707 0.666130 0.340064 0.585662 0.676352 -0.047642 
-0.607003 2.760881 -0.617987 0.719565 -0.434155 -0.533570 
0.659134 1.117739 0.350101 -0.486987 0.433411 -0.748525 
-0.323155 0.561828 0.531023 -0.457293 -0.064739 0.867058 
0.341262 0.338214 0.074755 0.410459 0.103014 -0.870940 
0.193581 1.204210 0.611781 0.853963 -0.358500 -0.338854 
-0.572536 -0.592792 -0.127718 0.488813 0.067084 -0.805130 
-1.200047 1.850972 -0.462043 -0.809307 0.274737 0.515742 
0.813887 1.372338 0.319357 0.646191 -0.413556 0.548674 
-0.492117 2.802188 -0.486234 0.657206 -0.470416 -0.559443 
1.260853 1.896734 0.595211 -0.330755 0.713721 -0.607312 
1.336349 1.453678 0.024736 -0.250506 0.641195 -0.660465 
-0.442785 -0.530364 0.043837 -0.774316 -0.090435 0.609763 
-0.176245 2.499430 0.210218 0.737117 -0.505199 -0.442946 
-0.207382 -0.812057 0.204175 -0.220293 -0.283611 0.929183 
-0.343724 0.798364 0.322007 -0.902290 0.360949 -0.078566 
-0.801152 1.723624 0.343923 -0.901585 0.221687 0.323380 
1.136922 0.339603 -0.399921 0.668808 -0.053740 0.735305 
-0.489490 2.592980 -0.326590 -0.809185 0.371972 0.436899 
0.202134 0.562439 0.575627 0.269183 -0.063554 0.954332 
-0.055776 -0.630935 0.070548 -0.150097 -0.232396 -0.948770 
-0.684813 0.715092 0.183616 -0.628217 -0.161135 0.736627 
-0.099917 0.712142 0.562552 -0.094149 0.051672 0.988980 
-0.889786 0.294263 -0.414395 0.715418 0.216176 -0.571748 
0.370060 0.379404 0.163802 0.374378 0.279925 -0.832694 
-0.728213 1.162422 0.221833 0.718548 0.249713 -0.596646 
-0.317375 0.655106 0.018132 -0.703371 0.173626 -0.687712 
0.707712 0.626931 0.080818 -0.416234 0.399414 -0.764643 
-1.299206 1.671222 -0.478223 -0.802873 0.176547 0.531770 
0.311245 1.547749 0.786454 -0.793149 0.140904 -0.574818 
0.712593 -0.467349 -0.135966 0.604885 -0.048386 0.790232 
0.453200 1.742226 0.983296 -0.557836 0.808917 0.031631 
1.525201 2.410854 1.247108 0.036572 -0.557143 0.824782 
-0.790563 2.355899 -0.505418 -0.547602 0.640528 0.455485 
0.200598 1.045407 0.555135 0.673490 0.684428 -0.223104 
0.959824 1.657080 0.446588 -0.267806 0.843227 -0.455074 
1.451086 1.475772 0.022302 -0.218353 0.642749 -0.675736 
0.337968 -0.466522 0.107441 0.189569 0.027943 -0.939642 
-0.069172 -0.607490 0.325279 -0.225509 -0.312091 0.913032 
-0.657634 2.273865 -0.264901 0.723420 -0.481301 -0.484859 
0.835794 1.890852 0.879456 -0.267007 0.834999 -0.471126 
-0.663693 0.140551 -0.149330 0.439849 0.143956 -0.705226 
-0.559964 -0.009084 -0.068738 0.246284 0.112631 -0.780488 
0.842805 -0.490961 -0.194908 -0.451182 -0.053435 -0.882198 
-0.547370 2.764224 -0.533880 -0.767459 0.398612 0.491008 
0.734234 1.668560 0.670877 -0.165558 0.759000 -0.568825 
-0.689801 1.134286 0.280833 0.710888 0.282275 -0.604686 
-0.163936 0.583827 0.591910 -0.252072 -0.059559 0.961077 
0.936451 0.018916 -0.252645 0.656733 -0.074944 0.740039 
1.878666 2.147929 0.731942 -0.139162 0.884334 -0.434666 
0.046419 -0.219572 0.433900 0.068639 -0.229677 0.967553 
-0.864142 0.203240 -0.397656 0.690652 0.203706 -0.593044 
0.799802 1.036355 0.240376 0.753786 -0.147717 0.555380 
-0.152341 1.126854 0.528628 -0.916987 0.071734 -0.147448 
0.575718 -0.906282 -0.038234 -0.405650 -0.035651 -0.909580 
1.966263 1.927812 0.357749 -0.174826 0.791011 -0.583550 
-0.821125 0.823215 -0.018499 -0.909791 -0.117195 0.360346 
2.013562 2.360185 1.044761 -0.108938 0.856886 -0.502565 
-0.304736 0.427705 0.526635 -0.362120 -0.164303 0.909260 
0.672353 0.472724 0.229183 0.759981 -0.281505 0.573909 
-0.301884 0.749044 0.098261 -0.685677 0.529626 -0.469070 
-0.189596 -0.298674 0.395193 -0.313036 -0.223417 0.882147 
-0.499607 -0.397752 0.000504 -0.784443 -0.105612 0.591748 
0.319886 0.603898 0.046899 0.672720 0.203318 -0.693357 
0.854442 0.651443 -0.012860 -0.572845 0.330695 -0.724227 
-0.372585 -1.270331 0.074844 0.187453 -0.231110 0.825605 
2.210093 2.111825 0.604310 -0.115634 0.844215 -0.522381 
-0.269816 0.718342 0.034538 -0.626782 0.383939 -0.639539 
-0.704352 0.894170 0.145482 0.728492 0.345584 -0.584641 
-1.086655 0.676351 -0.648368 0.799833 0.305050 -0.448107 
-0.948211 2.085561 -0.384702 -0.475948 0.746492 0.420428 
-0.407202 -0.135958 0.212966 -0.777430 -0.193744 0.582799 
0.655360 0.586859 0.316067 0.355502 -0.135864 0.911594 
0.293245 -1.167411 0.083668 -0.339522 -0.356970 0.546746 
0.104890 1.129092 0.182857 0.455926 0.425594 -0.771435 
0.209236 -0.849406 0.189025 0.195931 -0.265246 0.940426 
-0.097958 1.294625 0.385214 -0.621932 0.703540 0.261683 
-0.639379 1.356113 0.639051 -0.819507 -0.194960 0.513904 
0.193258 0.653967 0.572937 0.249312 0.288476 0.897469 
-0.705654 -0.255924 -0.238753 -0.751958 -0.121036 0.596834 
-0.548884 1.846384 0.548169 0.636992 -0.387331 -0.613402 
0.356974 -0.248155 0.106388 0.263863 0.051919 -0.926501 
0.730576 0.341201 -0.059792 -0.254680 0.168351 -0.800396 
-0.311737 2.841894 -0.249883 -0.646364 0.472158 0.573905 
0.022081 -0.072588 0.479247 0.073443 -0.249022 0.963893 
-0.734071 -0.188267 -0.268658 -0.758902 -0.134256 0.581837 
1.241729 0.761890 -0.395132 -0.689557 0.144696 -0.698734 
-0.221394 2.332537 0.350870 0.735027 -0.510298 -0.439091 
-0.118947 -0.796637 0.081259 0.067966 -0.184515 -0.977757 
1.577192 2.087312 0.725965 0.200426 -0.839409 0.482025 
1.029022 0.350195 -0.244012 0.712467 -0.137439 0.673735 
0.918058 0.175608 -0.161270 0.706582 -0.150328 0.675334 
-0.689613 0.925152 0.348393 -0.805097 -0.276102 0.505958 
1.288301 2.033240 0.763175 -0.301036 0.646506 -0.686902 
-0.149905 2.777638 -0.002204 0.748270 -0.413204 -0.517000 
-0.681391 1.768715 0.467984 -0.932786 0.224168 0.255443 
0.154096 1.005396 0.149889 0.573932 0.420331 -0.687910 
0.103992 -0.645678 0.306052 0.209898 -0.349985 0.911172 
0.978197 0.764483 -0.043627 0.767415 -0.181093 0.586229 
-0.805153 1.002833 0.092891 -0.918390 -0.035259 0.340609 
-0.396639 0.024550 0.327010 -0.712315 -0.227328 0.653234 
-0.301903 0.185749 0.467632 -0.508606 -0.231411 0.794755 
0.067772 0.303991 -0.121488 0.535767 0.062643 -0.837272 
-0.049882 0.641458 0.585359 -0.038662 0.180208 0.971176 
-0.759344 1.304661 0.323199 -0.932825 0.086374 0.293467 
0.493302 1.098606 0.478360 -0.823108 0.019193 -0.521275 
-1.294191 1.978892 -0.742174 -0.735157 0.413945 0.513099 
0.406293 0.590498 0.447202 0.555474 0.158168 0.788938 
-0.123798 3.062117 -0.151841 0.770194 -0.341399 -0.537676 
0.920287 1.801215 0.734459 0.504765 -0.665771 0.490536 
-0.358814 2.016950 0.605638 0.755962 -0.425849 -0.484424 
-1.082529 1.729515 -0.148260 -0.815902 0.244510 0.520712 
-1.304101 1.893196 -0.652965 -0.772523 0.340892 0.520352 
-0.606252 0.353998 0.148392 -0.823359 -0.335537 0.448920 
-0.433255 3.056132 -0.577463 -0.768155 0.360734 0.528361 
0.256436 -1.020821 0.093781 -0.276457 -0.098161 -0.949725 
-1.333834 1.113671 -0.817195 -0.854208 -0.322249 0.386459 
1.845005 1.759185 0.186619 0.256750 -0.705035 0.631846 
-0.074715 2.467620 0.458676 -0.575615 0.574608 0.568055 
-0.443511 0.011839 0.240680 -0.785264 -0.252686 0.542282 
0.682413 0.527447 0.277802 0.728021 -0.209077 0.594494 
-0.311187 -0.034837 0.407871 -0.584911 -0.251597 0.740966 
-0.065781 -0.104354 -0.095650 -0.479941 -0.097424 -0.849292 
0.977792 1.291136 0.129705 0.577323 -0.434042 0.603491 
0.531003 1.529505 0.675624 0.732281 -0.432332 0.406927 
-0.681178 0.643819 0.191816 -0.556502 -0.157987 0.810681 
0.232939 0.450262 0.562200 0.284579 -0.116572 0.946658 
-0.491897 1.678596 0.862669 0.676430 -0.677095 -0.225385 
-1.124745 2.236665 -0.820984 -0.634107 0.588422 0.481361 
-0.700602 1.124514 0.357912 -0.957718 0.024335 0.256653 
0.546540 -0.611054 -0.003742 -0.376999 0.052554 -0.891391 
-1.021827 1.141431 -0.268356 -0.839306 -0.012415 0.488865 
-0.142227 0.859863 0.584680 -0.280535 -0.185619 0.936195 
-0.661787 1.394660 0.472957 0.713291 0.120841 -0.648397 
0.231914 -0.547268 0.071173 -0.143155 -0.242606 -0.937971 
-0.064078 2.954103 0.007208 -0.843428 0.317076 0.419509 
1.472753 1.315042 -0.147367 -0.086452 -0.911062 0.385505 
1.207212 0.790300 -0.327846 0.727036 -0.221907 0.631911 
1.813061 1.882875 0.335881 0.228823 -0.773482 0.588801 
1.757715 2.426198 1.213533 -0.129338 0.854237 -0.500655 
0.903700 0.557325 -0.127636 -0.511710 0.222357 -0.731917 
-0.905889 2.193629 -0.474927 -0.443266 0.742097 0.421141 
0.138903 -1.171851 0.137430 -0.119642 -0.173786 -0.973539 
1.049372 2.148067 1.103145 0.331269 -0.737827 0.585299 
1.876014 2.029732 0.550388 0.177455 -0.848960 0.483597 
0.335542 0.815292 0.295227 0.917810 0.332435 -0.173961 
0.233068 -0.408066 0.358110 0.402231 -0.238156 0.852303 
1.303020 0.794230 -0.442907 0.730540 -0.110719 0.665260 
0.671724 -0.381384 -0.077127 -0.436809 0.065121 -0.860003 
-0.027823 2.921520 0.063907 0.759968 -0.370454 -0.533100 
-0.359500 -1.105059 0.085979 -0.217685 -0.138467 0.929713 
0.574306 0.325532 0.295550 0.721820 -0.354499 0.592680 
1.819075 1.701654 0.135085 0.277492 -0.671684 0.650290 
0.882269 1.617824 0.470726 -0.421035 0.533069 -0.730520 
-0.861352 1.057673 -0.062898 0.770826 0.154018 -0.562355 
-0.766445 2.152870 -0.273348 0.760739 -0.401129 -0.498029 
-0.559547 2.132148 0.073049 0.723347 -0.559165 -0.392869 
0.123989 -0.553884 0.336721 0.150342 -0.315099 0.933106 
0.787794 0.260808 -0.023712 0.752979 -0.218286 0.617062 
0.003353 3.244995 -0.043103 0.792127 -0.296521 -0.528369 
-0.729872 0.818275 0.164734 -0.940526 -0.131844 0.292267 
1.030047 0.116823 -0.337231 0.644905 -0.044937 0.756013 
-0.104432 2.669050 0.159479 0.749052 -0.449804 -0.480987 
-0.444154 -0.837859 0.020381 0.418896 0.010620 -0.886865 
-0.315596 -1.163177 0.065832 0.475239 -0.075780 -0.857621 
-0.243352 -0.033122 0.441522 -0.463059 -0.252575 0.810448 
-0.585261 0.586528 0.068636 0.416671 0.407645 -0.669540 
0.082877 -0.467302 -0.008811 0.250762 -0.384813 -0.884447 
0.044845 0.233639 -0.139861 0.527777 0.046344 -0.844969 
-0.390050 1.998573 0.670456 -0.635510 0.690304 0.301065 
-1.243197 1.067327 -0.575984 -0.844751 -0.230811 0.479176 
-1.350918 1.932106 -0.761879 -0.736917 0.403413 0.522705 
1.158735 0.741490 -0.307318 -0.689233 0.226574 -0.677531 
-0.719692 1.051618 0.188346 0.724230 0.287656 -0.591192 
-0.339114 3.025387 -0.418036 -0.733499 0.385471 0.544110 
1.059916 0.925201 -0.110334 -0.609696 0.364927 -0.667151 
0.385315 -0.688703 0.139025 0.624655 -0.159922 0.755331 
0.799531 0.213655 -0.100415 -0.395833 0.150388 -0.767908 
-0.794832 -0.461057 -0.298099 0.567431 -0.085688 -0.764541 
-0.578032 1.686227 0.865067 -0.651365 0.221906 0.682302 
0.362246 -0.994439 0.060317 -0.223025 0.005442 -0.956589 
-0.474332 -1.091960 -0.002872 0.584848 -0.047056 -0.804033 
0.497082 0.888884 0.500394 0.647536 -0.250671 0.715773 
0.895031 0.716658 -0.021114 -0.632436 0.294601 -0.705875 
0.005176 0.374711 0.597955 0.053477 -0.152444 0.984835 
1.674540 2.014742 0.575418 0.200670 -0.865022 0.442121 
1.018390 2.016810 0.910800 -0.298530 0.810163 -0.496023 
-0.719139 2.549628 -0.626036 0.704923 -0.477182 -0.524342 
0.718555 1.885721 0.953344 -0.248714 0.820442 -0.507680 
1.931198 2.123914 0.688418 0.158892 -0.756099 0.616203 
-0.405139 0.369437 0.119837 -0.083562 0.261767 -0.869318 
-1.072575 0.560106 -0.661248 0.764114 0.296769 -0.468137 
-0.047296 0.556099 -0.077623 -0.465223 0.174243 -0.853271 
1.260665 1.935255 0.664148 0.352852 -0.750283 0.557244 
-0.402558 0.527350 0.485968 -0.506399 -0.067261 0.843010 
-0.086489 3.223439 -0.170116 0.787100 -0.304174 -0.533351 
1.648946 1.799703 0.309479 0.319952 -0.629743 0.654987 
0.800218 1.785573 0.800700 0.572823 -0.639500 0.431655 
-0.623528 1.738575 0.518888 0.623800 -0.288677 -0.582317 
-0.364282 2.603814 -0.176700 0.561058 -0.567642 -0.584852 
-0.049714 2.519481 0.415453 0.837820 -0.473031 -0.255047 
0.531143 0.286312 0.040290 0.019062 0.160577 -0.889411 
0.593800 0.998074 0.482114 0.544897 -0.312730 0.716015 
0.921704 1.402471 0.188575 -0.434491 0.569682 -0.689156 
-0.162236 3.284820 -0.313622 -0.792169 0.302432 0.528821 
-0.398355 2.118580 0.439092 -0.620090 0.676115 0.365910 
-0.803101 0.117079 -0.314351 0.675263 0.176850 -0.627314 
0.868981 1.712294 0.635580 -0.246063 0.762516 -0.544017 
1.202099 0.565083 -0.413086 -0.619837 0.086155 -0.751987 
-0.393980 0.588060 0.323513 -0.487172 0.487738 -0.508520 
-0.075263 3.412121 -0.239583 0.805927 -0.261895 -0.529380 
0.190286 0.069397 -0.040422 0.582219 -0.024527 -0.805753 
-0.168642 -0.601519 0.065285 -0.092128 -0.169452 -0.966627 
-0.000363 2.691060 0.327618 0.905376 -0.334217 -0.178972 
-0.177669 0.718068 0.554699 -0.254264 0.169046 0.923768 
1.611781 1.658817 0.168869 0.384918 -0.501363 0.721740 
-0.428394 -1.137057 0.031620 -0.727988 0.212735 0.635215 
-0.837531 0.012635 -0.397367 -0.776566 -0.182727 0.530780 
-0.895490 0.774432 -0.248733 0.803929 0.198903 -0.536873 
-0.227375 -0.533411 0.316830 -0.414504 -0.283751 0.843280 
-0.803036 0.382348 -0.224576 -0.855288 -0.202173 0.473198 
-0.323767 0.027181 0.114241 -0.252915 0.112132 -0.950420 
-0.057635 3.338434 -0.178911 0.799289 -0.277705 -0.529805 
0.218972 0.005282 -0.019568 0.590799 -0.045325 -0.799236 
-0.295183 0.787742 0.475100 -0.671947 0.322255 0.585689 
0.708352 1.444712 0.403708 -0.394165 0.549070 -0.726797 
-0.263244 2.201185 0.563628 -0.667109 0.639154 0.348546 
-0.240606 0.754622 0.534600 -0.442334 0.247513 0.853776 
-0.663742 0.222294 -0.054040 -0.842739 -0.225587 0.478795 
-0.716148 1.784590 0.291980 0.572163 -0.438208 -0.543844 
0.441906 0.158975 0.370681 0.640915 -0.282189 0.705487 
0.866441 1.370025 0.265140 0.617075 -0.438385 0.565462 
-0.865952 0.801768 -0.183760 0.792016 0.219025 -0.544748 
-0.379289 0.644459 0.486081 -0.592447 0.193140 0.720630 
-0.041036 1.377463 0.333414 -0.562743 0.722270 0.214017 
0.284705 -1.249322 0.076604 -0.509259 -0.088748 -0.826855 
0.078019 0.354120 0.595157 0.140435 -0.157377 0.972149 
-0.674415 1.003552 0.377682 -0.902524 -0.121479 0.353830 
-0.995873 1.409876 -0.107383 -0.847917 0.118533 0.467167 
0.131505 1.211977 0.257127 0.664611 0.519082 -0.486280 
1.010951 2.089322 1.060130 0.386834 -0.712406 0.559122 
0.925829 1.941290 0.958656 0.437055 -0.665556 0.544240 
-0.825512 1.623081 0.339175 -0.900631 0.193557 0.330250 
0.470003 1.314845 0.589761 -0.402814 0.467727 -0.775707 
-0.661737 0.225795 -0.147623 0.385561 0.152557 -0.703839 
-0.547476 2.576984 -0.398545 -0.783976 0.402203 0.453691 
-0.426570 0.439905 0.150840 -0.097006 0.346133 -0.795804 
-0.552254 1.950147 0.407948 -0.721667 0.616625 0.223627 
1.532535 1.057248 -0.655692 -0.690528 0.055205 -0.719629 
0.022858 0.140261 0.540571 0.095348 -0.242773 0.962540 
-0.630822 2.102568 -0.022097 0.793282 -0.414014 -0.412828 
0.916517 1.237358 0.141367 -0.484777 0.509603 -0.695462 
-0.266220 -0.240512 0.039885 -0.490074 -0.047681 -0.842344 
-0.544623 -0.231150 -0.057079 0.335109 0.087743 -0.798371 
-0.683842 0.704376 0.098544 0.908524 0.342463 -0.045575 
-0.778352 -0.106874 -0.343526 0.605927 0.161868 -0.664992 
0.267824 -0.854868 0.070829 -0.126496 -0.058325 -0.973187 
-0.642488 2.172353 -0.087216 -0.601187 0.648207 0.433542 
0.021711 0.607665 0.596154 0.009795 0.244104 0.960619 
-0.541337 2.267183 -0.106207 0.695075 -0.550098 -0.460338 
-0.620748 2.086265 0.069728 -0.622523 0.662224 0.405141 
0.927654 0.409817 -0.123038 0.762073 -0.203622 0.613664 
1.206782 0.877666 -0.347930 -0.629761 0.342040 -0.676967 
-0.344531 0.143366 0.114085 -0.204873 0.149402 -0.955432 
-0.201440 2.830301 -0.103448 0.776337 -0.369905 -0.502679 
-0.864873 1.534120 0.215937 -0.891495 0.167412 0.363421 
0.167164 -0.390732 0.384004 0.205496 -0.224582 0.947944 
1.331197 1.877062 0.515730 -0.306086 0.766655 -0.558779 
-0.085269 -0.922156 0.095512 -0.045137 -0.174498 -0.968832 
-0.727143 0.182045 -0.168735 -0.836359 -0.176904 0.504461 
-0.598187 -0.290130 -0.098873 0.515103 0.090115 -0.764110 
-0.853743 0.280383 -0.352883 0.718681 0.201119 -0.587329 
-0.802774 1.190313 0.100467 0.741174 0.172686 -0.583076 
-0.387209 0.208001 0.428538 -0.610100 -0.240000 0.741927 
0.312161 -0.661848 0.031577 0.178569 -0.073983 -0.875641 
0.687410 1.506483 0.448340 -0.374601 0.562687 -0.729679 
0.442879 0.271404 0.084995 0.140103 0.159101 -0.929590 
0.427225 1.509643 0.690024 -0.338216 0.524965 -0.776037 
1.661531 2.252042 0.943702 -0.168205 0.843366 -0.503758 
-0.255660 -0.455237 0.016545 -0.473451 -0.114472 -0.814688 
0.811362 0.897040 0.125665 -0.580868 0.344857 -0.720333 
2.181377 2.073366 0.548376 0.137726 -0.833168 0.533634 
0.069057 0.713131 -0.032432 0.366825 0.317483 -0.847447 
1.422635 1.985418 0.647141 0.275046 -0.816616 0.484560 
0.102456 -0.331701 -0.052826 0.441096 -0.205561 -0.854919 
0.282342 0.773234 0.084303 0.651465 0.535765 -0.518596 
0.674139 -0.587547 -0.107427 -0.389631 -0.009638 -0.905070 
0.567401 0.716781 0.373347 -0.701194 0.271064 -0.563056 
-0.327493 0.555373 0.111678 -0.634672 0.241516 -0.688398 
0.804476 0.457830 -0.092661 -0.357251 0.191393 -0.775456 
1.013107 1.377664 0.117457 0.532012 -0.520187 0.611464 
1.450734 1.149815 -0.573518 0.615876 -0.312598 0.687390 
1.281454 2.199487 1.038185 0.292760 -0.776130 0.544331 
0.147819 -0.541411 0.042353 0.162281 -0.299775 -0.921232 
-0.157319 2.650309 0.092323 0.745748 -0.447858 -0.488394 
0.567433 1.619005 0.687168 -0.209081 0.881063 -0.417500 
-0.554911 0.711390 0.401437 0.741656 0.422735 -0.358852 
0.467318 -0.875876 0.024124 0.585276 -0.063816 0.806793 
0.978261 0.057432 -0.307862 -0.494905 0.028570 -0.836079 
1.881584 1.950654 0.416840 0.196313 -0.812235 0.538717 
-0.157735 -0.093405 0.462096 -0.244961 -0.238376 0.929670 
-0.467369 0.170373 0.295744 -0.771447 -0.306726 0.533362 
0.182012 -0.479608 0.030308 0.245405 -0.287619 -0.876948 
-0.615208 1.796850 0.567620 -0.690395 0.663098 0.142560 
-1.217537 2.197639 -0.901426 0.649732 -0.565761 -0.506455 
1.920859 2.004718 0.497570 0.179324 -0.832307 0.512270 
-1.206758 1.891348 -0.530904 0.631246 -0.508198 -0.520849 
-0.543659 0.647716 0.362559 0.596832 0.656604 -0.212556 
1.542090 2.369336 1.166241 0.221638 -0.910677 0.336395 
0.371286 0.294052 0.470234 0.468688 -0.198372 0.844839 
1.495437 2.065010 0.725240 0.227151 -0.881727 0.397680 
1.186985 1.350899 -0.140295 -0.475852 0.567874 -0.666143 
-0.952689 1.948083 -0.271672 0.542971 -0.623875 -0.493288 
-0.379321 2.910294 -0.396661 -0.691696 0.433301 0.555906 
1.906579 2.410838 1.159695 -0.115856 0.859292 -0.495508 
-0.888788 1.475227 0.077207 0.754271 -0.008274 -0.588117 
-0.025163 1.361916 0.258689 -0.584339 0.503363 -0.562050 
1.041638 -0.027912 -0.329702 -0.519508 -0.018159 -0.834654 
1.212586 0.350718 -0.443826 -0.578488 0.007321 -0.794926 
0.014623 0.783267 0.583506 0.091601 -0.191597 0.968021 
0.294609 0.174784 0.028137 0.579973 -0.003837 -0.796746 
1.000299 0.970652 -0.035360 -0.585567 0.384953 -0.679530 
-0.556081 1.167755 0.605171 -0.571963 -0.353827 0.644986 
-0.215712 1.130648 0.349762 -0.864823 0.468956 -0.122596 
1.604537 1.523013 0.026243 0.124605 -0.842077 0.473911 
0.880875 1.076590 0.120065 -0.532323 0.432153 -0.704220 
-0.719893 -0.586312 -0.225373 0.532111 -0.089707 -0.801763 
1.080133 0.784981 -0.187134 -0.657241 0.298337 -0.667881 
-0.235196 0.379299 -0.004174 -0.659610 0.034910 -0.739169 
-0.759559 -0.031248 -0.253424 -0.781278 -0.145394 0.560873 
0.356372 -0.246683 0.316040 0.670404 -0.240233 0.698956 
-0.534660 0.573128 0.122564 0.198362 0.438098 -0.672634 
0.265383 0.012343 0.445539 0.444090 -0.259091 0.827678 
1.616509 2.285530 1.005746 -0.172590 0.829347 -0.529951 
-0.303014 0.539455 0.032637 -0.689922 0.094126 -0.701767 
-0.203534 1.024740 0.191714 -0.653461 0.385246 -0.632290 
-0.475588 -0.726404 -0.003956 0.438720 0.026810 -0.861825 
-0.252309 0.862357 0.496552 -0.740809 0.104503 0.621022 
0.052938 -0.893451 0.211356 0.295722 -0.203072 0.922048 
-1.033237 1.398165 -0.187110 -0.832956 0.108087 0.495872 
1.036952 1.664845 0.395186 -0.287464 0.826211 -0.477919 
-0.628525 0.275721 0.051951 -0.832729 -0.279212 0.464976 
0.277001 0.984283 0.370297 0.913834 0.356380 0.007075 
1.004490 1.504029 0.208471 -0.435879 0.578145 -0.686295 
0.078129 0.162425 -0.115788 0.537949 0.022895 -0.837285 
-0.166726 0.874812 0.085115 -0.569040 0.442457 -0.675876 
-1.367735 1.186279 -0.795613 -0.847833 -0.297460 0.418362 
-0.144340 1.060096 0.175523 -0.529764 0.410996 -0.722004 
0.643499 -0.855114 -0.074827 0.533671 0.113068 0.807157 
1.741502 1.779287 0.240361 -0.171083 0.805535 -0.560560 
-1.107334 1.062106 -0.422555 0.813989 0.140066 -0.532486 
-0.550196 1.361079 0.699681 -0.380685 -0.436543 0.730562 
1.265365 1.164471 -0.317832 0.568020 -0.464772 0.657201 
0.097561 -0.138588 0.457663 0.145752 -0.236006 0.958684 
0.849703 0.741102 0.032165 -0.610984 0.315365 -0.716004 
-0.943305 0.944903 -0.259415 0.806716 0.108191 -0.538103 
0.729963 1.039978 0.317808 0.785597 -0.085198 0.539916 
0.683017 0.288690 0.130748 0.737916 -0.283624 0.605489 
-1.441157 1.475798 -0.704296 -0.816578 -0.077423 0.519264 
2.039021 2.111011 0.639587 -0.129840 0.864477 -0.476986 
0.090245 -0.224878 -0.071181 0.459686 -0.153239 -0.853216 
-1.083848 2.117407 -0.627316 -0.745346 0.420873 0.479992 
1.926041 1.451460 -0.173372 0.260182 -0.696697 0.663035 
-0.061546 0.431665 -0.093106 -0.526503 0.126245 -0.828967 
1.197212 1.673701 0.400317 0.453123 -0.526506 0.698811 
0.407271 -0.390741 0.132855 0.719484 -0.184595 0.665948 
-0.814182 1.983521 -0.161011 0.634297 -0.588516 -0.466450 
-0.986567 1.613845 0.004083 -0.850485 0.201156 0.451588 
-0.770697 0.420199 -0.137861 -0.848545 -0.244158 0.461535 
0.361554 0.708916 0.268872 0.915733 0.333311 -0.192111 
-0.207041 -0.608877 0.294224 -0.369357 -0.339697 0.849229 
0.921904 1.750027 0.668171 0.495461 -0.653360 0.525695 
0.493928 0.214252 0.056259 0.070872 0.146183 -0.900856 
0.128310 0.626484 -0.034405 0.471042 0.200129 -0.828013 
1.169146 0.666509 -0.337496 -0.679686 0.157245 -0.701281 
-0.952182 2.268044 -0.633105 0.709481 -0.468559 -0.513426 
-0.304757 0.227068 0.056543 -0.501786 0.058965 -0.816162 
0.256363 -0.334460 0.361494 0.496823 -0.237462 0.787582 
-0.500316 1.899675 0.554389 0.589758 -0.419758 -0.645467 
0.073232 -1.115869 0.139491 0.327434 -0.082351 0.924920 
0.263733 -0.739668 0.213790 0.390110 -0.267036 0.851052 
-0.389214 2.279583 0.175441 -0.749991 0.552157 0.347974 
0.306035 0.907492 0.325759 0.926717 0.342739 -0.095639 
-0.453925 2.790896 -0.424786 0.625421 -0.493951 -0.570391 
-1.218010 0.962727 -0.694480 -0.858571 -0.303289 0.394453 
-0.200919 -0.835659 0.076329 0.179791 -0.135404 -0.961721 
1.715073 1.933610 0.447177 0.227175 -0.805589 0.532264 
1.468769 0.912033 -0.614290 0.693445 -0.035743 0.713014 
-0.825976 1.944828 -0.065585 -0.874244 0.259629 0.405299 
0.128938 -0.671059 0.072049 -0.030029 -0.174432 -0.978703 
0.976470 0.983495 0.030156 0.689103 -0.284849 0.593060 
1.522812 1.774832 0.316993 -0.194380 0.813944 -0.536119 
-0.119393 -0.658957 0.295841 -0.197767 -0.351642 0.914444 
0.949721 0.914194 -0.005185 -0.596428 0.356732 -0.690718 
-0.476547 -0.586029 0.006280 -0.748993 -0.070466 0.640832 
2.040918 2.276352 0.901562 0.126812 -0.818632 0.545538 
1.335516 1.334865 -0.110502 -0.161018 0.720563 -0.573340 
0.862216 0.585865 0.039506 0.777943 -0.220969 0.581477 
0.311116 -0.553473 0.240579 0.649954 -0.241938 0.718883 
-0.612690 1.600694 0.810437 -0.768130 -0.213313 0.586903 
-0.893737 0.858485 -0.147747 -0.881449 -0.111750 0.413648 
-1.334644 1.685416 -0.537842 0.784314 -0.194879 -0.554889 
-1.065289 1.012140 -0.390223 0.814001 0.135333 -0.532442 
1.325910 1.040442 -0.449241 0.621790 -0.373751 0.663602 
0.117128 -0.820179 0.084202 -0.059262 -0.186485 -0.978095 
1.157242 0.583124 -0.351176 -0.647957 0.128695 -0.725973 
2.133137 2.120710 0.636439 0.135036 -0.815952 0.552246 
1.571222 1.192996 -0.316278 -0.115957 -0.879143 0.432602 
0.293826 1.606966 0.858147 -0.676644 0.315057 -0.617499 
-0.746417 0.502940 -0.208348 0.525667 0.211837 -0.648407 
1.222767 1.135346 -0.258553 0.579007 -0.453549 0.648261 
-0.140395 0.518856 -0.041153 -0.556966 0.104863 -0.799154 
-0.165837 3.101345 -0.227544 -0.805167 0.320538 0.490327 
-0.419671 -0.155339 0.040692 -0.043165 0.077261 -0.881202 
-0.103079 1.019526 0.613149 -0.129561 -0.098300 0.963533 
-0.068727 1.070361 0.154487 -0.372866 0.456222 -0.790686 
-0.680928 1.016744 0.242477 0.714032 0.333218 -0.596921 
-0.160074 2.453321 0.279415 0.729770 -0.531783 -0.428350 
-0.052518 1.232962 0.496518 -0.034486 0.778920 0.602627 
0.350480 -0.396283 0.251736 0.695725 -0.225531 0.679891 
-0.969753 1.844113 -0.139126 -0.840671 0.250357 0.473863 
-0.645941 0.466074 -0.118158 0.349312 0.213871 -0.723542 
0.236582 0.736998 0.035595 0.582985 0.449936 -0.634968 
-0.212403 -1.034073 0.115732 -0.192062 -0.165014 0.964182 
-0.229338 -0.119364 0.429133 -0.467217 -0.250662 0.805300 
-1.317435 1.363039 -0.566769 0.812498 0.135640 -0.534686 
0.379678 1.542559 0.826943 0.815268 -0.318170 0.447797 
0.906240 1.658052 0.529905 -0.172668 0.858976 -0.420426 
1.269894 0.879110 -0.409299 -0.663782 0.239082 -0.686565 
-1.033997 0.468673 -0.620914 0.742044 0.278994 -0.494449 
-0.258300 0.616157 0.003062 -0.639262 0.147946 -0.731076 
0.455910 -1.123574 0.026195 0.703498 0.204517 0.649951 
-1.202720 1.337632 -0.426602 -0.830784 -0.049057 0.504711 
-0.518918 2.394931 -0.176545 -0.742693 0.479807 0.444317 
0.192448 -0.135011 -0.031040 0.569293 -0.069003 -0.812922 
-0.077881 1.115638 0.591823 0.220701 0.290654 0.913128 
0.963706 0.579614 -0.164095 -0.584285 0.219122 -0.708607 
-0.062611 2.610079 0.314985 -0.758382 0.487263 0.409838 
1.429208 1.946413 0.587069 0.280421 -0.795507 0.517396 
0.801502 0.531423 0.094777 0.764670 -0.252778 0.584156 
1.656548 1.852551 0.356095 -0.220796 0.784601 -0.573060 
-0.405805 -0.751500 0.080233 -0.696700 -0.087663 0.700402 
-1.409121 1.416063 -0.661255 0.812377 0.162585 -0.533327 
0.104503 -0.599245 0.051611 0.030729 -0.244379 -0.962954 
1.778651 1.828099 0.280805 -0.179216 0.799081 -0.569202 
1.467373 1.839875 0.413927 -0.250402 0.784037 -0.559120 
0.175000 0.495630 0.587503 0.245970 -0.091064 0.961991 
-0.118288 2.922936 -0.054818 0.758807 -0.376496 -0.528985 
-1.054403 2.181758 -0.673725 0.702431 -0.479634 -0.509293 
-0.505903 2.895834 -0.569382 -0.774855 0.374725 0.502973 
-0.701675 0.521189 -0.140982 0.478325 0.239266 -0.669722 
-0.007434 -0.820352 0.259636 -0.503735 -0.191970 0.832559 
0.039261 2.975036 0.160640 -0.573821 0.437502 0.657020 
0.585951 0.330023 0.014039 -0.056506 0.168707 -0.867339 
0.460831 0.588857 0.492096 -0.096305 -0.349938 0.877981 
-0.954661 1.136411 -0.195491 0.795774 0.045755 -0.548226 
-0.966680 1.551718 -0.032698 0.769681 -0.084627 -0.573986 
-0.363997 2.158347 0.385500 0.793415 -0.432008 -0.415007 
0.382229 -1.066113 0.076316 0.571286 0.003998 0.772637 
-0.581225 1.481645 0.670450 0.712205 0.106550 -0.666444 
1.248346 1.003881 -0.344868 0.627836 -0.385220 0.648597 
-0.147963 -0.440910 0.376187 -0.131978 -0.262323 0.949509 
0.481574 1.730028 0.918623 -0.206479 0.841435 -0.495027 
-1.342399 1.585198 -0.554732 0.795957 -0.061398 -0.546965 
-0.957602 0.429085 -0.466720 -0.827792 -0.237611 0.457231 
0.373460 -0.174990 0.313858 0.663884 -0.237224 0.704903 
-0.462137 0.387301 0.067053 0.054153 0.229761 -0.849553 
0.251860 1.047777 0.351836 0.889926 0.395112 -0.067466 
-0.850657 1.051762 0.023773 -0.900968 -0.019945 0.372865 
2.083947 2.151671 0.693960 -0.121822 0.860084 -0.489156 
-0.187633 -0.684751 0.075506 -0.038952 -0.095446 -0.983630 
0.600111 0.055606 0.106569 0.741084 -0.235921 0.622152 
-0.638828 1.440186 0.635274 -0.965723 0.122224 0.197455 
-0.096311 0.544121 0.602859 -0.167747 -0.065402 0.978195 
-0.458626 0.282051 0.023858 0.000013 0.175511 -0.869952 
0.162292 1.192583 0.529638 0.924297 -0.303811 -0.116646 
2.002587 2.009987 0.484412 -0.160170 0.777580 -0.593050 
-0.269209 0.278024 0.513423 -0.430086 -0.194413 0.849126 
0.815992 0.007453 -0.101716 0.698516 -0.150206 0.683094 
-1.025019 1.786472 -0.174723 0.706791 -0.371254 -0.531728 
1.085061 1.035162 -0.101124 -0.576189 0.417665 -0.663480 
0.612144 0.028396 -0.012558 -0.097425 0.106855 -0.831726 
0.919913 0.487460 -0.068258 0.756492 -0.237896 0.605160 
0.493935 -0.446600 0.029188 -0.148549 0.055048 -0.895246 
-0.819085 1.794684 0.185700 -0.888303 0.241250 0.359795 
-0.549344 2.646263 -0.456410 0.628479 -0.514448 -0.559246 
1.200049 1.644185 0.306047 -0.192236 0.869099 -0.441238 
-0.392806 -1.356168 0.044295 0.437139 -0.669337 0.352722 
0.524747 -0.756455 -0.002493 0.599811 -0.070093 0.791572 
-0.060111 2.708251 0.210441 -0.788574 0.426958 0.417491 
1.396837 2.308288 1.139577 0.259514 -0.855465 0.419848 
0.327494 -0.475394 0.252921 0.671427 -0.236106 0.700228 
-0.225921 0.005318 -0.011268 -0.629047 -0.041398 -0.768010 
-0.712440 1.351234 0.441713 -0.945851 0.098333 0.256350 
-0.365149 -0.363247 0.197241 -0.781941 -0.185759 0.586844 
0.263291 0.595480 0.559218 0.420633 -0.013649 0.878309 
-1.029155 0.603725 -0.567051 0.788187 0.279936 -0.479316 
1.088170 1.837399 0.660132 0.412194 -0.705753 0.563285 
-0.706283 -0.445370 -0.250911 -0.670691 -0.036797 0.672620 
0.405825 -0.090914 0.284017 0.664505 -0.224509 0.706148 
-0.395674 0.307774 0.451800 -0.532256 -0.219341 0.802714 
0.022517 3.190043 0.016657 0.885701 -0.224316 -0.353941 
0.687564 1.316650 0.433923 0.732718 -0.299504 0.512012 
-0.006441 -0.955495 0.089418 -0.545146 -0.123962 -0.808915 
-0.940016 -0.026697 -0.481591 0.654033 0.061829 -0.634605 
-0.361637 1.935359 0.750338 0.849685 -0.430607 -0.050810 
-0.898845 0.654493 -0.307527 0.814258 0.228254 -0.528374 
1.007679 1.102792 0.035248 0.631200 -0.370948 0.603954 
-0.848471 0.622563 -0.247845 0.762723 0.263787 -0.549855 
1.883653 2.371784 1.088268 -0.120830 0.852199 -0.507547 
-1.207253 1.800873 -0.409681 -0.805256 0.271338 0.524692 
-0.617835 0.378140 -0.105536 0.292603 0.189627 -0.746190 
0.445276 -1.048808 0.030934 0.666384 0.098574 0.705920 
0.033769 0.956593 0.622218 0.179622 -0.034177 0.977057 
0.601937 0.120796 0.141561 0.737463 -0.260369 0.615708 
0.217870 0.890079 0.540820 0.633184 -0.010764 0.756752 
-0.268582 -0.168114 0.035863 -0.516573 -0.041184 -0.825832 
1.342417 0.976218 -0.475707 -0.642358 0.258347 -0.692009 
-0.120012 -0.484467 0.013256 -0.265202 -0.370505 -0.886257 
-0.597841 1.536849 0.771218 -0.586904 -0.316979 0.654358 
1.406455 1.900014 0.509086 -0.296732 0.751260 -0.585458 
-1.270725 0.965425 -0.887502 0.855129 0.385145 -0.343056 
-0.199237 0.565397 -0.011587 -0.577208 0.111096 -0.774721 
-0.148043 2.712442 0.044192 0.748553 -0.423273 -0.508161 
0.661650 1.012228 0.314311 -0.519929 0.395646 -0.751413 
0.499906 -0.296220 0.031906 -0.061491 0.066257 -0.883828 
-0.388140 3.015956 -0.485243 0.780136 -0.340099 -0.521550 
-0.412899 2.747909 -0.347523 0.668519 -0.471575 -0.555612 
0.429965 0.342013 0.123657 0.143882 0.226860 -0.908042 
1.717142 1.693066 0.156144 -0.174586 0.798570 -0.565281 
0.312985 0.466874 0.526594 0.336099 -0.118749 0.928655 
-0.716098 0.483173 0.012577 -0.841605 -0.304370 0.436016 
-0.807902 0.612945 -0.089384 -0.882655 -0.240491 0.393844 
1.284343 1.783397 0.467163 0.384039 -0.639434 0.641032 
-0.367746 -0.132524 0.084832 -0.142308 0.085060 -0.924055 
-1.080416 0.730212 -0.592156 -0.859262 -0.294681 0.391738 
0.892124 0.805286 0.063734 0.793491 -0.121520 0.568367 
-1.052925 1.559564 -0.154928 -0.827188 0.176928 0.503831 
-0.004616 -0.137877 0.458192 -0.032589 -0.241231 0.968051 
0.399629 1.290625 0.713905 0.072392 -0.507979 0.733042 
0.861579 -0.020195 -0.163896 0.674307 -0.114690 0.713577 
-0.707157 -0.030995 -0.187623 0.646853 0.134363 -0.682772 
0.278662 0.656500 0.007044 0.651576 0.203272 -0.714369 
-0.895058 0.533762 -0.344303 0.794209 0.223520 -0.539591 
0.730496 0.439328 0.151832 0.738709 -0.308717 0.593279 
2.122428 2.449308 1.201439 0.112758 -0.883871 0.447540 
0.783285 0.100793 -0.096494 -0.434660 0.140033 -0.779728 
0.989858 1.950543 0.912561 0.421090 -0.663148 0.568684 
1.217854 1.538361 0.151503 -0.393609 0.570125 -0.716986 
0.405274 -0.194353 0.233819 0.690081 -0.210890 0.686366 
-0.891317 1.716726 0.201977 -0.875101 0.226749 0.383650 
-0.599240 -0.511665 -0.127806 -0.725559 -0.071548 0.653178 
-0.431965 2.628319 -0.279380 0.538198 -0.579089 -0.591320 
1.061719 1.972875 0.872433 0.400977 -0.663368 0.597949 
1.529738 1.390205 -0.095632 -0.126767 0.710408 -0.612904 
-1.080432 0.806223 -0.558476 0.831342 0.282292 -0.463957 
-0.843938 0.468728 -0.252764 -0.858462 -0.213053 0.464021 
-0.812871 2.288491 -0.458067 -0.487515 0.695727 0.435973 
-0.275290 -0.095951 0.039805 -0.513063 -0.022592 -0.824476 
-0.734492 1.617847 0.450830 0.731864 -0.050024 -0.655576 
0.094587 0.442970 0.599311 0.155223 -0.105134 0.975388 
0.004921 0.537287 0.606287 0.044502 -0.059711 0.995519 
-0.963650 1.075886 -0.238238 0.803410 0.053767 -0.542432 
-0.124333 0.297155 0.577975 -0.209275 -0.177911 0.956571 
-0.078419 2.526350 0.349460 0.759346 -0.503245 -0.409100 
-0.406727 0.205363 0.064412 -0.092250 0.160519 -0.908209 
-0.334672 0.266642 0.474023 -0.506167 -0.213432 0.807601 
-0.127182 -0.268449 0.420156 -0.154152 -0.218288 0.962547 
0.195837 1.158535 0.329031 0.836152 0.504314 -0.176336 
-0.613426 2.345644 -0.263797 -0.682662 0.551319 0.470849 
1.064389 1.553523 0.241243 -0.446526 0.562994 -0.693609 
0.777641 0.316311 0.021551 0.748397 -0.245188 0.610597 
-1.250784 1.639862 -0.406687 -0.810691 0.133938 0.527505 
-0.388866 0.454659 0.487432 -0.429902 -0.176536 0.879571 
0.433339 1.671604 0.946285 0.509010 -0.603313 0.594183 
-0.296519 -1.065073 0.079930 0.364868 -0.080123 -0.915448 
1.792894 1.629817 0.068357 0.300360 -0.634834 0.671417 
0.362107 1.669655 0.957523 0.036371 -0.338617 0.921102 
-0.920621 1.327772 0.006396 -0.876714 0.092681 0.413875 
1.432369 0.952745 -0.566890 -0.688963 0.084778 -0.713424 
0.061741 -1.016107 0.155179 0.274357 -0.154338 0.938710 
-0.773410 1.068844 0.099643 0.740752 0.232938 -0.581229 
0.855075 0.867353 0.071973 -0.597360 0.331905 -0.711230 
1.312538 2.254883 1.096853 0.281310 -0.808331 0.499292 
2.028273 2.413233 1.150119 0.130668 -0.885543 0.434569 
1.024562 1.038311 -0.004351 0.646491 -0.355467 0.605597 
-0.861205 -0.234337 -0.388524 -0.617235 0.002773 0.683532 
0.246971 -0.626075 0.073647 -0.200025 -0.212075 -0.951801 
-1.263749 1.151619 -0.562603 -0.839962 -0.197976 0.492658 
-1.008295 0.605487 -0.495745 -0.849517 -0.260778 0.426134 
1.062481 1.119744 -0.019014 0.599086 -0.429527 0.616741 
-0.231895 0.922585 0.158204 -0.690709 0.421267 -0.580961 
0.026530 1.423021 0.331491 0.451470 0.803479 0.364886 
-0.613866 0.715507 0.277673 0.851446 0.345304 -0.210050 
-0.447202 -0.662976 0.027917 -0.741791 -0.060804 0.652764 
-1.291239 1.583403 -0.471161 -0.814694 0.060552 0.523875 
-0.849929 0.909257 -0.107737 0.778434 0.204850 -0.555051 
-0.537661 1.685907 0.927219 -0.822630 0.153510 0.526631 
-1.044408 1.348153 -0.251986 0.803930 -0.064672 -0.546396 
-0.365370 -0.393046 0.082320 -0.056192 0.043406 -0.925165 
1.143629 1.040047 -0.162452 0.614747 -0.411940 0.630263 
-1.371188 1.875580 -0.722533 0.725921 -0.388767 -0.544622 
-0.671329 0.465880 0.090237 -0.841849 -0.316824 0.425178 
0.074685 0.009234 -0.106967 0.512678 -0.030032 -0.845369 
0.281468 0.795100 0.485007 0.655795 0.275790 0.623701 
0.974485 0.277003 -0.198068 0.713029 -0.148751 0.670106 
0.729808 -0.045411 -0.074986 -0.411884 0.121265 -0.804003 
-0.544075 0.155657 0.142063 -0.825672 -0.282784 0.472652 
-0.626442 0.815395 0.287115 0.947071 0.146506 -0.150868 
-0.092614 -0.920613 0.194188 -0.192246 -0.211804 0.949871 
-1.244541 0.890037 -0.865696 -0.860650 -0.372759 0.323134 
0.552201 1.661827 0.793840 -0.127941 0.679661 -0.693923 
-0.470685 0.089322 0.241542 -0.801357 -0.288540 0.502412 
-1.148130 2.112840 -0.707553 -0.724179 0.453447 0.487394 
-0.562228 2.853709 -0.620035 -0.752720 0.404592 0.513980 
-1.123944 1.137130 -0.395377 -0.839994 -0.095399 0.489873 
-0.975322 0.796317 -0.324195 -0.855580 -0.162546 0.464463 
-0.275826 2.188616 0.484448 0.746855 -0.468980 -0.458947 
0.264029 -0.287546 0.029852 0.513370 -0.085699 -0.834971 
-0.954475 0.645788 -0.361648 -0.863745 -0.231860 0.444574 
1.329550 1.129486 -0.434004 0.580812 -0.441935 0.668005 
-1.285534 1.414207 -0.512075 0.810019 0.083254 -0.538104 
-1.107633 0.987282 -0.448242 0.816088 0.181281 -0.529574 
0.630274 0.871833 0.272910 -0.618616 0.286871 -0.687656 
0.725973 -0.303169 -0.091905 0.648055 -0.102971 0.739896 
1.194200 2.080756 0.965439 0.338272 -0.735753 0.535123 
-0.972269 1.347917 -0.133973 0.785373 -0.027923 -0.558361 
0.734359 0.584146 0.235513 0.776272 -0.173378 0.550730 
-0.659173 -0.152537 -0.132355 -0.783234 -0.120816 0.580673 
0.293452 0.304791 0.016461 0.644369 0.000986 -0.764468 
-0.334918 2.284617 0.243049 0.804361 -0.452547 -0.376834 
1.128969 1.302589 -0.049244 0.517106 -0.545443 0.636395 
0.019618 2.882760 0.150709 0.757445 -0.376979 -0.532814 
0.440619 -0.015621 0.073587 0.146581 0.099047 -0.906671 
-1.051209 0.790247 -0.492262 0.825693 0.258272 -0.492344 
-1.032064 1.996907 -0.430749 0.534209 -0.653982 -0.490982 
-0.578325 0.324372 -0.074497 0.222046 0.179270 -0.775527 
-0.552566 -0.001824 0.020925 -0.837961 -0.197013 0.499764 
-0.094356 0.742710 -0.010625 -0.383058 0.391904 -0.798348 
-0.228230 2.426913 0.318021 -0.703258 0.547463 0.412240 
-1.052737 2.030198 -0.495928 0.547522 -0.646471 -0.492140 
-0.744980 0.963365 0.104181 0.739412 0.287989 -0.580229 
-1.248444 1.897351 -0.591134 0.655648 -0.480049 -0.526357 
1.367436 1.634209 0.213017 -0.129036 0.869804 -0.473375 
0.511363 0.517444 0.481953 0.270921 -0.213976 0.874596 
0.063901 -0.827885 0.240137 0.259269 -0.235597 0.925235 
-0.449302 2.978276 -0.548521 0.775475 -0.351683 -0.520967 
0.587575 -0.479977 -0.010969 0.650216 -0.108746 0.738272 
1.369874 1.130068 -0.498835 -0.557179 0.443218 -0.686858 
0.603719 0.930856 0.439897 0.565002 -0.334622 0.740107 
0.627903 1.517421 0.575216 0.678885 -0.472552 0.435890 
0.327955 0.255822 0.061255 0.458892 0.064468 -0.852642 
0.327673 0.444079 0.095094 0.556049 0.174661 -0.759289 
0.269328 0.150100 0.479833 0.408738 -0.248197 0.853828 
-1.203243 1.005283 -0.553830 -0.848045 -0.234917 0.469918 
1.160029 1.482764 0.102336 0.338179 -0.718698 0.533410 
0.985831 0.645838 -0.135882 -0.669034 0.264429 -0.687100 
-0.488485 2.327556 -0.086477 0.637444 -0.577266 -0.495612 
-0.861706 1.665080 0.284886 -0.887776 0.209498 0.355731 
-0.301088 0.297735 0.043850 -0.579313 0.046703 -0.773887 
-0.222908 2.287051 0.427139 0.744837 -0.490456 -0.442334 
1.184343 1.005074 -0.240495 0.627617 -0.391013 0.636685 
-0.374884 2.764616 -0.288515 -0.626392 0.500151 0.577483 
1.221598 2.281270 1.184726 -0.388478 0.876944 -0.229902 
-0.159340 -0.963004 0.156153 -0.171679 -0.207323 0.959128 
0.161446 0.357010 -0.051260 0.567941 0.064138 -0.810096 
-0.388095 0.528547 0.273976 -0.424547 0.517651 -0.688020 
-0.549801 1.289063 0.668411 -0.458342 -0.399777 0.693861 
-0.732733 1.572598 0.505602 -0.931527 0.171157 0.262614 
1.634917 1.306522 -0.221129 -0.040364 0.778795 -0.552510 
-0.446700 0.219116 0.359696 -0.725960 -0.306298 0.594721 
1.620238 1.418699 -0.098318 -0.170336 0.697040 -0.638178 
-0.678249 2.063414 0.018972 -0.578627 0.694547 0.412950 
-1.135689 0.928691 -0.478100 -0.850011 -0.217534 0.475643 
-0.683159 1.837396 0.417287 -0.727305 0.560505 0.358978 
-1.207591 1.185838 -0.498099 0.813832 0.148837 -0.532766 
1.497688 1.905437 0.501745 0.283942 -0.768833 0.563033 
-0.415215 2.024073 0.476016 0.711457 -0.512250 -0.471265 
0.508221 1.220535 0.524630 -0.436347 0.442848 -0.772325 
0.419514 0.064049 0.087922 0.174543 0.116121 -0.923233 
1.359166 1.252901 -0.344211 0.360853 -0.610459 0.608654 
1.739131 1.376058 -0.185746 -0.133621 0.737014 -0.609837 
1.174839 0.279343 -0.419736 -0.565317 0.004739 -0.802977 
-0.534434 1.526704 0.720682 0.881273 0.246729 -0.383024 
-0.845570 2.436180 -0.673984 0.695205 -0.493185 -0.519115 
-0.102400 3.337633 -0.246757 0.797757 -0.279310 -0.532109 
0.807311 1.683910 0.671902 0.569594 -0.594487 0.503115 
-0.066671 0.124073 -0.120926 -0.545507 0.020957 -0.832373 
0.954789 0.694708 -0.087575 -0.663713 0.261859 -0.691809 
0.168579 -0.416311 -0.006001 0.449698 -0.228168 -0.842448 
-0.445214 -0.984869 0.010561 -0.700982 0.067542 0.695671 
-0.128446 0.609407 -0.032850 -0.484713 0.166055 -0.824461 
-1.100302 1.337304 -0.321133 0.806072 -0.016053 -0.543461 
0.093866 -0.945559 0.183576 0.178834 -0.199167 0.955661 
-0.142390 3.202568 -0.242241 -0.806355 0.304228 0.500635 
-0.722945 1.713706 0.405485 0.664994 -0.228455 -0.613446 
-0.675191 1.660494 0.665661 -0.946400 0.195763 0.215832 
-0.472290 -0.324922 0.033333 -0.811410 -0.127760 0.557976 
-1.200983 1.645971 -0.330931 -0.813842 0.140697 0.526458 
-0.306373 2.414770 0.115878 0.812030 -0.444857 -0.370639 
-0.971548 1.211419 -0.146721 -0.855056 0.033902 0.457292 
0.981805 1.596370 0.364380 -0.438909 0.544296 -0.712646 
-0.324328 2.079956 0.667575 -0.662311 0.607825 0.433904 
0.899221 0.064374 -0.207646 -0.533000 0.092119 -0.799415 
-1.160044 1.590732 -0.305302 0.800960 -0.109261 -0.550588 
0.182086 0.872401 0.091998 0.580592 0.447408 -0.664815 
-0.122211 -0.197610 -0.061146 -0.515252 -0.105020 -0.833093 
1.285199 1.065967 -0.383591 0.604604 -0.413520 0.657577 
0.353708 -0.802612 0.048353 -0.040530 -0.031638 -0.917639 
0.662555 -0.505441 -0.087496 0.616630 -0.069895 0.776681 
0.149583 -0.899553 0.186530 0.166333 -0.236011 0.952258 
0.074549 -0.491512 0.360518 0.085439 -0.261732 0.956071 
-0.500050 2.272073 -0.038115 0.659794 -0.577495 -0.470371 
0.184046 1.190987 0.408830 0.717039 0.659440 -0.036886 
-0.302501 2.555965 -0.031249 0.832121 -0.355934 -0.413210 
-0.627223 0.492423 0.248207 -0.813409 -0.292337 0.433076 
-0.199893 0.439118 0.575760 -0.280446 -0.128946 0.945768 
0.386477 1.558151 0.750269 -0.320412 0.530489 -0.783299 
1.803308 2.235426 0.886240 -0.143662 0.871715 -0.458192 
1.260585 0.616063 -0.457870 0.697788 -0.071691 0.704861 
1.043317 1.600733 0.325970 -0.449742 0.545481 -0.706299 
-0.160004 -0.897308 0.183320 -0.181530 -0.239103 0.948667 
-0.689699 2.007674 0.085057 -0.568264 0.716575 0.388607 
0.643051 0.304845 0.192833 0.731844 -0.310697 0.600516 
0.414753 1.212394 0.673222 -0.861364 -0.215208 -0.206667 
0.925826 0.263244 -0.142873 0.727323 -0.174239 0.650829 
0.541688 1.440517 0.560361 -0.373943 0.520719 -0.757642 
1.219805 0.640525 -0.390386 0.719890 -0.111397 0.674431 
0.310303 -0.195426 0.375349 0.592583 -0.252964 0.742608 
-0.631819 -0.012792 -0.093613 -0.825812 -0.157398 0.526097 
0.131002 -1.034034 0.102239 -0.089043 -0.171831 -0.976605 
-1.306831 1.043022 -0.862174 0.848473 0.358641 -0.375056 
0.871427 0.068343 -0.140682 0.694828 -0.142368 0.687871 
-0.343771 -0.298269 0.099265 -0.170478 0.049642 -0.936583 
1.452759 1.366789 -0.084044 -0.062265 -0.915636 0.377784 
-0.345784 0.717374 0.483005 -0.694836 0.377688 0.560124 
-0.023241 1.002527 0.628438 -0.128611 0.006529 0.980712 
1.087123 0.549341 -0.242264 0.745045 -0.173200 0.635192 
0.038282 -0.307305 0.406128 0.037659 -0.219798 0.971425 
-0.802656 1.123393 0.151251 -0.920901 0.018580 0.333569 
0.170875 -0.886094 0.085634 -0.141343 -0.152289 -0.967010 
