2.424767 -0.753200 0.711878 0.414200 -0.430640 -0.794375 
0.855274 0.353703 0.330333 -0.055282 0.361886 0.928211 
-0.034463 0.012712 0.263288 -0.096211 -0.162070 0.978122 
-1.235693 -0.809032 0.420034 0.291234 0.103356 0.944346 
-2.184113 0.111939 0.303737 0.034038 -0.104865 -0.977834 
-0.000275 -0.746394 -0.020408 -0.705865 -0.321067 -0.627200 
0.302633 -1.425147 0.200780 -0.466328 -0.671567 0.436006 
-3.586772 -0.115702 0.465378 0.307262 0.281133 0.896130 
-0.161784 1.154764 0.320430 -0.878860 0.125299 -0.257364 
-0.148003 -0.113099 -0.248955 -0.545320 -0.101744 -0.814473 
-1.325531 0.349140 0.333744 -0.188295 -0.230003 -0.951210 
0.565576 -0.919821 0.178275 -0.034515 0.017628 0.992013 
-2.338125 -0.792431 0.580582 0.027987 -0.393970 -0.908706 
-2.190545 0.536925 0.370741 -0.304338 -0.290053 0.867174 
-1.686154 0.452992 0.365575 -0.091847 -0.268057 -0.954036 
-1.610466 0.646799 0.328061 0.003692 0.191281 -0.958319 
-2.511127 -0.504393 0.423055 -0.366063 0.325210 0.812724 
-1.215853 -0.389825 0.364754 -0.245103 -0.109990 -0.951579 
3.125113 0.233322 0.724629 0.670286 -0.044011 -0.720633 
-2.992770 -0.378654 0.370295 0.136872 0.242116 0.934925 
-3.347041 0.394071 0.227168 -0.240437 -0.118333 -0.956211 
-3.472538 0.181233 0.325395 0.290368 0.150106 0.935047 
2.984857 -0.442434 0.911556 -0.584238 0.320544 0.718781 
0.138865 0.750125 0.420452 0.158270 0.138377 0.965236 
2.709775 -0.632284 0.742265 -0.442309 0.379915 0.808661 
1.900566 -0.540177 0.413434 0.195252 -0.342451 -0.900270 
-0.838360 0.235585 0.254178 -0.359949 -0.067015 -0.907913 
2.489818 -0.437708 0.571938 -0.160102 0.314290 0.881894 
-1.737564 0.461478 0.413087 -0.052410 -0.218996 0.952298 
-1.836324 0.611220 0.373050 -0.057501 -0.286708 -0.952882 
-0.922679 -0.130950 0.331535 0.191753 -0.080622 0.972803 
-0.441900 0.391496 0.344955 0.182091 -0.103676 0.950269 
2.759732 -0.371989 0.668119 0.420044 -0.360784 -0.824306 
2.075472 0.374353 0.325218 0.052789 -0.196842 -0.973236 
0.381102 0.631095 -0.006650 0.684301 0.403637 -0.565351 
-2.026767 -0.664314 0.563086 0.126973 -0.412989 -0.868794 
3.500734 0.286738 1.143714 0.790639 -0.093074 -0.584272 
0.170773 0.096203 0.260696 0.128575 -0.240330 0.961690 
-2.866559 -0.617236 0.425149 -0.015926 -0.380521 -0.923758 
0.118891 -1.180091 0.195110 0.333260 0.033381 0.875234 
3.419705 0.414730 0.987008 0.807728 0.257633 -0.488588 
2.587636 0.469624 0.502605 -0.256404 -0.100273 0.923825 
3.335505 0.312468 0.897429 0.714060 -0.146314 -0.679596 
-1.867320 -0.787993 0.646518 0.114096 0.395452 0.905473 
-1.722722 -0.372544 0.425656 0.059929 0.176289 0.973880 
-1.236846 -0.490104 0.399790 0.220685 0.076565 0.961112 
-0.194102 -0.564573 0.180593 -0.285443 -0.170226 0.934228 
-1.206089 0.008926 0.329252 -0.223343 -0.137842 -0.953663 
-2.128443 0.073183 0.365558 0.122356 -0.046455 0.973629 
0.069529 -0.853466 0.184016 0.285307 0.000904 0.948321 
-0.504948 0.555382 0.168371 -0.680033 0.340236 -0.602599 
-0.098086 0.794330 0.421372 -0.131296 0.040281 0.988172 
1.942434 -0.689198 0.506148 0.213008 -0.430206 -0.861215 
-3.178014 0.468514 0.203490 -0.112225 -0.045320 -0.980587 
-0.494895 0.235689 0.096860 -0.646388 -0.056007 -0.714105 
-0.178720 -0.026711 -0.237839 -0.597854 -0.074990 -0.770593 
-1.395860 -0.735105 0.454318 0.244693 0.161134 0.948933 
-2.055485 0.932140 0.433964 0.104781 0.067741 0.975917 
-1.827829 -0.177082 0.426790 -0.005201 0.123457 0.973935 
-1.354154 0.264464 0.380970 -0.022379 -0.167353 0.964318 
-1.487663 0.003447 0.392778 0.016415 -0.023827 0.970214 
-0.636263 -0.092706 0.254133 0.102360 -0.151161 0.954980 
-1.967833 -0.726825 0.605405 0.160772 0.382198 0.903996 
3.234758 -0.129510 0.991345 0.740609 -0.198017 -0.622432 
0.116694 -0.775338 0.173049 0.189450 -0.067315 0.970331 
-3.820105 0.009288 0.540194 0.437834 0.197335 0.874399 
-2.642080 -0.314490 0.331044 -0.147436 0.265284 0.924842 
-3.011227 0.426683 0.267715 0.039562 0.071283 0.949019 
2.704331 -0.555841 0.709296 -0.438171 0.351800 0.819211 
-0.212701 1.127609 0.124616 -0.868078 0.416413 -0.234370 
-1.278290 0.528806 0.395818 0.136611 0.152821 0.965548 
3.606295 0.158030 1.369429 -0.796023 0.186849 0.570040 
1.957912 -0.220705 0.306450 0.113607 -0.173359 -0.972773 
0.571304 0.348419 0.347846 -0.134191 -0.114763 0.960262 
-2.220973 0.848328 0.371319 -0.325941 0.549679 0.746972 
-1.359531 0.412015 0.335272 -0.179505 -0.244131 -0.950761 
0.109918 1.203148 0.350855 -0.323346 0.625451 0.667956 
0.818222 0.361452 0.254714 0.237208 0.382352 -0.833650 
-0.185593 0.192364 0.299548 -0.128443 -0.275539 0.951240 
-0.067120 1.311512 0.023783 -0.643756 0.586267 -0.356726 
-1.980555 0.777482 0.453168 0.092627 0.133176 0.973224 
1.830267 -0.934592 0.610564 0.329131 -0.476347 -0.814154 
-1.946886 0.183002 0.428366 -0.020837 -0.055173 0.959631 
0.410191 0.150476 0.249654 -0.055546 -0.278780 0.939877 
-0.090075 0.877821 -0.065591 -0.475256 0.329079 -0.791805 
2.000734 0.365027 0.316220 0.102694 -0.217603 -0.966734 
-3.414772 -0.142755 0.407550 0.192775 0.339000 0.910069 
2.837787 -0.137527 0.638582 -0.542208 0.177641 0.787842 
-0.518792 0.604706 0.325046 0.155051 0.376987 0.906374 
0.865892 -0.923295 0.241650 -0.156547 -0.065554 0.984082 
2.479105 0.016832 0.440884 0.382926 -0.047596 -0.906195 
0.264787 0.406381 0.361258 0.096717 -0.241083 0.960214 
3.271842 0.342190 0.823425 -0.691577 0.045011 0.699833 
2.638956 0.568384 0.500578 0.505301 0.032921 -0.855835 
-0.070127 0.413607 -0.290802 -0.543726 0.214409 -0.778863 
-2.102574 0.469439 0.338302 -0.127562 -0.124801 -0.973539 
-0.543549 0.497707 0.134710 -0.688394 0.202905 -0.657113 
-2.604035 0.763570 0.289304 -0.029920 0.449512 -0.860559 
2.728330 -0.002597 0.520784 0.316874 -0.260375 -0.903131 
0.614773 -1.027862 0.177897 -0.152463 -0.024622 0.986000 
-0.007303 0.672195 0.446108 -0.033710 0.182575 0.977746 
-0.384571 0.434220 0.340651 0.009801 -0.155009 0.976309 
0.064591 0.748425 0.424548 0.084291 0.094883 0.988780 
-2.299150 0.617521 0.349369 -0.260140 -0.308090 0.875339 
2.396763 -0.543850 0.577360 0.497901 -0.382983 -0.773426 
-0.474022 0.468741 0.101586 -0.737065 0.167996 -0.627783 
-2.117801 0.486841 0.408373 -0.377776 -0.075689 0.900494 
0.342760 -0.556899 0.081999 0.278017 -0.073835 0.941337 
0.586773 -0.529006 0.138837 0.363696 -0.081983 -0.903747 
-0.368478 -0.208324 -0.014474 -0.669715 -0.034960 -0.731048 
-0.711953 0.594391 0.324765 0.107893 0.262897 0.937145 
-2.133029 -0.028406 0.360346 0.140717 0.001254 0.978331 
-0.215180 -0.438321 -0.144275 -0.487942 -0.309219 -0.801227 
-0.341118 -0.068288 0.183018 -0.225084 -0.230983 0.909244 
-2.181398 -0.525346 0.475598 0.278682 -0.388509 -0.858572 
0.233890 -0.610714 0.159319 0.372044 -0.128717 0.895553 
-1.326569 0.607604 0.367746 0.184752 0.312322 0.903529 
-0.356816 0.391706 -0.020206 -0.744779 0.068605 -0.651577 
0.968873 0.111323 0.287776 0.236912 -0.094479 -0.963545 
-3.478679 -0.110225 0.418134 -0.360317 -0.187641 -0.903793 
-2.256653 0.136913 0.318978 -0.098160 -0.089423 -0.971423 
2.713576 0.559049 0.594989 -0.325409 0.013328 0.879518 
0.021789 -0.340132 0.250382 0.123970 0.009332 0.990307 
-3.502567 -0.394162 0.526055 -0.274195 -0.324412 -0.899230 
-2.620893 0.537371 0.258022 -0.082143 0.075865 -0.986376 
2.654888 0.060584 0.495211 0.294630 -0.168555 -0.925085 
2.897349 0.227382 0.594309 -0.418414 0.069400 0.887390 
-0.090143 -0.378442 0.246808 -0.145865 -0.071695 0.983361 
-0.948907 0.290060 0.371643 0.002233 -0.142272 0.987605 
3.331636 -0.070669 1.079271 -0.664139 0.317023 0.655803 
0.301748 -0.197849 -0.070277 0.638070 -0.137931 -0.739425 
-2.682071 0.502544 0.243998 -0.081525 0.090201 -0.985220 
-0.105150 1.238103 0.289769 0.176954 0.868071 0.390150 
-0.348060 0.787547 0.154357 -0.878475 0.409754 -0.201133 
2.845022 0.525118 0.558473 0.464923 0.008930 -0.884303 
-2.618493 -0.154643 0.257719 0.052349 -0.213277 -0.972800 
-2.222239 0.602110 0.348072 0.049412 -0.294917 -0.931335 
0.455646 0.091026 0.067547 0.652657 -0.026432 -0.714020 
3.142731 0.561910 0.717655 0.587873 0.144262 -0.769041 
-2.603864 -0.714271 0.500953 -0.004705 -0.384827 -0.917776 
2.923998 -0.493052 0.876779 -0.553613 0.336417 0.737359 
3.435289 -0.119329 1.224654 -0.746501 0.279203 0.598499 
1.849837 0.136096 0.303905 0.149983 -0.216322 -0.963863 
2.178506 0.039778 0.334862 -0.026594 -0.134614 -0.988046 
2.090044 -0.214860 0.366867 -0.477689 0.115952 0.829220 
3.052200 0.042901 0.703163 0.377637 -0.443717 -0.808578 
0.666872 0.399979 0.174076 0.544078 0.124154 -0.771433 
2.232569 -0.107501 0.349593 0.358242 -0.135388 -0.905758 
2.103223 -0.859959 0.674167 -0.385653 0.429368 0.797840 
-1.643879 -0.778704 0.563312 0.160633 0.290469 0.927782 
-0.723013 -0.537616 0.249263 0.139364 -0.006826 0.981564 
-1.293851 0.173445 0.335066 -0.196819 -0.189691 -0.953056 
0.441081 -0.135777 0.030300 0.615637 -0.030997 -0.756167 
2.029490 -0.241807 0.330668 0.080695 -0.195563 -0.968349 
-0.314915 -1.425258 0.184015 0.558268 -0.732915 0.270550 
3.497303 0.118682 1.206145 0.777605 -0.201696 -0.587583 
-0.904366 0.445169 0.339507 0.071526 0.234750 0.953403 
1.945205 -0.604206 0.459020 0.187569 -0.400889 -0.879001 
-3.089281 0.643382 0.194814 -0.047553 0.232894 -0.961501 
-3.630741 0.094552 0.415632 -0.374591 -0.200094 -0.900534 
-2.098852 -0.880038 0.659442 0.032973 0.402720 0.900905 
-0.015163 0.472984 0.412647 -0.026876 -0.316890 0.945886 
-0.254712 1.044404 0.191566 -0.903689 0.371001 -0.040917 
-0.027680 -0.569998 0.216403 -0.316499 -0.134659 0.928504 
0.018768 0.802183 0.428997 0.080875 0.006824 0.993723 
3.179235 0.081418 0.811951 0.760991 -0.084065 -0.635747 
-0.174201 1.235687 0.342597 -0.899745 -0.333093 -0.231112 
0.717684 -0.459816 0.205433 0.291780 -0.063541 -0.939945 
0.515641 0.297860 0.102212 0.637963 0.021038 -0.720437 
0.431150 -0.563518 0.098610 0.148831 -0.051018 0.973305 
-2.546621 0.482353 0.287990 -0.197798 -0.159333 0.925411 
-0.237573 0.404474 -0.206154 -0.682938 0.112336 -0.695013 
2.137615 -0.012406 0.358311 -0.511660 -0.019892 0.825360 
-0.087743 0.949234 -0.055155 -0.464719 0.251029 -0.826523 
1.327437 0.533804 0.379910 -0.060853 0.056095 0.989811 
0.063056 1.318725 0.047970 0.631818 0.657494 -0.108547 
-0.684778 -0.146047 0.255629 0.103441 -0.124514 0.959324 
-1.153063 0.444814 0.392687 0.087427 0.062077 0.986425 
-0.072324 1.218965 -0.003020 -0.616654 0.196320 -0.732155 
2.281457 -0.423991 0.485722 0.128273 0.312704 0.922017 
-3.429671 0.031009 0.355259 -0.388784 -0.121302 -0.906613 
-0.310241 -0.272024 -0.068398 -0.646125 -0.109141 -0.742217 
-2.988415 0.430979 0.181116 -0.016458 0.044722 -0.990974 
-2.146752 0.596972 0.363702 -0.015314 -0.296852 -0.933500 
1.787485 0.710294 0.293154 -0.044672 0.205502 -0.973934 
-0.563767 -0.244955 0.177635 -0.032291 -0.120188 0.959279 
1.302433 -0.222604 0.292679 0.202841 -0.082272 -0.970519 
-0.416921 -0.101688 0.024908 -0.660021 -0.034653 -0.728039 
-2.365899 -0.324803 0.358362 -0.088390 -0.289690 -0.945917 
0.336056 0.180551 0.013483 0.755384 -0.038958 -0.649292 
1.808782 -0.875532 0.566780 0.313705 -0.465498 -0.821814 
-3.126419 0.044990 0.252856 0.297015 0.064776 0.944261 
-3.342844 0.046314 0.323739 0.149692 0.342546 0.910792 
-0.109827 0.345559 -0.292448 -0.603217 0.130462 -0.752432 
3.515828 -0.033141 1.297691 -0.781000 0.237267 0.573648 
3.230720 -0.295645 1.082680 0.613184 -0.385582 -0.669281 
2.328114 -0.583886 0.579020 0.479191 -0.391893 -0.777090 
-2.145233 0.819027 0.363550 -0.032477 -0.002935 -0.994912 
-0.799531 -0.075348 0.237624 -0.414615 -0.039157 -0.875501 
-1.280466 0.294872 0.373112 -0.011372 -0.196983 0.963410 
2.176513 -0.832754 0.678810 0.372936 -0.448037 -0.801139 
-0.661674 0.160692 0.319510 0.167905 -0.226046 0.950597 
-1.835485 0.685839 0.419008 -0.066712 -0.325123 0.942487 
-2.974228 -0.530661 0.422513 0.084026 0.311164 0.930106 
-0.912687 -0.493889 0.299806 0.245740 -0.051950 0.964170 
3.474088 -0.048947 1.240300 -0.772208 0.236912 0.582439 
3.401457 -0.193433 1.224906 -0.733731 0.297553 0.605968 
2.989204 0.124362 0.663818 -0.586757 0.075899 0.772372 
0.264994 -0.015132 0.227566 0.270743 -0.231205 0.884459 
-0.006857 1.338916 0.091189 -0.269507 0.770789 0.547135 
-2.146444 -0.305712 0.389655 0.304344 -0.288061 -0.882582 
-2.488642 -0.293908 0.343966 -0.330591 0.263977 0.857336 
-0.144736 -0.281595 -0.216973 -0.497420 -0.220604 -0.816643 
-0.363768 -1.204514 0.156685 -0.194025 -0.227482 -0.949887 
-1.852459 0.187962 0.394249 -0.034999 -0.264550 -0.961160 
-2.449384 -0.552445 0.456145 -0.379327 0.332030 0.810093 
-0.387386 0.726507 0.216816 -0.893283 0.426505 0.026311 
1.987787 0.270285 0.348980 -0.188215 -0.137022 0.917740 
-3.275682 0.577674 0.225521 -0.030244 0.364470 0.907904 
0.434907 0.019362 0.047065 0.652850 -0.028932 -0.720939 
0.254624 -1.294716 0.172339 -0.782228 -0.252997 0.276343 
1.391621 0.512620 0.304469 0.142063 -0.226591 -0.963421 
1.601565 0.625124 0.294935 0.019932 0.060304 -0.974238 
2.188365 -0.524542 0.524776 -0.360648 0.342500 0.829610 
-0.593324 -0.024078 0.259667 0.113686 -0.181282 0.950139 
-0.131994 0.144564 0.285742 -0.114030 -0.256410 0.956947 
-0.318697 0.716096 -0.008401 -0.660667 0.518617 -0.507667 
-0.824425 0.361174 0.269567 -0.235151 0.412393 -0.829564 
-0.503806 0.602427 0.238694 -0.635789 0.470463 -0.573526 
1.378944 -0.838094 0.338213 -0.191706 0.154690 0.955276 
-0.169370 -0.020584 0.248238 -0.213864 -0.189278 0.933961 
2.928648 -0.266261 0.744055 0.412123 -0.444549 -0.793689 
3.332841 -0.259969 1.179560 0.724337 -0.305057 -0.609895 
1.054785 -0.030623 0.325901 -0.071859 -0.133984 0.975514 
2.284850 -0.244334 0.419873 0.559853 -0.215357 -0.781664 
0.420473 0.682709 0.196238 0.582875 0.791012 -0.134676 
0.150882 1.164385 0.247367 0.876708 -0.043251 0.206927 
1.807956 0.618033 0.313481 0.125564 -0.242407 -0.961625 
-0.926680 0.221704 0.346999 0.031473 -0.200519 0.978865 
-2.050032 0.465127 0.405322 0.009110 -0.215789 0.952424 
2.261933 -0.617028 0.588542 -0.033984 0.365770 0.886765 
3.167752 0.016141 0.844173 -0.532369 0.376162 0.747639 
-0.355750 0.786123 0.240897 -0.874158 0.425144 0.134639 
0.091706 -0.857404 0.045828 0.036082 -0.419425 -0.895044 
1.018510 0.344128 0.268028 0.231146 0.005111 -0.957907 
-2.469303 -0.933850 0.629845 0.084528 -0.418097 -0.900980 
-0.240828 -0.000367 -0.199026 -0.661462 -0.078933 -0.714683 
-0.509005 0.062572 0.095300 -0.634103 -0.034065 -0.730018 
0.153697 0.862006 -0.044341 0.583605 0.298538 -0.735601 
-0.565899 -0.382917 0.150123 -0.074724 -0.078259 0.966421 
-0.413982 -0.896480 0.134499 -0.007288 0.037763 0.992867 
-0.439823 -0.341326 0.099330 -0.168484 -0.117263 0.959003 
-0.968806 0.634727 0.341515 0.076843 0.036078 0.994325 
-3.049841 -0.323309 0.366091 0.169927 0.222712 0.933887 
-3.978359 0.108224 0.612851 0.484079 0.167084 0.858027 
0.784498 0.392866 0.334834 -0.076442 0.345125 0.929605 
-1.091771 0.190916 0.311748 -0.254352 -0.147017 -0.950158 
0.076746 1.139064 0.378774 -0.166067 0.418911 0.852961 
0.807092 -0.459989 0.246227 0.243729 -0.045589 -0.963151 
0.657370 -0.255319 0.201335 0.019992 -0.111156 0.970071 
-1.328681 0.476551 0.379081 -0.060693 -0.271621 0.958716 
-0.001391 -1.045265 0.194821 -0.668150 0.056846 0.735734 
1.558989 0.429545 0.305422 0.142073 -0.225900 -0.963315 
-3.023347 -0.024136 0.263714 0.210663 0.107074 0.949034 
2.082936 1.103281 0.371165 0.302733 0.260923 -0.891736 
1.145720 -0.036206 0.325368 -0.073017 -0.112251 0.973917 
3.248178 0.060322 0.914571 -0.600534 0.309247 0.713904 
2.566426 -0.410014 0.578246 0.453376 -0.320432 -0.822758 
-0.397644 -0.830395 0.088682 -0.398810 -0.151041 -0.890280 
-3.334627 -0.445483 0.495854 -0.202396 -0.342487 -0.904986 
-0.740780 0.008912 0.210764 -0.456860 -0.047578 -0.845223 
-2.227192 0.334301 0.357880 -0.331750 -0.147096 0.885712 
2.097522 0.280837 0.327108 0.035132 -0.181405 -0.976775 
1.853813 0.025049 0.301606 0.155759 -0.210177 -0.964396 
0.722976 0.103773 0.195828 0.429631 -0.054244 -0.849476 
0.282713 -0.733573 0.147421 0.312734 -0.035935 0.900586 
-2.244570 -0.579360 0.502047 0.158251 0.322149 0.916598 
3.392299 -0.079394 1.150986 0.764834 -0.237034 -0.590296 
2.983295 -0.254508 0.795088 0.441243 -0.436678 -0.774871 
-0.347666 0.309274 0.008157 -0.765440 0.006056 -0.636131 
1.523463 -0.642126 0.299791 0.166118 -0.152351 -0.973726 
0.308551 0.101843 -0.068552 0.724245 -0.071022 -0.665688 
-0.796749 0.437649 0.332157 0.089237 0.353190 0.923938 
-0.287689 -1.069965 0.094113 0.044255 -0.250102 -0.949789 
-0.755494 -0.649445 0.248132 0.173672 -0.020607 0.973416 
0.054150 0.194712 0.308226 0.050094 -0.281009 0.952699 
1.317689 0.356203 0.300480 0.154277 -0.205739 -0.964744 
-2.968436 0.038258 0.246103 0.145640 0.097690 0.958378 
1.564362 0.513694 0.354801 0.043275 -0.286560 0.943735 
-1.068421 -0.686684 0.350233 0.285108 0.004895 0.951152 
-3.332491 -0.376006 0.469262 0.230971 0.279607 0.916178 
0.564094 0.535741 0.339844 -0.136414 0.323455 0.925645 
-1.667332 -0.330467 0.399486 -0.078433 -0.195045 -0.965829 
0.041543 -0.687437 -0.024746 0.225294 -0.450995 -0.854881 
-0.117944 0.274411 -0.311824 -0.629530 0.056777 -0.752985 
-0.966059 0.150666 0.301138 -0.279811 -0.115321 -0.950795 
2.223671 -0.138078 0.418769 -0.250279 0.114396 0.906419 
0.856937 -0.559625 0.269890 -0.124084 -0.056610 0.986793 
0.929345 0.353107 0.296424 0.068597 0.450356 -0.885402 
-0.089394 -0.269418 0.246422 -0.182220 -0.024054 0.977977 
1.828309 0.203371 0.337666 -0.082327 -0.107281 0.952287 
2.507521 0.401439 0.473073 -0.225753 -0.126633 0.924650 
-1.940985 0.255005 0.399307 -0.011801 -0.273501 -0.960511 
-1.185428 -0.202908 0.332975 -0.228023 -0.093495 -0.956227 
-2.248450 -0.128011 0.378912 -0.130897 0.113450 0.949325 
-2.865063 0.093795 0.235127 -0.002174 0.103512 0.974230 
-0.261177 -0.319407 -0.150220 -0.588163 -0.208435 -0.768853 
-1.450316 0.111507 0.355882 -0.146320 -0.216169 -0.956941 
0.041630 -0.510711 -0.148142 0.173973 -0.593272 -0.775608 
2.354556 0.324967 0.425650 -0.188594 -0.147055 0.936728 
2.067761 -0.921837 0.694276 0.263261 -0.472729 -0.834119 
1.703957 -0.557335 0.345760 0.212295 -0.240404 -0.933265 
-3.290319 -0.056685 0.329708 -0.062073 -0.409305 -0.893078 
-0.676896 -0.870154 0.210571 0.156913 -0.012187 0.971848 
0.543704 -0.456222 0.141373 0.097286 -0.066854 0.974061 
2.353975 -0.788424 0.713370 -0.264093 0.416360 0.838134 
-2.253779 0.265934 0.325674 -0.040851 -0.136288 -0.961943 
-1.149675 -0.471128 0.373849 -0.284073 -0.107419 -0.946318 
0.603321 0.429341 0.150954 0.607502 0.144435 -0.723978 
-3.007535 -0.610237 0.462506 -0.082104 -0.367700 -0.918361 
1.396870 0.675389 0.341917 -0.124971 0.264310 0.907554 
-0.499400 -0.270394 0.051237 -0.575252 -0.034067 -0.793070 
0.153500 -0.188654 0.244352 0.218400 -0.087066 0.958623 
-2.825973 -0.533489 0.393616 -0.000530 -0.350491 -0.932943 
2.354045 -0.877678 0.763450 0.361239 -0.458735 -0.806428 
0.478211 -0.626981 0.093942 0.402866 -0.108394 -0.883605 
0.583762 0.423670 0.382424 -0.135516 0.065653 0.975864 
0.152505 0.019932 -0.260923 0.583977 -0.051882 -0.782986 
-2.803902 -0.656892 0.443147 -0.043332 0.360150 0.915478 
-0.358271 -0.076066 -0.004782 -0.701912 -0.035053 -0.700692 
0.880268 -0.722518 0.261562 -0.135557 -0.062708 0.985555 
1.223560 0.265457 0.298768 0.167982 -0.165143 -0.966538 
2.592055 -0.585454 0.669407 0.473531 -0.388418 -0.787116 
0.421656 -0.122469 0.159372 0.065327 -0.187069 0.949486 
-2.937695 -0.437615 0.379138 0.096721 0.267323 0.936019 
1.515020 -0.866248 0.427011 -0.277137 0.303054 0.885395 
0.670063 0.190451 0.173238 0.478352 -0.069830 -0.819716 
2.856163 -0.198766 0.674411 -0.556398 0.198420 0.771742 
0.325580 -0.954273 0.131033 0.083597 0.051904 0.974726 
-1.783362 0.209480 0.386440 -0.054832 -0.261145 -0.959891 
-1.963426 0.775774 0.351710 -0.045592 0.121619 -0.987638 
-1.911811 -0.848042 0.666860 -0.022000 -0.439684 -0.881649 
-3.484062 0.281851 0.304974 0.347034 0.051311 0.919224 
-2.050265 0.400487 0.361486 0.147794 -0.243923 -0.924281 
0.201956 0.698372 0.424272 0.268421 0.307826 0.886226 
0.982861 0.399091 0.331630 -0.072825 0.336005 0.933531 
0.210018 1.079067 0.053660 0.784011 0.310804 -0.474799 
2.810291 -0.399330 0.715088 0.423843 -0.402897 -0.805864 
0.208535 0.000014 -0.220997 0.628680 -0.072721 -0.741955 
-1.521898 0.120872 0.397980 -0.026223 -0.067457 0.967920 
0.452277 -0.691282 0.129054 0.079703 -0.009599 0.982874 
-3.599258 -0.295531 0.523672 0.311224 0.295669 0.899751 
0.298396 -0.399146 0.171696 0.642201 -0.122130 0.740935 
-1.702951 0.522050 0.364032 -0.090200 -0.272962 -0.952927 
-3.086416 -0.259383 0.352599 0.200052 0.196954 0.934317 
-0.539497 -0.176659 0.190209 -0.008967 -0.146218 0.955170 
2.619270 -0.348188 0.583318 -0.349233 0.280086 0.872515 
-0.073169 -0.313296 -0.241060 -0.428272 -0.287008 -0.831858 
2.645341 0.626187 0.560024 -0.263306 0.000116 0.913456 
2.946351 0.662195 0.619146 0.474898 0.270753 -0.824453 
2.030986 -0.471738 0.417980 0.128879 -0.349815 -0.914425 
0.298767 0.341586 0.325291 0.086728 -0.247695 0.960326 
-1.854717 -0.108338 0.408198 -0.021720 -0.248439 -0.966842 
0.858081 0.264236 0.243170 0.335747 0.005175 -0.927319 
-1.435293 -0.672418 0.442492 -0.226461 -0.193784 -0.944897 
-0.498018 -0.119070 0.192767 -0.003019 -0.172658 0.950899 
-0.329861 -0.338132 0.142910 -0.534693 -0.139575 0.787598 
2.263532 -0.521914 0.535353 0.052789 0.339409 0.905426 
-1.005092 -0.643333 0.323553 0.283218 -0.032572 0.953596 
0.133279 -0.263576 -0.226263 0.485077 -0.217116 -0.823087 
1.817376 0.544614 0.312072 0.129205 -0.238505 -0.961957 
-0.263913 0.478204 0.378657 -0.106601 -0.211988 0.966477 
0.407502 -0.474321 0.009605 0.537527 -0.066317 -0.817823 
-1.309524 0.688910 0.360821 0.093192 0.132655 0.958290 
0.182572 -1.104650 0.155941 -0.208537 -0.328136 -0.920475 
-0.019471 0.406967 0.389238 -0.014628 -0.335532 0.939560 
2.439776 -0.314879 0.499799 -0.102995 0.271005 0.910488 
-0.938276 -0.661844 0.283224 -0.330390 0.011774 -0.942518 
2.467318 -0.517128 0.587151 0.499719 -0.373507 -0.777920 
-0.818211 -0.695355 0.259893 0.216987 -0.038591 0.965050 
-1.385821 0.686492 0.361841 0.047979 0.320042 -0.894569 
0.775415 0.290849 0.207791 0.416189 0.037602 -0.873724 
-2.224575 -0.226406 0.360094 0.422206 -0.258110 -0.857803 
1.932897 0.410799 0.311102 0.133261 -0.233731 -0.962259 
-1.328097 0.512247 0.317212 -0.113015 -0.061857 -0.965259 
0.080319 1.073738 0.413115 0.099339 0.182897 0.948728 
-0.894474 0.368961 0.339546 0.069555 0.326508 0.934875 
-0.233468 0.609413 -0.153661 -0.545165 0.356297 -0.733173 
-2.823661 -0.271144 0.318546 0.029969 0.228755 0.952888 
0.233554 0.592904 0.415299 0.219462 -0.181834 0.936594 
-1.062675 0.355845 0.294171 -0.274033 -0.090597 -0.946031 
-0.697556 -0.056912 0.289059 0.162906 -0.148987 0.955668 
0.693099 -0.986199 0.198803 -0.139936 -0.033321 0.986046 
0.971544 0.193471 0.286834 0.240642 -0.117600 -0.960836 
1.628606 0.244188 0.339758 -0.017557 -0.146181 0.953241 
0.360429 0.247866 0.035351 0.754047 -0.033016 -0.645135 
2.355837 0.638077 0.405157 0.311626 -0.152421 -0.928793 
-1.997305 0.158249 0.379324 0.105216 -0.239788 -0.938091 
-3.693746 -0.162716 0.520335 -0.384412 -0.262042 -0.882946 
-0.305004 0.617615 -0.126134 -0.599799 0.345671 -0.710178 
2.697372 -0.078533 0.531808 -0.402064 0.179602 0.887907 
0.140417 0.516929 -0.222332 0.535689 0.254342 -0.771926 
0.072204 0.499635 0.425264 0.086668 -0.301156 0.948001 
0.878006 0.191634 0.266344 0.294034 -0.105865 -0.936999 
2.583055 -0.205887 0.508131 -0.313335 0.229591 0.901680 
3.387252 0.448154 0.910371 0.808022 0.209329 -0.541229 
2.253984 0.573988 0.411246 -0.127945 -0.300642 0.905169 
-0.534026 0.337141 0.339654 0.167316 -0.159391 0.950707 
-0.176892 0.285066 0.343205 -0.135072 -0.304232 0.941899 
-1.528741 0.425259 0.396148 -0.053503 -0.223000 0.957170 
-0.404771 0.319536 0.305767 0.081220 -0.261731 0.949877 
-1.789080 -0.073166 0.400098 -0.041190 -0.246012 -0.965355 
0.357898 0.340737 0.015230 0.760068 0.036626 -0.638497 
1.693167 0.674988 0.389845 -0.056075 0.072268 0.986248 
0.933414 -0.858615 0.259910 0.191587 0.029760 -0.979648 
-0.096416 -0.764291 0.180085 -0.237002 -0.068509 0.960312 
1.893152 -0.654610 0.468830 0.218029 -0.412712 -0.866457 
1.128527 0.438827 0.364891 -0.060224 0.144015 0.975607 
-0.673126 -0.252421 0.150097 -0.469461 -0.032902 -0.855273 
2.828895 -0.288693 0.690567 -0.535136 0.235683 0.777710 
-2.258200 -0.424078 0.413088 0.303766 -0.372376 -0.868490 
-2.054134 0.995788 0.392933 0.199026 0.183631 -0.870537 
1.739424 0.415962 0.349495 -0.023168 -0.221562 0.945270 
-2.320831 0.012029 0.299653 -0.078773 -0.019220 -0.983138 
1.380614 -0.774223 0.302086 0.162838 -0.136140 -0.976925 
-1.426945 -0.245058 0.363533 -0.150558 -0.144292 -0.961477 
0.228931 -0.798226 0.139188 0.139022 -0.048642 0.955581 
0.255787 0.597453 -0.148757 0.572248 0.327510 -0.725883 
0.489615 -0.081649 0.063517 0.591271 -0.026955 -0.763973 
2.752971 -0.167582 0.593113 -0.476358 0.199513 0.831153 
3.090152 0.612192 0.686134 0.531476 0.248095 -0.786274 
1.007909 -0.188397 0.317589 -0.131768 -0.079219 0.983380 
-0.280555 0.984224 0.220821 -0.922712 0.353607 0.030669 
-2.039071 -0.730606 0.598070 0.136428 0.375902 0.905545 
-1.209857 -0.732446 0.414181 0.281947 0.091825 0.947975 
-3.103788 -0.037456 0.267983 0.036587 -0.434642 -0.898380 
-2.680685 -0.115562 0.261067 -0.072864 0.200299 0.972366 
1.215837 -0.071031 0.323325 -0.085405 -0.082960 0.974025 
-0.264314 -0.593952 -0.052088 -0.151604 -0.335570 -0.873119 
2.106944 0.836247 0.407385 -0.178931 -0.037876 0.982224 
-0.140191 1.164208 0.253390 -0.931696 -0.076860 0.150666 
0.050698 0.428499 0.398632 0.048916 -0.324911 0.941398 
-0.179263 0.331349 -0.254890 -0.674633 0.094639 -0.696769 
-1.182857 0.371439 0.366049 -0.022180 -0.243230 0.964617 
-2.005847 -0.943288 0.700499 0.026048 0.425906 0.896113 
-0.744517 0.417792 0.255587 -0.334270 0.424378 -0.766965 
-2.085837 0.541584 0.345707 -0.153885 -0.129360 -0.970525 
0.399581 0.509804 0.333290 0.082901 0.053697 0.925938 
-2.133645 0.392145 0.402608 -0.238608 -0.066444 0.933296 
0.010292 1.217840 0.314805 -0.025565 0.795800 0.597655 
-2.579591 -0.539375 0.427437 -0.291057 0.333260 0.836591 
-2.522542 0.550174 0.304598 -0.311035 0.073740 0.919181 
-3.493168 0.488176 0.266301 0.147946 0.378439 0.885177 
-3.030411 -0.471559 0.414847 -0.052155 -0.385546 -0.913182 
-0.336221 -0.372460 -0.051526 -0.658018 -0.035146 -0.751705 
-1.258536 0.601667 0.343341 0.058883 0.321660 -0.933805 
-2.606520 0.116913 0.249053 0.186007 -0.100056 -0.964350 
-0.538763 -0.379064 0.077737 -0.515117 -0.046361 -0.832295 
-0.664534 -0.025241 0.171725 -0.519143 -0.033002 -0.806516 
1.626679 -0.422718 0.308126 -0.166731 0.114981 0.976139 
-1.126009 0.018276 0.319255 -0.248986 -0.120140 -0.951987 
0.754772 0.397060 0.229926 0.319758 0.379389 -0.788076 
3.050138 0.116490 0.702449 -0.592765 0.163650 0.744325 
1.693336 -0.621852 0.378102 0.239659 -0.283724 -0.909545 
0.889345 0.059004 0.269739 0.281207 -0.070062 -0.943266 
-0.693396 -0.615671 0.235529 0.132360 -0.003394 0.981194 
-1.180515 -0.281287 0.339919 -0.235484 -0.087905 -0.955409 
0.797584 -0.692837 0.233561 0.232166 -0.037285 -0.964685 
2.450761 -0.687413 0.680920 0.441773 -0.415759 -0.787953 
2.720079 0.604413 0.529737 0.486138 0.009242 -0.872179 
-0.305465 -0.526006 -0.060262 -0.551086 -0.160238 -0.803056 
-2.597788 0.026980 0.253338 0.146298 -0.117300 -0.971233 
-0.426035 -0.761223 0.091377 -0.411882 -0.135395 -0.884044 
0.065390 -0.042632 -0.299696 0.490343 -0.100291 -0.836123 
-0.383798 -1.398174 0.170992 -0.764210 -0.309723 -0.095070 
-0.337891 0.437060 -0.082123 -0.717423 0.089833 -0.682094 
1.770167 0.137561 0.302641 0.151995 -0.214511 -0.964101 
3.304745 0.245869 0.895333 -0.703512 0.099567 0.684817 
0.422968 0.579828 0.046358 0.720457 0.294856 -0.609548 
1.672612 -0.503914 0.297552 0.169732 -0.169457 -0.970253 
-2.316762 -0.463993 0.422282 -0.104535 -0.341447 -0.930670 
2.693542 0.131417 0.516386 -0.324562 0.074736 0.938596 
-0.341835 -0.774958 0.107116 -0.170284 -0.016630 0.960827 
0.586184 -0.243530 0.094685 0.486031 -0.023203 -0.836465 
0.075680 -0.756473 -0.000811 0.112151 -0.430109 -0.881936 
-1.265958 0.440120 0.373207 -0.048928 -0.263575 0.960356 
3.169074 -0.068069 0.872163 0.602568 -0.321445 -0.715360 
-0.611448 -1.029183 0.177248 0.209930 -0.042133 0.972829 
-2.158242 -0.919539 0.670110 -0.007956 0.405449 0.900720 
-0.051307 -1.109581 0.164542 -0.153967 -0.378086 -0.898328 
0.160077 -0.891911 0.055371 -0.113204 -0.399716 -0.902360 
2.127323 -0.549385 0.493207 0.115599 -0.403280 -0.897177 
1.694642 -0.189349 0.315762 -0.124992 0.067989 0.969519 
-1.389433 0.365208 0.385198 -0.051668 -0.206980 0.961722 
-0.031169 0.600603 0.455725 -0.075390 -0.274578 0.956749 
1.699265 0.308716 0.305131 0.144792 -0.222444 -0.963478 
-0.418055 0.607343 0.047561 -0.726016 0.371992 -0.534440 
0.107196 0.379330 0.384069 0.089651 -0.331340 0.936274 
-3.618332 -0.182235 0.496111 -0.366001 -0.250441 -0.890822 
-0.235059 1.026484 0.341594 -0.761194 0.055530 0.627846 
-2.161384 0.302411 0.390832 -0.269715 -0.029169 0.930178 
-1.609081 -0.145131 0.382704 -0.093329 -0.207055 -0.963594 
0.165426 -0.459383 -0.150052 0.402187 -0.381416 -0.814415 
-1.791777 -0.774287 0.629047 0.100127 0.366300 0.915364 
0.244068 -0.451557 0.192691 0.466737 -0.107998 0.864864 
0.013115 0.217619 -0.374560 0.519140 0.054000 -0.846240 
0.150087 0.292657 -0.287428 0.660753 0.063243 -0.721692 
0.137207 -0.648773 0.174790 0.185917 -0.149568 0.965530 
-0.073229 -0.888609 0.062688 -0.110050 -0.403039 -0.890653 
-0.408916 -0.274794 0.000323 -0.631320 -0.034675 -0.759678 
-2.892026 -0.285325 0.329284 0.080132 0.221792 0.946858 
0.171428 -0.812296 0.014863 -0.108549 -0.401478 -0.899164 
-2.111203 -0.228872 0.390674 0.149465 0.139502 0.964696 
1.845501 -0.442635 0.360634 -0.247452 0.228333 0.920210 
0.330698 0.009658 0.220183 0.247378 -0.259005 0.881146 
-3.641139 0.177875 0.397277 -0.384525 -0.176392 -0.901863 
2.695806 0.206106 0.515222 -0.306518 0.034058 0.947984 
2.188305 -0.442163 0.464840 -0.616154 0.313352 0.716194 
-0.360700 0.243026 0.273161 -0.032063 -0.268646 0.955509 
0.030094 -0.890261 0.071785 0.281447 -0.397367 -0.868600 
1.620368 0.504666 0.308019 0.136486 -0.231579 -0.962758 
2.506941 0.520353 0.481998 -0.222532 -0.160114 0.916126 
0.184684 1.206270 0.199647 0.777932 -0.036310 0.519780 
-2.710900 0.601450 0.240135 -0.010740 -0.001702 -0.997759 
2.014114 0.028289 0.343063 -0.305394 -0.025387 0.895817 
1.203899 0.488354 0.368378 -0.084476 0.158696 0.976139 
-0.607497 -0.320770 0.108984 -0.494632 -0.035809 -0.844607 
-0.102962 -0.641222 -0.066637 -0.018223 -0.439775 -0.895956 
2.083141 0.050939 0.353369 -0.406436 -0.043808 0.857781 
0.072684 -0.379775 -0.228097 0.403732 -0.336571 -0.834447 
-2.066727 0.630690 0.421339 -0.305013 -0.154766 0.899568 
-0.992744 -0.095225 0.337161 0.172977 -0.088460 0.971164 
-3.152894 -0.171752 0.338913 0.245833 0.163509 0.934000 
0.234393 1.085205 0.222400 0.878899 0.452082 0.029031 
0.396543 0.383464 0.061876 0.766966 0.085960 -0.620492 
3.267162 0.189366 0.871754 -0.655293 0.178075 0.722421 
2.424565 -0.826838 0.756602 -0.354479 0.429324 0.819338 
-0.294251 0.117329 -0.142569 -0.734927 -0.051279 -0.654607 
0.917293 0.178823 0.331861 -0.018121 -0.189016 0.980539 
-0.017897 -0.017414 -0.324719 -0.460322 -0.110613 -0.844676 
0.023755 -0.617962 0.208749 0.395033 -0.107042 0.911452 
0.003259 0.622847 -0.235653 0.352916 0.472315 -0.802406 
1.221201 0.361909 0.299689 0.162046 -0.185526 -0.965299 
-0.194557 1.143257 0.192466 -0.544828 0.205830 0.715579 
-0.500710 -0.107978 0.070850 -0.606082 -0.034089 -0.761036 
-2.232208 -0.935626 0.666455 0.123347 -0.428640 -0.885012 
3.086574 0.302741 0.691403 0.611097 -0.009013 -0.768483 
3.109310 0.156687 0.729210 -0.498446 0.285713 0.797339 
-2.537683 0.081426 0.268883 -0.198312 0.045983 0.976059 
-0.594850 -0.894513 0.175647 -0.338476 -0.106873 -0.928375 
0.105183 1.265059 0.074611 0.698438 0.631469 -0.038805 
1.845286 -0.054450 0.299776 0.160192 -0.205507 -0.964813 
-0.311045 0.751808 0.371451 -0.575092 0.391577 0.672931 
-2.266430 -0.348457 0.421807 -0.164862 0.263140 0.915016 
-0.278676 -0.064380 -0.160474 -0.675670 -0.113777 -0.699964 
2.443439 0.263943 0.447295 -0.222947 -0.085803 0.943627 
-0.257756 -0.468835 0.180840 -0.506453 -0.114102 0.840538 
-3.588147 0.409141 0.340744 0.327778 0.153640 0.925849 
1.891468 -0.887331 0.605691 0.296539 -0.467252 -0.826212 
1.628768 0.577349 0.358433 0.034370 -0.312327 0.940487 
2.583223 0.392873 0.480773 0.251869 -0.279842 -0.907961 
0.874658 0.250163 0.348143 -0.003861 -0.155845 0.984665 
-1.120957 0.139267 0.353491 0.075616 -0.164512 0.966017 
-2.269490 -1.023161 0.703772 -0.101444 0.417064 0.899170 
-0.144170 -0.207310 0.246282 -0.203416 -0.072246 0.969760 
2.645420 -0.536382 0.674373 -0.366468 0.347214 0.837905 
-0.346275 0.514147 -0.089314 -0.691216 0.174725 -0.687578 
0.361731 0.410015 -0.016832 0.741334 0.085285 -0.653755 
-2.745298 -0.524611 0.398881 -0.084247 0.324038 0.918146 
0.099149 0.926355 -0.055869 0.492419 0.269958 -0.805700 
0.041385 1.083879 -0.053838 0.381903 0.125589 -0.907408 
-2.676306 -0.509575 0.402438 -0.164832 0.321746 0.889327 
-1.121813 -0.387759 0.354700 -0.276930 -0.090307 -0.949241 
-0.175509 -1.192143 0.177445 0.278518 -0.299750 -0.900057 
0.472172 0.474327 0.387671 -0.190466 0.119681 0.968825 
0.046922 -0.444248 -0.213499 0.335242 -0.421714 -0.837963 
1.318335 0.522596 0.285257 0.012862 0.060346 -0.977530 
-0.302231 -0.053363 -0.058441 -0.677796 -0.130878 -0.702098 
0.081049 0.231880 -0.331797 0.584667 0.049081 -0.791196 
-0.653090 -0.710762 0.200291 -0.328732 -0.101578 -0.933791 
-1.587102 -0.624811 0.456246 0.163298 0.190276 0.957062 
1.966118 0.732028 0.318479 0.115381 -0.252570 -0.960580 
2.027016 -0.073311 0.315873 0.071692 -0.167586 -0.976451 
-1.044402 -0.045173 0.311215 -0.274459 -0.088551 -0.951300 
0.262640 0.169284 -0.202606 0.730153 -0.017677 -0.657752 
2.435042 0.677946 0.501543 -0.174401 -0.050425 0.929685 
2.417146 0.359724 0.433024 0.302409 -0.166372 -0.912767 
-0.411573 0.437119 0.060266 -0.766573 0.130427 -0.614396 
-3.417450 0.294578 0.271711 0.295172 0.076172 0.937869 
1.739218 -0.895489 0.552319 -0.357462 0.450757 0.815947 
0.630510 -0.487086 0.191574 0.011863 -0.044967 0.981885 
2.687108 -0.153431 0.526418 0.394883 -0.249848 -0.879169 
-3.415298 -0.229602 0.435181 -0.179194 -0.363296 -0.895839 
-0.234741 0.947760 0.351150 -0.706128 0.143801 0.664012 
-1.067588 0.104913 0.310768 -0.263662 -0.124137 -0.950480 
2.150585 0.343255 0.326536 0.488067 -0.073052 -0.866419 
-0.817813 -0.504099 0.275481 0.190958 -0.028787 0.973375 
0.739964 0.011278 0.202261 0.412636 -0.030834 -0.858967 
-0.118146 -0.676027 0.175686 -0.197067 -0.129030 0.965802 
-0.845801 -0.427321 0.288707 0.197171 -0.031878 0.973855 
2.264194 -0.915349 0.757588 -0.311799 0.448687 0.827087 
-0.175751 0.811627 -0.059963 -0.525898 0.410660 -0.733339 
-0.101458 1.291764 0.130408 -0.582627 0.777925 0.107328 
0.344028 0.417975 0.337038 0.063875 -0.182411 0.978282 
-1.641270 0.521285 0.404530 -0.058379 -0.260689 0.951768 
0.352532 -0.368812 0.089911 0.376858 -0.123785 0.883191 
-0.255670 0.665625 0.424850 -0.446688 -0.129504 0.851981 
-0.833147 -0.311972 0.252910 -0.340195 -0.046872 -0.930864 
0.641772 0.629391 0.313693 0.386551 0.448570 -0.701763 
0.024681 -1.110381 0.163199 0.311729 -0.354697 -0.866777 
0.485868 -0.151775 0.173068 0.049039 -0.168512 0.954778 
-3.522655 -0.311301 0.499505 -0.259637 -0.334082 -0.895981 
0.956782 0.299004 0.360170 0.033726 -0.141304 0.986311 
-0.502851 -0.182663 0.063359 -0.590180 -0.034060 -0.776805 
3.163972 -0.296486 1.015656 -0.673631 0.275444 0.664231 
-2.851078 -0.347008 0.343825 0.041772 0.250620 0.947123 
0.525049 -0.517186 0.096125 0.420014 -0.078508 -0.875868 
0.312307 -0.625044 0.118510 0.347774 -0.068747 0.908552 
1.439012 -0.854016 0.379365 -0.231237 0.223142 0.922929 
3.123243 0.491661 0.715685 -0.504680 0.078550 0.833813 
-0.289186 0.015522 -0.136254 -0.701489 -0.089678 -0.680810 
-1.849616 -0.025038 0.403836 -0.026676 -0.252672 -0.965189 
-0.264526 -0.145405 -0.167135 -0.641176 -0.141120 -0.727659 
2.365894 -0.697713 0.665818 -0.189412 0.391558 0.854288 
-0.257240 -0.995664 0.090135 0.243452 -0.334847 -0.909433 
-2.543378 0.160095 0.268350 -0.205846 0.005284 0.971679 
2.067509 -1.013840 0.749552 -0.300650 0.472240 0.828049 
2.625995 0.191419 0.494712 -0.287113 0.015271 0.950829 
0.847657 0.165941 0.326642 -0.052859 -0.199102 0.973742 
2.949091 0.449448 0.676882 -0.459085 0.066661 0.831934 
-3.901218 0.205111 0.549677 -0.504562 -0.052497 -0.832955 
2.307020 0.266864 0.414723 -0.150643 -0.111778 0.947008 
-1.851281 0.064379 0.399858 -0.030041 -0.257689 -0.963503 
-1.516193 -0.066013 0.369100 -0.123690 -0.199198 -0.960695 
2.473657 0.089316 0.439250 0.329003 0.003919 -0.936048 
-2.016202 0.240139 0.372946 0.121329 -0.240775 -0.933064 
0.068258 -0.510825 0.216360 0.146801 -0.192077 0.967094 
-3.266026 0.498580 0.213915 -0.171971 -0.045541 -0.968322 
0.809361 -0.340338 0.263126 -0.079588 -0.063003 0.984599 
2.195427 -0.595540 0.537072 0.355826 -0.412014 -0.831778 
0.161635 1.214990 0.123468 0.706047 0.620747 -0.245284 
3.581636 0.033366 1.372134 0.804711 -0.223532 -0.546383 
0.227053 0.103854 -0.219613 0.677610 -0.035576 -0.702278 
0.314274 0.425228 -0.118358 0.706883 0.068346 -0.699302 
-1.843688 -0.489729 0.503273 0.041486 0.263621 0.955592 
0.068233 0.111432 0.277642 0.085076 -0.228283 0.966675 
-0.516694 0.037124 0.249925 0.098757 -0.216336 0.944350 
2.533536 -0.675805 0.704640 -0.299374 0.390927 0.832145 
-2.622873 0.470958 0.280628 -0.166450 -0.034694 0.974764 
1.604897 0.162752 0.300490 0.154995 -0.212000 -0.964484 
-2.509793 0.781578 0.310306 -0.249696 0.425182 0.825386 
0.141570 -0.395365 -0.195990 0.455659 -0.306201 -0.821403 
0.071468 -0.396585 0.248944 0.114690 -0.112164 0.984892 
2.726081 0.070365 0.529400 -0.353571 0.123209 0.922867 
-1.531986 -0.452969 0.421071 0.132300 0.143420 0.966890 
-2.302297 0.830220 0.353108 -0.039883 0.578792 -0.790009 
-2.778516 0.216386 0.225345 -0.133259 0.053453 0.987107 
1.178783 0.655158 0.334126 -0.059089 0.090401 0.988979 
3.353954 -0.138646 1.141057 -0.690891 0.312717 0.636286 
0.554991 0.495758 0.141983 0.638621 0.251902 -0.664474 
2.651935 -0.215041 0.527129 0.401103 -0.243238 -0.879238 
-0.022503 1.325603 -0.050363 -0.601511 0.139807 -0.762035 
2.177615 0.843833 0.382454 0.410072 0.377741 -0.762656 
-1.125185 -0.054231 0.321288 -0.248594 -0.106478 -0.952985 
0.751101 -0.200161 0.253536 -0.059800 -0.114278 0.973304 
1.610265 0.689514 0.336489 -0.209039 0.588287 -0.714062 
-3.693523 0.349975 0.405116 0.265810 0.319506 0.866460 
-3.409243 0.368103 0.249294 0.322160 0.013104 0.931350 
-0.073971 -1.028568 0.132221 -0.077981 -0.389348 -0.895737 
2.670743 -0.299305 0.575281 0.410660 -0.279751 -0.860651 
3.063289 -0.451112 0.999081 -0.605615 0.339562 0.697911 
-2.283389 -0.175332 0.340325 -0.150241 -0.150200 -0.964820 
0.169383 1.237891 0.267675 0.906189 -0.330775 0.056273 
0.106752 0.445718 -0.257380 0.568203 0.233701 -0.750007 
2.893883 -0.330055 0.750919 -0.584487 0.243844 0.738737 
-0.597019 0.508338 0.210788 -0.541376 0.389004 -0.662210 
2.417130 -0.053984 0.420171 0.494582 -0.078890 -0.847389 
2.344783 -0.116222 0.435136 -0.114694 0.150439 0.961327 
0.526205 0.547909 0.183295 0.633908 0.363167 -0.621019 
-3.320790 0.126668 0.282327 -0.339324 -0.102397 -0.928073 
0.151639 0.515420 0.421634 0.169408 -0.273728 0.945083 
-0.994937 -0.718629 0.312249 0.294806 -0.043822 0.950312 
-0.071806 0.240181 0.324614 -0.051498 -0.307602 0.944686 
-0.734262 0.005610 0.319577 0.209298 -0.160639 0.955065 
-2.325369 0.487763 0.335582 -0.256111 -0.232989 0.897361 
0.453169 0.616389 0.130811 0.731354 0.437390 -0.470742 
0.317773 -0.260479 0.181897 0.573316 -0.165061 0.748923 
-0.484497 0.111751 0.261491 0.120537 -0.245992 0.939642 
2.082740 0.840521 0.330630 0.136736 0.180269 -0.942603 
-0.172105 -0.908484 0.143700 -0.096644 0.002540 0.981425 
2.317492 0.510735 0.425610 -0.154869 -0.247675 0.912692 
2.560365 0.576464 0.478780 0.528230 0.053878 -0.839012 
1.754655 0.356088 0.307040 0.140831 -0.226422 -0.963075 
2.024800 -0.618421 0.503199 -0.515839 0.366418 0.754631 
-1.212080 0.442169 0.312238 -0.203960 -0.150388 -0.951426 
2.560678 0.757178 0.509098 -0.195878 0.394498 0.851404 
-0.507649 -0.514643 0.088317 -0.472251 -0.078470 -0.854135 
1.432136 -0.419435 0.295367 0.187744 -0.113942 -0.971685 
0.702116 0.278390 0.176586 0.473978 0.020221 -0.835670 
-1.646573 -0.400754 0.411090 -0.099625 -0.200343 -0.962222 
3.132190 -0.362117 1.020143 -0.648043 0.304668 0.675562 
2.278894 0.648169 0.422428 -0.126527 -0.326224 0.895055 
-1.922703 -0.036883 0.428129 -0.004919 0.056368 0.968086 
-0.577196 -0.132408 0.110615 -0.553202 -0.033569 -0.794900 
-0.258563 0.143525 -0.202963 -0.718805 -0.026700 -0.668549 
0.492705 -0.064251 0.204337 -0.004541 -0.194496 0.951185 
-0.722868 0.131864 0.203721 -0.459909 -0.070867 -0.839388 
-2.019172 -0.527878 0.507166 0.144605 0.306669 0.929934 
-0.317083 0.359206 -0.086670 -0.733411 0.028252 -0.673025 
-0.500868 0.468605 0.388633 0.198904 0.138613 0.965360 
-1.564478 -0.724808 0.498428 0.185680 0.224052 0.943314 
0.325044 -0.714331 0.009984 0.458800 -0.168181 -0.852463 
-3.048490 0.200829 0.207615 -0.125103 -0.066212 -0.967680 
3.263745 0.527652 0.820612 0.694849 0.324290 -0.589510 
2.653047 -0.608429 0.708313 -0.369751 0.372951 0.825089 
0.058642 -0.565522 -0.107482 0.196009 -0.463346 -0.850999 
1.294631 -0.804056 0.304164 -0.157399 0.086078 0.982933 
1.250752 0.674550 0.335571 -0.049658 0.084858 0.992777 
-2.955663 0.508253 0.259257 -0.034109 0.061633 0.955822 
-1.224840 0.165119 0.365379 0.040496 -0.152724 0.965878 
3.336655 0.176107 0.963313 0.710662 -0.191122 -0.668597 
0.428306 0.494520 0.065152 0.757364 0.180039 -0.618288 
3.266464 0.427207 0.824485 -0.681206 -0.010196 0.692412 
-0.023469 1.304175 0.150797 -0.253456 0.880153 0.363717 
-0.857716 -0.124628 0.264630 -0.369322 -0.038096 -0.906682 
2.019978 0.111373 0.316501 0.082044 -0.187490 -0.972716 
-0.714842 -0.719553 0.232317 0.159064 -0.014017 0.974513 
-3.502185 0.418703 0.278718 0.424087 -0.082095 0.897644 
-0.404993 0.517416 0.332680 -0.072911 0.088423 0.916154 
-3.707861 0.125858 0.448087 -0.407459 -0.186262 -0.889524 
-0.079796 -0.055568 -0.290570 -0.502637 -0.099781 -0.831298 
-1.359395 -0.268719 0.356029 -0.171904 -0.123502 -0.960504 
-3.043410 -0.551210 0.450061 -0.082941 -0.371251 -0.915527 
1.509653 0.469268 0.352257 0.052343 -0.269482 0.946125 
-1.009607 -0.570028 0.331982 0.272308 -0.025031 0.956837 
-2.602409 0.590468 0.323448 -0.193959 -0.015738 0.923920 
-1.875626 0.249779 0.426585 -0.034853 -0.093622 0.957629 
-0.206407 0.747688 -0.077323 -0.525941 0.458289 -0.697464 
2.013583 -0.884868 0.651197 0.264124 -0.466152 -0.835834 
1.853628 -0.710848 0.485324 0.244246 -0.433177 -0.851568 
-0.093106 -0.844570 0.177897 -0.242202 -0.018861 0.960685 
2.644709 0.557184 0.580796 -0.307404 -0.004714 0.875445 
3.484757 0.209171 1.149626 0.773262 -0.172119 -0.601848 
-0.483752 -0.038445 0.069488 -0.630303 -0.034216 -0.740685 
-2.194041 -0.642446 0.537614 0.138184 0.341050 0.912828 
-0.191213 1.086137 0.319587 -0.583362 0.668288 -0.221580 
-0.665700 -0.798995 0.199948 -0.334051 -0.087278 -0.932287 
3.039076 -0.023757 0.720887 0.386152 -0.452978 -0.801432 
0.733687 0.052757 0.313925 -0.142337 -0.192117 0.962890 
-2.824209 0.160063 0.212227 0.203945 -0.294331 -0.926407 
0.379401 0.331344 0.305366 0.000278 -0.233815 0.962541 
-2.543965 -0.127586 0.268230 0.004842 -0.173859 -0.975300 
-0.011915 -0.481994 -0.186405 -0.214812 -0.571450 -0.771701 
-2.402401 -0.912475 0.629692 0.076183 -0.413867 -0.901479 
0.077827 0.053833 -0.314081 0.526975 -0.023935 -0.833855 
-0.054928 -0.640493 0.197713 -0.325834 -0.113701 0.933069 
-3.534862 0.237389 0.339189 0.370464 0.064293 0.909262 
-0.156611 1.075417 0.254964 -0.551177 0.740737 0.146939 
1.664165 -0.865905 0.506889 -0.354532 0.439233 0.822186 
1.402123 0.366249 0.301524 0.149538 -0.218616 -0.964107 
2.929917 0.519521 0.650794 -0.407807 0.066189 0.870635 
2.652375 -0.711499 0.760908 0.439389 -0.421789 -0.791280 
3.012934 -0.329107 0.875613 -0.620391 0.265169 0.706471 
0.072297 1.260095 0.002781 0.624113 0.256825 -0.664172 
2.650075 -0.010680 0.507290 -0.346575 0.137439 0.922106 
-3.077580 -0.412033 0.405595 -0.058712 -0.387427 -0.910060 
-2.612150 0.202691 0.256351 -0.186733 0.005418 0.973986 
0.800770 -0.134715 0.293109 -0.122798 -0.127104 0.973356 
-2.299180 0.418176 0.336785 -0.264580 -0.205607 0.904211 
-0.807692 0.021744 0.242639 -0.397749 -0.061166 -0.883507 
-0.914937 0.088020 0.294266 -0.298388 -0.092683 -0.946464 
0.312726 -1.323694 0.198685 0.112563 -0.038863 0.795894 
2.364207 0.688768 0.479460 -0.143000 -0.069192 0.937241 
-2.677908 0.579808 0.318590 -0.147122 0.004602 0.925764 
-1.857731 -0.680595 0.598289 0.081672 0.350064 0.923778 
2.088305 -0.083784 0.348780 -0.456797 0.019400 0.850899 
-0.763852 -0.075699 0.308425 0.195415 -0.129086 0.959087 
-0.914804 0.522400 0.326605 -0.061095 0.242888 -0.950187 
0.065281 0.722934 -0.138138 0.412847 0.363805 -0.819500 
2.703866 -0.218219 0.579533 -0.438195 0.224694 0.852934 
-0.161250 -0.782306 0.153248 -0.118647 -0.070580 0.975856 
-0.444277 -0.969632 0.129673 -0.340461 -0.161657 -0.922737 
1.051151 0.319114 0.344635 0.044602 -0.221242 0.970197 
1.051415 -0.590138 0.297758 -0.154137 -0.028759 0.984425 
-0.762022 -0.450452 0.238274 -0.324071 -0.077355 -0.937747 
2.157574 -0.088507 0.363538 -0.561324 0.022198 0.807897 
-0.686040 0.461877 0.250310 -0.408279 0.433408 -0.720442 
0.482454 0.585177 0.334432 -0.089325 0.326928 0.903194 
-0.964877 -0.026569 0.338576 0.141701 -0.113364 0.973660 
-3.788667 0.284754 0.470744 0.317936 0.297575 0.855902 
-0.514542 -0.858156 0.171362 0.059194 0.028945 0.988877 
2.925692 0.489624 0.579990 0.456116 0.012493 -0.889350 
1.195814 0.550642 0.313006 -0.103984 0.370923 -0.915388 
0.930829 -0.529902 0.288089 -0.148181 -0.075487 0.985206 
1.882885 0.490527 0.311986 0.130351 -0.237023 -0.962021 
0.480476 0.608667 0.197700 0.672594 0.452286 -0.542000 
1.786368 0.688266 0.378482 0.010141 -0.151826 0.969237 
-2.506359 -0.858996 0.588901 -0.127381 0.387804 0.895808 
2.429345 0.166815 0.438784 -0.225588 -0.041458 0.956944 
-0.118261 1.152941 0.379287 0.209698 0.365243 0.847301 
1.652951 -0.131596 0.318957 -0.103674 0.035361 0.967831 
-0.641262 -0.104432 0.149554 -0.518350 -0.033144 -0.813563 
0.402090 -0.904152 0.115522 0.325217 -0.184002 -0.920197 
-0.242902 0.990226 0.074297 -0.803373 0.274562 -0.446079 
0.084924 1.243813 0.266389 -0.056728 0.883612 0.406101 
3.212008 0.144027 0.824638 0.725274 -0.120945 -0.668083 
-0.916987 -0.193507 0.291919 -0.325073 -0.033036 -0.937791 
1.085999 -0.874056 0.278581 0.176034 -0.023900 -0.980661 
-1.044663 0.646945 0.344788 -0.033688 0.142132 -0.987344 
-0.282067 0.957955 0.136381 -0.906810 0.331871 -0.228266 
-1.021295 0.024676 0.343553 0.121903 -0.129001 0.970739 
0.571160 -0.063936 0.109840 0.534914 -0.021329 -0.792561 
-1.467180 0.194471 0.355488 -0.141687 -0.235667 -0.956107 
-2.378361 -0.512333 0.449820 -0.459747 0.323002 0.784426 
-3.284224 0.187220 0.249110 -0.302355 -0.107863 -0.940850 
-3.904208 0.125662 0.566690 0.470714 0.145572 0.864686 
-0.445238 0.195771 0.273361 0.143093 -0.280024 0.934226 
