-2.269952 0.481913 1.208013 -0.305126 -0.352927 -0.866967 
0.648622 -0.926244 0.326348 0.503444 -0.075239 -0.846210 
2.109898 -0.538584 1.603019 0.781635 -0.452745 -0.418717 
1.510955 0.089266 0.875731 -0.513016 -0.030059 0.807372 
0.026499 0.983453 -0.098035 0.321387 0.310353 -0.881448 
2.343653 -0.293021 1.803408 -0.851688 0.301341 0.348957 
0.579335 -1.036821 0.247650 0.436448 0.120170 -0.883981 
0.730560 0.455172 0.426705 -0.465984 0.369565 0.795873 
1.769114 -0.308302 1.052898 -0.733982 0.219642 0.581432 
-2.304568 0.757347 1.241029 -0.442762 0.453860 -0.735256 
-0.180388 -1.228615 0.141734 0.656863 -0.098556 0.395397 
0.595770 0.445834 0.392106 -0.492195 0.298883 0.808740 
0.165435 0.691101 -0.186224 0.416588 0.503268 -0.734707 
-0.225216 0.966749 0.328796 -0.694983 0.054242 0.702178 
0.673655 -0.861008 0.350596 -0.383000 -0.015601 0.889129 
0.374614 -0.459813 -0.034008 0.685111 -0.123016 -0.706183 
0.348163 -0.699323 0.030199 0.567743 -0.171981 -0.780987 
1.867498 -0.297830 1.138326 0.498899 -0.325278 -0.786650 
2.310804 -0.442575 1.949122 -0.834326 0.388064 0.325092 
-2.788242 -0.279739 1.634696 -0.493869 -0.445150 -0.730166 
-1.631279 0.421514 1.026102 0.413138 -0.163382 0.860848 
-0.478267 -0.351400 0.060570 -0.722341 -0.094682 -0.683089 
0.065333 -0.978120 0.050725 0.200868 -0.320809 -0.915404 
0.477342 0.650582 0.254305 -0.177975 0.467675 0.768401 
0.737653 0.383828 0.448274 -0.477878 0.364172 0.795081 
-1.390830 -0.768813 1.137234 0.553502 0.375624 0.722336 
1.754730 -0.549166 1.201078 0.536500 -0.484912 -0.671611 
0.196185 1.156830 0.091986 0.843567 0.463515 -0.235423 
-1.931860 0.268375 1.074295 -0.486988 -0.144590 -0.838298 
-0.662541 0.537371 0.388570 0.475009 0.355809 0.791980 
-1.779563 -0.121301 1.086499 0.528008 0.106156 0.819275 
1.261799 -0.238339 0.703357 0.610577 -0.145367 -0.770948 
-0.554525 -0.705152 0.287551 0.333257 0.032625 0.898354 
0.253484 0.569468 -0.208712 0.555154 0.279081 -0.758008 
-0.175904 1.147702 0.407258 0.262012 0.121176 0.867800 
0.664952 0.334458 0.445367 -0.471313 -0.034044 0.869216 
0.116115 0.322535 -0.338808 0.577728 0.089900 -0.785618 
0.438307 0.575727 -0.016349 0.744324 0.277715 -0.576792 
-0.759202 0.321873 0.335780 -0.731382 0.034955 -0.663878 
-2.008826 0.355845 1.148828 0.151446 -0.151826 0.932589 
-2.556987 -0.036361 1.325462 -0.363564 -0.334090 -0.859063 
-3.020676 -0.275384 1.891559 0.664777 0.374224 0.636586 
1.702446 0.513614 0.995930 -0.503626 -0.233125 0.799143 
-1.680794 -0.641092 1.248913 -0.305574 -0.458273 -0.797401 
-0.842748 -0.413363 0.472787 -0.654398 -0.051761 -0.749488 
1.680364 0.479362 0.934416 0.572386 -0.265943 -0.774928 
2.550864 -0.051173 2.202492 0.956093 -0.218918 -0.120107 
1.691033 -0.870355 1.487612 0.669395 -0.547139 -0.487094 
-2.543134 -0.447125 1.494816 -0.436285 -0.423974 -0.789012 
-3.124759 0.079273 1.822121 -0.748064 -0.246223 -0.604641 
-1.506554 -0.287148 0.951836 -0.500078 -0.250674 -0.821340 
1.818040 0.139748 1.063556 -0.697193 -0.050895 0.626422 
0.523111 -0.134960 0.220073 -0.265271 -0.125158 0.908681 
0.402058 0.674912 0.228249 0.448858 0.393258 0.729393 
2.399086 0.417513 1.700369 -0.775658 0.067038 0.525739 
-1.134792 0.669494 0.675420 -0.485763 0.165462 -0.855629 
-0.082124 0.840790 0.391304 -0.193147 -0.078325 0.972557 
-0.775000 -0.347349 0.454942 0.543792 0.008430 0.813252 
1.223580 -0.745011 0.719600 -0.624593 0.145687 0.765221 
-0.215014 -0.096183 0.196463 -0.369007 -0.165139 0.869119 
-0.212793 0.779068 -0.114496 -0.536282 0.470949 -0.687682 
0.026683 -0.610452 -0.090832 0.295814 -0.463596 -0.827339 
-1.794542 -1.000035 1.512343 -0.328866 -0.501096 -0.794629 
1.251443 0.530110 0.667825 0.474147 0.058920 -0.857103 
-0.934322 -0.726124 0.579812 0.668272 0.007274 0.733034 
-3.089705 0.108733 1.759303 -0.734109 -0.233332 -0.625805 
-0.431902 0.274611 0.248225 0.416303 -0.270628 0.863186 
-1.098035 0.290167 0.677356 0.457295 -0.182717 0.855034 
-2.673690 0.132233 1.373199 0.504158 0.110975 0.824869 
-2.811210 0.040883 1.464483 -0.392828 -0.464775 -0.789039 
0.042202 0.769213 -0.186580 0.408369 0.366433 -0.827817 
0.689489 -0.218832 0.284629 0.661314 -0.059514 -0.738430 
-0.661105 -0.308748 0.269104 -0.686559 -0.084652 -0.717856 
-0.369697 -0.971687 0.148979 0.155002 0.055980 0.971337 
-0.050970 0.129864 0.251488 -0.085635 -0.213685 0.968129 
0.782334 0.152991 0.468336 -0.481433 -0.168502 0.856105 
-0.471568 -0.323687 0.128161 0.118129 -0.074502 0.945116 
-0.295275 -0.708553 -0.032996 -0.502216 -0.238785 -0.823053 
-0.711958 0.122968 0.431758 0.507813 -0.162297 0.835242 
-2.812878 0.254038 1.426212 0.486081 0.137015 0.835561 
1.778219 0.611647 1.043024 -0.522487 -0.279804 0.776693 
-0.131443 0.533302 0.385876 -0.204738 -0.260514 0.940928 
-0.588412 -0.247700 0.258029 0.297651 -0.066814 0.887862 
0.757222 -0.515307 0.424825 -0.465525 -0.018935 0.859642 
-1.420200 0.553719 0.883153 0.402056 -0.264370 0.870290 
1.872358 0.361658 1.132728 -0.590596 -0.073168 0.722254 
-2.359240 -0.515407 1.421522 -0.464606 -0.391629 -0.788076 
2.094227 0.671411 1.291658 0.867795 -0.018278 -0.489134 
0.529965 0.596530 0.310550 -0.446472 0.400713 0.795824 
2.008136 0.148231 1.199949 0.837057 -0.121023 -0.486550 
0.214862 0.282109 -0.295172 0.671818 0.021247 -0.725035 
0.393961 -0.659085 0.070178 0.570599 -0.160471 -0.782459 
-2.501236 0.058331 1.277493 -0.294148 -0.280993 -0.902698 
1.486288 -0.280443 0.829361 0.614250 -0.202921 -0.757385 
1.597669 -0.868454 1.371186 -0.692260 0.524424 0.473493 
-1.683291 -0.253914 1.067513 0.489503 0.197602 0.837085 
-0.080572 0.596592 0.406211 -0.153242 -0.252737 0.950241 
0.123760 1.154309 -0.030044 0.554171 0.264720 -0.767579 
-0.577497 -0.370672 0.231025 0.242573 -0.033423 0.905784 
2.409461 0.594315 1.664101 -0.728339 0.089503 0.635588 
2.216238 -0.383968 1.603665 0.767519 -0.374384 -0.503248 
-2.995077 -0.409532 1.947935 -0.685960 -0.377302 -0.613931 
0.142046 -0.408455 -0.220593 0.421154 -0.345475 -0.826891 
-0.298470 0.925345 0.119156 -0.919838 0.334022 -0.162683 
-2.618593 0.413746 1.374577 0.414214 0.058290 0.855796 
2.426934 -0.290556 2.149303 0.814227 -0.467327 -0.295306 
-1.991860 -0.266223 1.211519 0.110551 0.244062 0.905187 
-0.893318 0.621952 0.526999 -0.490223 0.128956 -0.854763 
-2.001328 -0.349385 1.195568 -0.426441 -0.357489 -0.816021 
-2.573984 -0.094187 1.366502 0.530076 0.199840 0.791077 
0.257816 -0.637393 -0.051687 0.010734 -0.384003 -0.877871 
-0.152897 0.727580 -0.165363 -0.477278 0.447249 -0.729728 
1.885277 0.449304 1.130541 -0.464880 -0.164253 0.824465 
-1.568693 0.245855 0.951340 -0.504556 -0.293321 -0.807503 
0.271789 0.773589 -0.083822 0.590705 0.507682 -0.610789 
0.246585 1.236818 0.453210 0.704893 -0.050816 -0.698891 
-1.997338 0.624121 1.132426 -0.391156 -0.350336 -0.831053 
2.064675 -0.688790 1.703397 0.745561 -0.502940 -0.429863 
1.729566 0.601636 0.961829 0.564168 -0.270675 -0.779549 
-0.122934 0.951540 0.389641 -0.227689 -0.022359 0.969265 
-0.129177 -0.077288 -0.299319 -0.509706 -0.115020 -0.833965 
1.945246 0.028269 1.189644 -0.646867 0.076395 0.717216 
-2.944216 0.192283 1.523655 -0.716381 -0.143048 -0.675013 
1.977556 -0.082048 1.221627 -0.520074 0.160601 0.829630 
-2.632121 -0.126732 1.409309 -0.407036 -0.395870 -0.814446 
-0.697729 0.052538 0.304432 -0.721464 -0.088996 -0.674231 
1.650977 -0.314888 0.921842 0.617058 -0.244528 -0.747456 
-0.257315 -0.315625 -0.186903 -0.548191 -0.238546 -0.789763 
1.112622 0.594860 0.630639 0.388997 0.281792 -0.864994 
-0.537794 -0.267893 0.205115 0.227203 -0.074091 0.910598 
0.700687 -0.230582 0.357247 -0.392856 -0.061448 0.872979 
2.094890 0.429380 1.312073 -0.609635 -0.155472 0.718749 
0.603081 -0.616687 0.324043 -0.337473 0.019366 0.904390 
2.469870 -0.123855 1.953010 -0.927161 0.220078 0.226865 
0.337218 0.307108 0.237987 0.075439 -0.219952 0.968028 
-0.805129 0.176029 0.414010 -0.678624 -0.134987 -0.716262 
0.232035 1.079396 0.060242 0.856352 0.380458 -0.327336 
1.436581 0.048214 0.833373 -0.498155 -0.016894 0.818157 
2.197031 -0.315830 1.539353 -0.710054 0.339720 0.580306 
-1.428037 0.404083 0.894478 0.413252 -0.181132 0.867193 
-1.195646 0.333845 0.744622 0.424919 -0.177908 0.869163 
2.294629 -0.496193 1.999512 0.795442 -0.477483 -0.341328 
1.134298 -0.188689 0.631491 0.607669 -0.117141 -0.778493 
-1.365799 -0.701438 1.028947 -0.578323 -0.324303 -0.727647 
1.303964 0.619047 0.740048 0.254773 0.469487 -0.800273 
-3.233739 0.205527 1.941220 0.829931 0.099146 0.525132 
0.099183 0.492514 -0.303096 0.502153 0.247807 -0.813167 
-1.315610 -0.045079 0.833664 0.479861 0.032606 0.843573 
0.832144 -0.031133 0.436136 0.637836 -0.079830 -0.758872 
-0.492228 -0.502915 0.168714 0.163104 -0.021365 0.938959 
-0.988889 -0.369139 0.639724 0.628717 0.067474 0.763584 
0.577419 -0.202435 0.163749 0.696455 -0.072075 -0.702306 
1.562554 0.284769 0.868277 0.586594 -0.256772 -0.767330 
-1.183824 -0.060880 0.742211 0.514120 0.005696 0.828784 
-1.957931 -0.675531 1.383064 0.030704 0.403439 0.876063 
-0.047168 0.008108 0.231245 -0.110083 -0.144029 0.979055 
2.101757 0.347006 1.315132 -0.625117 -0.113416 0.721762 
0.212611 0.693802 0.374999 0.318691 0.264457 0.881352 
1.718740 -0.809455 1.461694 -0.524552 0.509152 0.636013 
0.241816 -0.491292 0.160147 0.438206 -0.115301 0.887451 
0.064354 0.682725 -0.227273 0.346954 0.499688 -0.780398 
1.808966 -0.659670 1.407081 -0.445200 0.464247 0.715254 
-1.183529 -0.146332 0.743264 0.532901 0.046035 0.820270 
-0.444434 -0.131439 0.027028 -0.762791 -0.085109 -0.633879 
-1.672862 -0.963374 1.443169 -0.385855 -0.505437 -0.761715 
1.604472 -0.912042 1.429422 -0.671811 0.538497 0.492583 
-2.514494 0.138852 1.276853 -0.258673 -0.263710 -0.915684 
-0.268925 0.923443 0.050062 -0.814290 0.302517 -0.401464 
0.195532 0.041521 0.213664 0.230269 -0.203261 0.930434 
0.078819 -0.373278 -0.253668 0.381581 -0.353623 -0.838004 
0.894824 0.185991 0.536664 -0.469923 -0.169863 0.861299 
0.867039 0.040351 0.469731 0.629738 -0.106195 -0.766626 
2.244082 0.201562 1.447656 -0.696335 0.030491 0.697579 
-0.508647 0.243696 0.098829 -0.787419 -0.090806 -0.597539 
-2.708089 -0.257793 1.532049 -0.431548 -0.466382 -0.768808 
2.386949 -0.264479 1.858868 0.741278 -0.508109 -0.437078 
0.915257 -0.771214 0.508743 -0.562805 -0.043780 0.821644 
-0.157209 -0.059154 0.220999 -0.213656 -0.137020 0.955497 
-1.093104 -0.834218 0.796609 0.699242 0.169760 0.686207 
-0.537790 -0.912677 0.262472 0.323641 0.014931 0.896010 
2.209737 0.290960 1.418079 -0.670469 -0.029538 0.700403 
-1.346525 -0.775793 1.076517 -0.577289 -0.363313 -0.709290 
-0.217055 -0.014681 0.202906 -0.293426 -0.192086 0.900235 
-1.944016 -0.608130 1.358088 0.194435 0.397884 0.889443 
1.814280 0.802397 1.025346 0.216289 0.594554 -0.660269 
0.522708 -0.814222 0.261744 -0.264183 0.030664 0.930324 
-0.862695 0.271919 0.442597 -0.690673 -0.012635 -0.722014 
-0.295045 -0.167917 -0.158681 -0.622810 -0.191495 -0.730733 
-0.617390 0.018189 0.220367 -0.751053 -0.067984 -0.643559 
-3.070795 -0.246078 1.936790 -0.743313 -0.310388 -0.582204 
-2.077487 0.070464 1.165210 0.139915 0.053801 0.969701 
1.798456 0.216712 1.050753 -0.651170 -0.085840 0.670280 
1.708532 -0.134822 0.954059 0.603520 -0.252049 -0.755273 
0.031921 0.097092 0.242344 0.081678 -0.188962 0.975741 
0.870763 -0.700404 0.472767 0.572105 0.011663 -0.817792 
1.336153 -0.214465 0.744650 0.610587 -0.170987 -0.766222 
-1.633781 0.772816 0.982103 -0.123711 0.657781 -0.678510 
-0.061818 0.032940 -0.351332 -0.484882 -0.072978 -0.849335 
0.215630 0.593197 0.369335 0.246394 -0.197052 0.928030 
1.077576 -0.801269 0.625642 0.612040 -0.117134 -0.775539 
-2.607675 -0.403544 1.521951 -0.434394 -0.452779 -0.776762 
2.399862 0.649499 1.612062 0.837944 0.076140 -0.535061 
-0.396590 0.100475 -0.021724 -0.807841 -0.075687 -0.579330 
1.919488 0.390318 1.086882 0.859608 -0.099169 -0.494763 
-0.765550 -0.719480 0.413117 -0.627843 -0.041920 -0.763063 
0.360343 0.136198 -0.057988 0.778688 -0.103862 -0.593767 
-3.187034 -0.034071 1.968347 -0.785331 -0.274079 -0.549216 
-1.180536 -0.449269 0.769996 -0.616459 -0.184546 -0.749595 
-3.038062 0.086301 1.707597 0.657335 0.288724 0.669270 
1.559572 -0.535444 0.974949 0.641463 -0.343314 -0.657459 
0.322193 -0.479340 -0.086993 0.624712 -0.182529 -0.740712 
-2.666819 -0.328714 1.533540 -0.434603 -0.462638 -0.770138 
-2.994584 0.390172 1.536953 -0.656102 -0.127253 -0.726800 
2.230806 -0.115157 1.458478 -0.744466 0.226217 0.617341 
-1.687343 0.306309 1.026016 -0.473135 -0.305387 -0.824822 
1.613979 0.184452 0.935744 -0.527870 -0.068640 0.794782 
-0.801328 0.448361 0.479886 0.501847 0.284815 0.798718 
1.989999 -0.605345 1.543790 -0.543685 0.454972 0.631460 
0.441356 -0.654656 0.153042 -0.127603 0.008191 0.962919 
-0.520600 0.404443 0.093554 -0.816978 0.095307 -0.541355 
-2.091725 -0.123269 1.162263 -0.571315 -0.147627 -0.792336 
0.234356 -0.044497 -0.239044 0.595356 -0.121958 -0.765765 
-0.172874 0.160402 0.251535 -0.174777 -0.233768 0.955149 
-0.119267 -0.786146 -0.024004 -0.010642 -0.396750 -0.915241 
-2.442280 -0.304306 1.352814 -0.417653 -0.324011 -0.842448 
1.068673 0.422330 0.556287 0.540696 0.051108 -0.818652 
-0.136390 -0.002900 -0.305622 -0.534678 -0.083234 -0.819539 
1.652709 -0.855248 1.423835 0.599530 -0.551037 -0.565742 
1.885292 -0.781119 1.609118 -0.637812 0.507724 0.537578 
-0.056703 -0.455657 0.208103 -0.124353 -0.183619 0.972639 
-0.510245 0.566319 0.124747 -0.818407 0.311018 -0.457991 
-0.214516 1.144183 0.156567 -0.884598 0.456816 -0.080055 
-2.602492 -0.480722 1.566398 0.539734 0.338442 0.741567 
1.087443 0.024544 0.640821 -0.493161 -0.090056 0.841082 
-1.236249 0.430385 0.711551 -0.605153 -0.269742 -0.746422 
2.157034 -0.309412 1.461237 0.785965 -0.349861 -0.492791 
-0.979099 0.442208 0.594459 0.550550 0.360791 0.749056 
-1.106418 -0.038649 0.688031 0.527341 -0.025013 0.823226 
-0.588067 0.336050 0.394326 0.476559 -0.078672 0.857825 
-0.065138 1.238681 0.264521 0.104469 0.820647 0.524652 
0.119958 -0.138135 0.222011 0.185310 -0.086321 0.971951 
-0.007530 -0.770900 0.170494 -0.483968 -0.075249 0.865217 
2.071786 -0.599941 1.624699 -0.608212 0.457066 0.574729 
0.248694 0.416383 0.315760 0.126107 -0.236644 0.957237 
-0.208976 0.027643 -0.264291 -0.599275 -0.085013 -0.769037 
-2.700758 -0.124719 1.459101 -0.409563 -0.438054 -0.794211 
-0.295645 0.844759 0.044537 -0.802887 0.394549 -0.380326 
-0.198420 -0.130521 -0.249221 -0.550097 -0.149163 -0.799362 
-1.502500 -0.180101 0.941968 -0.506823 -0.265923 -0.813944 
0.301703 0.233815 0.230893 0.125178 -0.262813 0.954577 
0.119785 -0.820471 0.133058 0.097180 -0.075438 0.975863 
-0.222333 -0.689367 -0.041868 -0.061998 -0.377552 -0.907090 
0.238989 0.654946 -0.188114 0.501204 0.411024 -0.749582 
0.486972 -1.023605 0.203979 0.434778 -0.027466 -0.878338 
-1.068438 0.656153 0.634587 -0.486674 0.155915 -0.855394 
1.372184 -0.871544 1.078911 -0.699104 0.529841 0.477214 
0.259216 -0.959126 0.131067 0.005174 0.111061 0.970195 
-1.532668 -0.895206 1.347588 -0.444179 -0.507495 -0.726332 
-0.326664 0.450755 -0.194705 -0.670267 0.095507 -0.729012 
-0.851405 0.322710 0.540723 0.493013 0.139148 0.827416 
2.344377 -0.378382 1.943319 0.771632 -0.490972 -0.382705 
-1.982489 -0.046394 1.152675 0.491165 0.070240 0.864148 
-1.831273 0.616318 1.130650 0.089983 -0.107098 0.971004 
-1.936948 0.828894 1.112933 -0.404506 0.276974 -0.807978 
0.245146 0.034107 -0.242825 0.625953 -0.090614 -0.746035 
-1.690199 0.391594 1.065715 0.415711 -0.139028 0.858345 
1.297572 0.706029 0.751709 0.355482 0.314007 -0.801404 
-2.326890 0.067533 1.218815 -0.308952 -0.094329 -0.935398 
1.014543 0.494770 0.566556 0.400978 0.353692 -0.831370 
-2.270110 -0.750861 1.527870 0.351147 0.432927 0.808367 
-0.649570 -0.252118 0.314380 0.366187 -0.049087 0.865072 
-0.048021 -0.069333 0.228287 -0.121968 -0.106401 0.980491 
0.575440 0.511160 0.173246 0.758859 0.311478 -0.529402 
-2.652275 0.451458 1.315073 -0.491033 0.023933 -0.864505 
2.313067 -0.407882 1.854621 0.752575 -0.501567 -0.421369 
2.319547 0.187884 1.507366 0.648682 -0.197883 -0.710584 
2.562688 -0.057361 2.347972 -0.895368 0.368546 0.182370 
0.703095 -0.097445 0.395863 -0.471345 -0.103436 0.850405 
1.923395 0.813371 1.183875 -0.600471 0.119432 0.740316 
2.248897 0.623112 1.519040 -0.666320 0.030854 0.671951 
0.067382 -0.517278 0.191596 0.168976 -0.178894 0.964906 
-0.697478 -0.085352 0.306903 -0.719183 -0.069008 -0.680843 
-1.179685 -0.369290 0.746799 -0.601810 -0.170649 -0.764524 
-2.630116 -0.041169 1.385074 0.568189 0.170859 0.769343 
-2.412743 -0.091247 1.271713 0.373796 0.219946 0.896534 
0.383738 -0.304347 -0.049560 0.734731 -0.102479 -0.666722 
2.488886 -0.276303 2.487096 0.909305 -0.394354 -0.116744 
-1.298456 0.557664 0.718989 -0.499217 0.071351 -0.846528 
2.504472 -0.186510 2.299719 0.929978 -0.303874 -0.131247 
-2.284427 -0.541045 1.405066 -0.489449 -0.408295 -0.766811 
-2.150993 0.699992 1.223221 0.162662 -0.030924 0.944221 
-1.079159 0.460502 0.590277 -0.467300 0.245075 -0.836412 
-3.214848 0.261220 1.882428 0.830375 0.058360 0.531491 
-1.174500 0.253921 0.680721 -0.612525 -0.232615 -0.748803 
-0.262779 -0.400448 0.168762 -0.511436 -0.115545 0.827864 
0.183044 0.793131 -0.116309 0.517839 0.443456 -0.719533 
2.117810 -0.638534 1.707902 0.764429 -0.489625 -0.415616 
-1.551004 0.678015 0.880675 -0.427092 0.212533 -0.828955 
2.572361 0.072159 2.023676 -0.834092 0.407296 0.341447 
1.207576 -0.833174 0.731676 -0.633639 0.174989 0.743930 
-0.965185 -0.446805 0.623284 -0.677769 -0.128685 -0.717724 
0.805671 -0.670022 0.432145 0.558541 -0.024361 -0.821513 
0.859519 -0.817412 0.462861 0.561462 0.018811 -0.824268 
0.096412 1.272646 0.191504 0.230937 0.895754 0.356190 
0.266995 -1.030935 0.131489 -0.024624 0.144614 0.969012 
-0.873831 0.138317 0.482936 -0.657284 -0.140660 -0.739184 
-0.231521 0.196302 -0.273282 -0.660533 -0.018873 -0.729555 
-0.008252 -0.012968 -0.362695 -0.428954 -0.134134 -0.857961 
0.603708 0.637950 0.343351 -0.457793 0.317424 0.809942 
-1.245883 -0.522873 0.847410 0.603755 0.176358 0.760097 
-0.189531 -0.345189 -0.214725 -0.486124 -0.272471 -0.815637 
0.209245 1.109593 0.370625 0.643000 0.511237 -0.539907 
-2.792411 -0.447500 1.750164 -0.568329 -0.414304 -0.690533 
-1.729941 0.671007 1.023217 -0.474028 -0.319631 -0.818872 
-0.258788 0.765776 0.348063 -0.482253 0.279675 0.823191 
-0.198823 1.237068 0.406822 0.555343 0.542341 0.583657 
-0.114970 -0.836595 0.130639 -0.122659 -0.075513 0.977253 
-0.268946 0.416751 0.305559 -0.110092 -0.224905 0.962230 
-3.371664 0.131303 2.224282 -0.866380 -0.182902 -0.454458 
-1.556911 -0.476918 1.076203 -0.491398 -0.320252 -0.799305 
0.506499 0.548194 0.077911 0.837553 0.245051 -0.484646 
0.058575 0.453558 0.366797 0.084748 -0.298714 0.945858 
0.696691 0.223864 0.290092 0.708530 -0.121419 -0.681363 
0.092827 0.260430 -0.368936 0.569595 0.036602 -0.806817 
-0.074039 1.308680 0.129167 -0.436715 0.813653 0.340484 
-0.342859 0.075036 -0.092399 -0.742454 -0.119669 -0.627487 
-1.645179 0.597492 1.027836 0.400106 -0.258166 0.863732 
-2.513271 0.539955 1.275522 -0.487568 -0.014555 -0.869613 
-0.577031 0.575892 0.323112 -0.694907 0.528855 -0.448493 
-0.402699 0.540937 -0.074936 -0.718644 0.225246 -0.625548 
-0.454121 0.247978 0.041175 -0.807546 -0.081337 -0.575791 
-0.696187 -0.671452 0.382102 0.475950 -0.003702 0.834088 
-1.260966 0.418571 0.785082 0.411198 -0.211549 0.872955 
-1.333416 0.546372 0.826946 0.402097 -0.272002 0.873001 
-2.695207 -0.042522 1.416183 -0.400929 -0.413185 -0.809238 
2.680777 0.359061 2.091234 0.954133 -0.156006 -0.233311 
2.544482 -0.025264 2.119689 -0.842620 0.420606 0.301073 
-2.959239 0.321375 1.514407 -0.636783 -0.160181 -0.742811 
-0.441654 -1.002608 0.182809 -0.485447 -0.132994 -0.844718 
-2.846300 0.422338 1.419828 -0.536111 -0.065096 -0.826352 
0.764410 -0.728367 0.414849 -0.461681 -0.033778 0.861471 
-2.345536 -0.059095 1.232982 -0.360505 -0.162987 -0.907965 
-2.001659 0.284362 1.124221 -0.498496 -0.185530 -0.815848 
0.713716 -0.480402 0.378224 0.549337 -0.091296 -0.819771 
1.250857 -0.532809 0.727854 -0.610809 0.122991 0.775312 
1.821482 -0.371873 1.141728 -0.799730 0.301829 0.442741 
-0.460645 -0.428376 0.110894 0.082534 -0.047358 0.958095 
-0.444392 0.486121 -0.012137 -0.795961 0.162758 -0.556030 
1.640857 -0.514046 1.063457 -0.713393 0.347163 0.549110 
-0.109003 -0.703785 -0.058020 -0.004805 -0.421531 -0.905594 
-1.771952 -0.920992 1.455255 -0.319009 -0.493706 -0.795585 
1.969849 0.077852 1.120972 0.752746 -0.125131 -0.618010 
2.160355 0.500234 1.357998 0.662313 -0.371910 -0.633709 
1.769775 -0.241992 1.025842 -0.729226 0.153343 0.620254 
-0.068442 0.533043 -0.299497 -0.453789 0.302040 -0.821284 
1.873026 0.116540 1.102867 -0.776803 -0.049315 0.540641 
0.274043 -0.541282 -0.114011 0.480977 -0.285226 -0.821313 
-2.343396 0.352892 1.225756 -0.280100 -0.272271 -0.897667 
0.295429 -0.192585 0.165023 0.498487 -0.162243 0.795963 
0.483409 0.017113 0.069305 0.761417 -0.068869 -0.629585 
1.226961 0.238418 0.724771 -0.429983 -0.151963 0.859086 
-1.040340 -0.866816 0.718266 0.693186 0.105431 0.697990 
-0.009951 0.822782 -0.186188 -0.395694 0.364075 -0.841730 
1.199534 0.468222 0.717636 -0.368419 -0.267376 0.886309 
0.353591 -0.091376 0.116450 0.077477 -0.182664 0.969894 
1.536918 -0.728571 1.126981 0.622189 -0.517834 -0.561611 
2.494262 0.398424 1.682294 0.856656 0.056850 -0.498576 
0.529405 0.339303 0.347251 -0.455178 -0.113715 0.862236 
-0.011382 0.085978 -0.383653 -0.458303 -0.062387 -0.860050 
-1.522328 -0.040639 0.974373 0.446942 0.075801 0.855655 
-3.152548 -0.096958 1.960921 0.750022 0.304068 0.571485 
2.634454 0.117461 2.666881 -0.968777 0.207315 0.032064 
-1.793510 0.794972 1.045470 -0.221837 0.439965 -0.790844 
-2.925879 -0.252971 1.772868 0.699720 0.270517 0.638825 
-2.714841 0.039794 1.405655 -0.363241 -0.412146 -0.823873 
0.168067 -0.545901 -0.115724 0.153731 -0.488142 -0.840082 
-0.238129 -0.909757 0.037381 -0.111926 -0.323003 -0.934422 
-1.901231 -0.852570 1.474416 0.270040 0.445964 0.844983 
-1.938850 -0.914731 1.515358 0.241748 0.457687 0.834309 
0.970394 0.182370 0.580141 -0.455741 -0.171122 0.863214 
0.813114 -0.887310 0.431737 0.545577 0.003142 -0.831288 
0.745694 0.547673 0.421139 0.563399 0.323066 -0.692515 
2.077106 -0.078736 1.271313 0.871339 -0.120619 -0.449758 
-0.706658 -0.208564 0.314895 -0.698499 -0.074893 -0.706248 
0.186823 1.097211 0.001961 0.680312 0.330003 -0.587922 
-2.720352 0.194509 1.375398 -0.263480 -0.398206 -0.867353 
-0.607855 -0.861794 0.311575 0.392999 0.000660 0.865895 
2.670047 0.265494 2.521610 -0.982471 0.083938 0.039241 
2.034267 -0.275988 1.330366 -0.470316 0.313335 0.779339 
-0.091853 0.247930 0.291427 -0.100749 -0.281328 0.946919 
-1.457099 -0.781868 1.245446 0.507723 0.445585 0.726783 
2.362432 -0.188475 1.720691 0.749906 -0.424350 -0.490444 
1.940602 0.148379 1.106665 0.567253 -0.140413 -0.766756 
2.614076 0.119526 2.183143 0.950378 -0.221601 -0.176315 
-0.348144 -0.466168 -0.057512 -0.705400 -0.116991 -0.687852 
-0.302183 0.850020 0.258938 -0.813351 0.319490 0.429042 
1.606909 -0.458525 0.959059 0.632006 -0.304033 -0.693662 
1.504533 -0.179443 0.838384 0.611217 -0.225705 -0.755638 
0.525338 0.600168 0.237931 0.751717 0.465292 -0.428506 
1.415509 0.430988 0.783742 0.582641 -0.253872 -0.771585 
-2.352903 -0.214964 1.262245 -0.421622 -0.282527 -0.857610 
2.130413 0.735756 1.389488 -0.698412 0.044192 0.698717 
-0.419609 0.664669 -0.000879 -0.710513 0.555453 -0.374215 
-0.631892 0.202512 0.381648 0.476187 -0.206925 0.847221 
-1.362427 0.469122 0.793172 -0.570832 -0.281835 -0.765746 
0.339868 0.363046 -0.145010 0.733110 0.024156 -0.662884 
2.399049 -0.409883 2.328887 0.868208 -0.436987 -0.194880 
1.519547 0.159169 0.882902 -0.504988 -0.066173 0.810122 
1.997041 -0.061047 1.148483 0.815981 -0.122702 -0.557197 
-0.480982 0.536895 0.032938 -0.815144 0.222421 -0.519381 
-0.114988 0.035575 0.229234 -0.155104 -0.170301 0.969485 
-0.101289 1.159635 0.347952 0.276918 0.409065 0.850759 
-2.749894 -0.415435 1.682216 -0.526541 -0.429213 -0.715642 
-0.481147 0.655993 0.233468 -0.702638 0.619144 -0.291766 
2.629159 0.132037 2.281973 0.945396 -0.251901 -0.166336 
-0.395137 -0.174500 0.097385 0.106443 -0.141486 0.951042 
0.408664 0.074827 -0.009735 0.792920 -0.074123 -0.595850 
0.167584 0.176895 -0.310742 0.604998 -0.014089 -0.772497 
1.090353 -0.104338 0.637999 -0.533495 -0.031460 0.824103 
-0.338278 0.211655 -0.138491 -0.767402 -0.054343 -0.622857 
-0.813980 0.531363 0.471669 -0.526784 0.235928 -0.782701 
0.039363 -0.911493 0.029718 0.254494 -0.330497 -0.898963 
-0.373646 -0.244718 -0.053003 -0.759635 -0.094813 -0.639793 
-2.339173 0.166338 1.219131 -0.277586 -0.102943 -0.940860 
-2.547996 0.216465 1.293304 0.349689 0.077804 0.931591 
0.365704 0.219543 -0.062914 0.806137 -0.071654 -0.575724 
1.548750 0.431212 0.859664 0.578826 -0.259415 -0.772415 
-0.030041 1.050812 0.402251 -0.110180 0.169244 0.962393 
-1.441411 -0.884186 1.306063 0.510731 0.496704 0.700302 
-2.408376 -0.378713 1.369798 -0.430431 -0.336912 -0.830296 
-0.226532 -0.338210 0.181515 -0.439780 -0.058739 0.852873 
0.321151 0.488819 -0.199651 0.646608 0.143582 -0.739215 
-2.962116 -0.059738 1.697639 0.586037 0.393226 0.691497 
0.607906 0.309973 0.390960 -0.449469 -0.131136 0.870435 
1.555183 0.691267 0.943865 -0.522982 0.190247 0.773307 
-0.747042 0.546785 0.430262 -0.574145 0.315884 -0.689248 
1.173720 0.123728 0.691601 -0.464423 -0.113485 0.847911 
-0.430724 -0.537404 0.069190 -0.643773 -0.128727 -0.735189 
-0.206240 0.614230 0.378425 -0.296257 -0.196702 0.910423 
-0.294614 -0.852603 0.024564 -0.391625 -0.254875 -0.859969 
-1.585193 0.297517 1.001248 0.422110 -0.101474 0.860008 
2.640417 0.196610 2.166281 -0.945102 0.187117 0.226077 
-2.550284 0.533677 1.361587 0.371014 0.062428 0.866627 
-1.327485 -0.449966 0.883988 0.567691 0.185337 0.785577 
-2.339074 -0.388533 1.359432 0.287654 0.332835 0.859174 
-0.485475 -0.010865 0.074378 -0.773017 -0.076638 -0.620031 
-0.117661 -0.482542 -0.176316 -0.294105 -0.474365 -0.822249 
0.840996 0.509666 0.475728 0.493635 0.229814 -0.817402 
-1.663232 -0.566767 1.205820 0.547834 0.373353 0.733338 
-2.588269 0.416407 1.297633 -0.535917 0.081477 -0.831633 
-0.161130 1.255856 0.280595 0.239273 0.929474 0.179016 
1.175983 0.294945 0.649155 0.592670 -0.213041 -0.772941 
2.221424 0.495444 1.395744 0.726004 -0.172869 -0.647172 
-3.112236 0.247993 1.719030 0.766535 0.092965 0.607747 
-0.271584 0.597017 0.348146 -0.330720 -0.164740 0.886648 
2.511991 -0.066013 1.988990 0.755892 -0.500271 -0.399552 
2.293642 -0.331129 1.716336 0.755025 -0.431121 -0.477616 
-1.229647 -0.608682 0.857334 0.627413 0.189563 0.739453 
-0.970506 -0.876650 0.617639 0.683111 0.025313 0.715421 
-0.386797 -0.894793 0.143815 -0.477974 -0.193530 -0.848179 
1.778102 0.155939 0.996539 0.563725 -0.246505 -0.783454 
2.623671 0.096071 2.348939 0.946557 -0.264617 -0.138992 
-1.794046 0.723757 1.117269 0.140282 -0.188199 0.946331 
-0.528831 0.270238 0.316265 0.445776 -0.250820 0.856918 
-1.411386 0.588425 0.801825 -0.573215 -0.103135 -0.787934 
2.600556 -0.020365 2.595597 -0.952516 0.288701 0.058280 
-0.345186 -1.180197 0.161365 -0.290998 -0.122763 -0.907879 
-1.240918 -0.016447 0.745535 -0.581361 -0.211254 -0.773821 
1.591269 0.615979 0.938339 -0.456928 -0.300369 0.825305 
1.127480 0.526160 0.688836 -0.565325 0.219603 0.785218 
-0.210881 0.976864 -0.027196 -0.667081 0.273598 -0.673797 
0.164961 1.159965 0.397896 -0.270505 0.172084 0.876729 
-2.414975 0.548293 1.248106 -0.518378 0.012089 -0.848019 
0.394307 -0.144015 -0.032689 0.759328 -0.090485 -0.636762 
-0.388689 -0.504261 0.005816 -0.673576 -0.123314 -0.712183 
0.605230 0.021375 0.338342 -0.438785 -0.159624 0.859216 
-3.179034 0.210769 1.838921 0.816941 0.079937 0.545149 
0.328401 -0.798568 0.046000 0.522698 -0.192969 -0.808995 
0.538833 0.006716 0.273268 -0.362295 -0.167377 0.880849 
0.664553 -0.525822 0.345927 0.534451 -0.111027 -0.825842 
-0.617309 -0.786295 0.310922 -0.564803 -0.104313 -0.799464 
0.103197 -0.636273 -0.089548 0.028013 -0.438643 -0.897220 
2.609287 0.014225 2.674370 -0.957632 0.278146 0.042003 
-2.445394 0.685172 1.299030 0.327686 0.073322 0.932715 
-0.225034 -0.764300 0.119674 -0.132856 -0.062078 0.930011 
0.356880 -1.155827 0.164897 0.110967 0.056407 0.815838 
0.392393 -0.582472 0.072239 -0.028834 -0.017697 0.985490 
2.057755 -0.541148 1.551738 -0.537517 0.436805 0.641578 
0.478206 -0.196887 0.056433 0.726020 -0.083793 -0.672174 
1.889431 -0.507939 1.340219 -0.355435 0.418241 0.803822 
-1.508171 -0.527029 1.056917 -0.514921 -0.315950 -0.782568 
2.613690 0.507842 1.947652 -0.866199 0.060857 0.398576 
0.361871 -0.346213 0.066695 0.232139 -0.099144 0.912212 
0.539600 -0.051664 0.127867 0.733356 -0.066615 -0.660179 
1.634145 0.249287 0.909253 0.586528 -0.258968 -0.766519 
0.107050 0.274523 0.302699 0.120636 -0.287073 0.943595 
0.144989 -0.308424 0.214067 0.229847 -0.007414 0.971778 
1.146611 -0.057143 0.636841 0.603600 -0.143507 -0.776923 
-0.545660 -0.548926 0.214051 -0.602022 -0.129312 -0.770443 
1.070370 -0.270411 0.622408 -0.580862 0.033160 0.805097 
0.681240 0.175678 0.406066 -0.466879 -0.194628 0.856816 
0.546413 0.128260 0.139180 0.759053 -0.065248 -0.629071 
-0.015872 1.276955 0.207190 -0.103119 0.867673 0.481098 
-1.349530 0.043536 0.818745 -0.557254 -0.253658 -0.782189 
0.621187 -0.481041 0.307472 -0.316752 -0.006883 0.903646 
-1.398701 -0.415049 0.908240 -0.547511 -0.234858 -0.788794 
2.299436 -0.372894 1.785901 -0.825846 0.342255 0.380778 
2.093711 -0.408518 1.467074 0.793908 -0.399507 -0.440852 
1.955294 0.741583 1.136926 0.799134 -0.096772 -0.584208 
1.027469 -0.540395 0.593222 0.617469 -0.109067 -0.775361 
-1.935886 -0.236582 1.142139 -0.067284 -0.285634 -0.935444 
2.135385 -0.411040 1.541126 -0.632511 0.380842 0.609695 
-0.534925 0.109011 0.130789 -0.780722 -0.068808 -0.608927 
-2.004290 0.198915 1.122639 -0.534846 -0.156536 -0.804050 
-1.911125 -0.086168 1.110053 0.602116 0.054432 0.788358 
1.667051 -0.621964 1.171508 0.570603 -0.499354 -0.626926 
1.075379 0.311409 0.643596 -0.406843 -0.217391 0.877663 
-2.978318 0.162475 1.581632 -0.727138 -0.163942 -0.657486 
1.900621 0.200154 1.150321 -0.700149 -0.023391 0.629691 
-2.009246 0.702085 1.114882 -0.333521 -0.185055 -0.918434 
1.599530 0.503165 0.888233 0.573367 -0.263106 -0.775269 
1.754579 -0.463633 1.123951 0.551925 -0.408565 -0.706671 
-0.316159 0.784066 0.284836 -0.715227 0.351572 0.530587 
-0.803352 -0.861561 0.438896 0.591565 -0.054470 0.774948 
0.778252 0.610630 0.449748 -0.500015 0.134634 0.838115 
0.847927 0.134060 0.508449 -0.490522 -0.151091 0.855347 
0.459722 -0.583603 0.151514 -0.125821 -0.006737 0.959737 
-2.875683 0.271653 1.463021 0.547642 0.128271 0.804114 
0.464039 0.235925 0.051757 0.798550 -0.077725 -0.586156 
-0.394129 -1.042471 0.135861 -0.437021 -0.062852 -0.873738 
-1.154878 0.602875 0.697780 0.579516 0.272672 0.745131 
1.736123 0.790800 1.007750 -0.541800 0.705282 0.432327 
-1.834632 0.342606 1.103710 0.492955 -0.140703 0.826560 
1.585465 0.416761 0.928179 -0.485080 -0.195279 0.814127 
2.160061 -0.471515 1.608513 0.774590 -0.418270 -0.457255 
1.696789 0.167390 0.980710 -0.553802 -0.049974 0.778925 
-0.385122 -0.123998 -0.038257 -0.775803 -0.087937 -0.619408 
-0.362112 0.657134 0.288896 -0.497258 0.110373 0.767737 
-0.348911 -0.238396 0.101923 -0.243690 -0.142488 0.906418 
-2.478773 -0.136759 1.300675 -0.401958 -0.303066 -0.858757 
1.937524 -0.795417 1.678007 0.704893 -0.530881 -0.460548 
0.335312 -0.234456 -0.095979 0.690328 -0.154506 -0.683030 
1.264161 0.384385 0.697737 0.589557 -0.246557 -0.769005 
2.650491 0.216686 2.235392 -0.958644 0.135917 0.160416 
-0.046107 -0.487515 -0.191499 -0.202560 -0.554295 -0.793374 
0.397229 -0.788550 0.126448 0.499994 -0.185544 -0.828857 
0.448945 0.654907 0.045838 0.752073 0.553712 -0.320892 
1.716755 -0.764126 1.401354 0.570617 -0.532033 -0.607618 
-2.224365 -0.507971 1.374904 0.114150 0.372760 0.861200 
0.838128 0.581244 0.486988 -0.511735 0.094653 0.843536 
0.674122 -0.607215 0.350082 0.531223 -0.097318 -0.828965 
0.379463 -0.495557 0.028886 0.024101 -0.041570 0.995105 
0.508257 -0.530601 0.158625 0.592742 -0.126254 -0.776316 
-0.916551 0.138288 0.561802 0.513633 -0.140927 0.835767 
0.155048 1.202554 0.043597 0.775686 0.495418 -0.368235 
1.240512 -0.861088 0.827076 -0.652978 0.278860 0.665240 
-0.320369 0.189181 0.206260 -0.118930 -0.263145 0.956348 
1.531588 0.715729 0.881970 0.135642 0.617228 -0.703404 
1.307887 -0.606545 0.752219 0.622464 -0.185570 -0.757515 
-1.681731 -0.894154 1.405821 0.436842 0.472989 0.749601 
-1.849869 0.668448 1.073522 -0.599949 -0.219396 -0.753456 
-0.081720 -0.317934 -0.264469 -0.405978 -0.310820 -0.836221 
-0.589407 0.265916 0.357127 0.453198 -0.233523 0.857738 
-0.846773 -0.199722 0.469578 -0.671802 -0.066842 -0.735419 
-1.622962 0.355754 0.978396 -0.493103 -0.301217 -0.812507 
1.733928 0.738617 0.939215 0.438624 0.177412 -0.878846 
2.380255 -0.303577 1.931029 0.762208 -0.496357 -0.397820 
0.152156 1.177177 0.296414 0.942573 -0.060607 -0.199205 
-2.084693 0.499305 1.154357 -0.361974 -0.280092 -0.860928 
0.168765 0.168916 0.256726 0.175786 -0.236774 0.954213 
-1.501060 0.184909 0.951145 0.430010 -0.050937 0.860634 
-0.090631 1.270363 0.198244 -0.195448 0.902567 0.362919 
-2.563076 0.350594 1.301757 0.207142 0.231121 0.935803 
2.671748 0.280760 2.280099 -0.977683 0.045775 0.088187 
-0.523586 0.489589 0.091393 -0.830056 0.181351 -0.509366 
-0.257662 -0.229982 -0.198430 -0.570627 -0.202732 -0.776740 
1.134735 -0.761827 0.672146 -0.620465 0.122492 0.771424 
-1.907139 0.711953 1.108595 -0.420452 -0.386052 -0.809718 
0.247063 0.263778 0.267705 0.159974 -0.286138 0.943473 
1.511329 -0.520592 0.867684 0.623947 -0.237272 -0.739652 
0.830070 0.280781 0.531710 -0.451370 -0.096770 0.885761 
0.077659 0.387561 0.345058 0.093671 -0.313503 0.939002 
0.356747 0.780771 0.153607 0.887777 0.409314 0.005591 
0.251649 -0.180145 -0.209954 0.570844 -0.183289 -0.776784 
1.474020 -0.704006 1.046304 -0.682635 0.434350 0.550562 
1.870383 -0.842794 1.655079 -0.689573 0.527266 0.488072 
0.532525 0.404307 0.381704 -0.492504 0.044156 0.852193 
2.524034 -0.157651 2.377232 -0.894030 0.386293 0.175908 
-0.442586 -0.059560 0.026234 -0.774155 -0.081485 -0.619830 
0.299618 0.901552 0.095070 0.895384 0.313280 -0.250560 
-2.819856 -0.380023 1.735744 -0.557614 -0.420421 -0.694236 
-1.626259 -0.756942 1.298835 -0.353251 -0.485269 -0.767932 
1.318677 -0.533864 0.764502 -0.614970 0.142697 0.769771 
-0.769041 -0.071041 0.383549 -0.697812 -0.077749 -0.703481 
-2.474538 0.223628 1.270454 0.325074 0.046835 0.937059 
0.302951 0.274622 -0.238818 0.739102 0.000298 -0.669771 
-2.826975 -0.300483 1.691000 -0.528319 -0.433080 -0.709204 
-2.751617 0.128708 1.420439 0.593633 0.094228 0.763726 
-1.802941 -0.671664 1.314439 -0.231315 -0.463249 -0.829273 
-0.396432 -0.733639 0.121819 0.107838 0.012441 0.971673 
-1.553193 -0.525399 1.133298 0.487812 0.331621 0.794916 
1.949300 -0.701698 1.590527 0.736236 -0.504172 -0.436747 
2.633724 0.116560 2.528008 -0.966318 0.185408 0.054281 
-1.282888 -0.300881 0.797426 -0.559470 -0.185519 -0.792898 
-0.281597 -1.100134 0.134617 -0.161077 0.186189 0.886757 
0.416175 0.173565 0.001741 0.807779 -0.066615 -0.577692 
1.126144 0.365673 0.619711 0.592666 -0.213248 -0.773286 
-1.623844 -0.472112 1.124443 -0.429190 -0.351209 -0.813108 
0.139562 0.543037 0.387503 0.216376 -0.255725 0.940567 
1.819715 -0.464853 1.194062 0.514912 -0.451269 -0.716154 
0.784805 -0.211711 0.388151 0.635057 -0.047425 -0.764812 
-1.882404 0.786833 1.075571 -0.363761 -0.151388 -0.918344 
-2.154967 -0.579711 1.391463 0.097339 0.389092 0.860321 
2.208453 -0.512165 1.715590 0.761098 -0.442520 -0.459769 
2.672049 0.278626 2.192323 0.957644 -0.192492 -0.187196 
0.327740 0.827827 0.093457 0.876152 0.410140 -0.238828 
-0.738981 -0.016305 0.350118 -0.707720 -0.083027 -0.691135 
-0.540593 0.642798 0.307160 -0.720381 0.504368 -0.421001 
-0.835015 -0.262386 0.500460 0.602412 0.001315 0.789465 
1.368070 0.639632 0.804634 -0.570194 0.465682 0.622086 
1.320932 -0.797419 0.888488 0.652504 -0.344264 -0.635620 
0.183983 -0.006332 -0.275822 0.566406 -0.095529 -0.791844 
-1.410250 0.129666 0.894307 0.433598 -0.032804 0.862568 
-2.413102 -0.711974 1.551536 -0.443434 -0.446312 -0.775504 
-0.329234 0.716932 0.319926 -0.636161 0.338383 0.650274 
-0.281846 0.765302 -0.076316 -0.608040 0.511423 -0.582966 
-0.543355 -0.291960 0.133348 -0.718435 -0.088063 -0.686123 
-0.154112 -0.589683 -0.101987 -0.220532 -0.434022 -0.867997 
-1.385728 -0.850874 1.210057 0.543010 0.435210 0.703388 
-0.297338 0.046964 -0.206012 -0.674829 -0.096275 -0.707322 
2.569669 0.068335 1.937426 0.984034 -0.094142 -0.142205 
-2.054588 -0.209113 1.178273 -0.570377 -0.216691 -0.773610 
0.323907 -0.931648 0.094199 0.453325 -0.219366 -0.854022 
0.726504 -0.036799 0.328242 0.677890 -0.056978 -0.716633 
0.217154 1.103666 0.206025 0.298787 0.587423 0.542162 
-0.051398 0.175098 -0.383332 -0.514362 0.008413 -0.846718 
1.948332 0.684140 1.180255 -0.519515 -0.352580 0.737827 
0.237723 -0.772166 -0.007108 0.023822 -0.374535 -0.913046 
-2.681303 -0.507481 1.669170 0.558113 0.366225 0.719347 
0.326168 0.841139 0.230296 0.867086 0.372544 0.305612 
-0.056589 0.279269 -0.387542 -0.537795 0.059982 -0.828831 
-0.476205 0.337206 0.308258 0.458672 -0.151900 0.854272 
-0.726877 -0.502887 0.392021 -0.605986 -0.094711 -0.777201 
-2.931588 -0.181532 1.727418 -0.546571 -0.431714 -0.692097 
2.526443 0.340953 1.866255 -0.859130 0.120833 0.407773 
0.672715 0.405081 0.425810 -0.487490 0.326570 0.802457 
-2.880059 -0.104295 1.619701 -0.479523 -0.456633 -0.731194 
0.178123 -1.025544 0.088533 0.026740 -0.323520 -0.941716 
-1.236020 0.608134 0.748601 0.586622 0.384285 0.667592 
2.449227 0.133596 1.682140 0.656022 -0.391022 -0.625241 
2.518572 0.086045 1.824503 0.697915 -0.471381 -0.518863 
-3.169320 0.063245 1.893682 0.784284 0.195761 0.567492 
1.857337 1.085925 1.085559 0.460267 0.262612 -0.687729 
-0.315329 -0.210363 0.159128 -0.515449 -0.163450 0.787198 
1.295596 0.466707 0.715229 0.584072 -0.249672 -0.772105 
-1.238596 0.274689 0.775374 0.427836 -0.138724 0.867598 
2.054869 0.357800 1.252865 0.718946 -0.166498 -0.640680 
0.006405 0.492147 -0.345727 0.440563 0.296425 -0.842035 
-0.200691 0.237257 0.273848 -0.174883 -0.267818 0.945897 
-2.032333 -0.560139 1.326925 -0.489802 -0.415286 -0.758370 
-2.584069 0.027133 1.342701 0.472249 0.161679 0.839348 
1.039775 0.591946 0.609515 -0.558662 0.209118 0.786816 
-2.529060 0.286494 1.278115 -0.222130 -0.301348 -0.915068 
-2.674402 -0.391845 1.583607 -0.466596 -0.449731 -0.752696 
-0.152810 0.258891 -0.331226 -0.615254 0.023157 -0.770011 
2.164104 0.373775 1.377190 -0.641851 -0.092537 0.706150 
-0.438060 0.578201 -0.017037 -0.743513 0.281818 -0.574626 
-2.113928 -0.385231 1.273144 -0.029860 0.335002 0.901738 
-1.718579 0.448654 1.034762 -0.469350 -0.312217 -0.824896 
-2.497724 -0.312229 1.408651 0.468694 0.291022 0.811158 
-1.193985 -0.291619 0.757167 0.562514 0.112273 0.804532 
1.433120 0.613270 0.766837 0.444980 0.145508 -0.877359 
-0.036689 -1.107824 0.095606 -0.253036 -0.295780 -0.917741 
-1.896897 0.307253 1.131062 0.324026 -0.040524 0.893251 
0.173531 -0.038005 0.215311 0.250521 -0.159843 0.931211 
-1.641208 0.682110 1.021732 0.393777 -0.305175 0.865468 
-0.126967 0.105598 0.236894 -0.150193 -0.209986 0.963704 
0.061177 0.586973 0.405673 0.123003 -0.259618 0.953108 
2.562041 0.133010 1.905132 -0.818145 0.350643 0.414305 
1.921356 0.023777 1.099104 0.465706 -0.180056 -0.861658 
-0.456166 -0.208014 0.144102 0.166790 -0.114489 0.932248 
-0.312462 0.765197 -0.012579 -0.700439 0.490340 -0.459993 
2.311384 0.455022 1.561657 -0.708139 0.018550 0.639762 
-1.477350 0.697612 0.878411 -0.191019 0.575356 -0.735807 
-1.131559 0.503703 0.625945 -0.431233 0.249262 -0.856014 
1.407318 0.278819 0.779850 0.591355 -0.250189 -0.766161 
0.447822 -0.388206 0.026958 0.693575 -0.103191 -0.705988 
0.675769 0.449525 0.295285 0.652355 0.382957 -0.603059 
-2.040106 -0.825740 1.496662 0.238389 0.441175 0.833702 
0.053523 -1.111635 0.095628 0.220581 -0.302921 -0.923556 
1.810648 0.748349 1.081414 -0.356502 -0.231406 0.897155 
-2.275881 -0.049352 1.208383 -0.411160 -0.134800 -0.884340 
-1.833241 -0.941659 1.491446 -0.290927 -0.491769 -0.811948 
1.274018 -0.308381 0.712508 0.612911 -0.144004 -0.769600 
-0.005302 0.233318 -0.419208 -0.493286 0.038706 -0.865138 
-2.681923 0.657386 1.354921 0.332836 0.254880 0.885787 
2.370652 -0.438245 2.253741 -0.858411 0.428181 0.234599 
-0.156673 -0.520904 -0.131813 -0.205673 -0.503580 -0.825484 
-0.678159 0.348875 0.253568 -0.760284 0.054403 -0.622668 
0.038447 1.336953 -0.028640 0.510916 0.369394 -0.697604 
-0.287942 0.675660 0.360480 -0.468847 0.301514 0.805946 
0.133048 0.471156 0.370459 0.187023 -0.278628 0.939392 
0.092841 -1.025199 0.109186 0.093791 0.002425 0.984295 
1.358943 -0.788269 0.950586 -0.667153 0.375248 0.599996 
2.240482 0.501168 1.474977 -0.663994 -0.008747 0.697839 
-2.258861 -0.285579 1.278747 0.184395 0.300986 0.890858 
0.212470 0.494641 0.348093 0.163920 -0.231737 0.953215 
2.533423 0.277403 1.784435 -0.825465 0.084694 0.523547 
0.200931 1.252667 0.357958 0.837071 -0.435157 -0.281880 
-2.037038 0.130395 1.156640 0.124230 0.011007 0.962853 
1.789230 0.731330 0.995165 0.555237 -0.276004 -0.784497 
-1.158743 -0.693294 0.830681 0.663664 0.186232 0.712669 
2.674845 0.248284 2.351910 0.966228 -0.199224 -0.120321 
0.468254 -1.090662 0.163695 -0.344955 -0.201867 0.914424 
2.522188 0.470521 1.714135 0.837840 -0.006242 -0.545234 
-1.417830 -0.573159 0.984975 0.568762 0.246933 0.769162 
-0.486709 -0.628337 0.197549 0.206340 0.008233 0.934626 
-2.375340 0.422763 1.250832 0.289184 -0.088495 0.913231 
0.801364 -0.372164 0.436448 0.577727 -0.059100 -0.807645 
-1.338313 0.117208 0.847068 0.439018 -0.038226 0.861964 
-1.647917 0.121799 1.049400 0.435570 0.003468 0.854613 
-1.310539 0.278538 0.823187 0.421922 -0.127974 0.868669 
-0.209355 -0.970666 0.069488 0.052485 -0.330309 -0.941158 
-1.386176 0.261767 0.827064 -0.556755 -0.277908 -0.776998 
-2.518728 0.443347 1.323878 0.343810 0.025179 0.895295 
1.642865 -0.577576 1.118622 -0.758727 0.400046 0.454384 
2.248888 0.432627 1.442937 0.640278 -0.372521 -0.658877 
2.433245 -0.341922 2.331581 -0.892213 0.388085 0.182470 
0.765121 -0.133566 0.443033 -0.514357 -0.080315 0.838381 
2.277194 0.274191 1.467684 0.651872 -0.247127 -0.689600 
-2.895458 0.450100 1.466068 0.519644 0.130307 0.824044 
1.874149 0.447932 1.056499 0.541020 -0.214012 -0.792833 
-1.698831 0.183642 1.044342 -0.465532 -0.302841 -0.831059 
-0.140502 0.391562 -0.302046 -0.578729 0.153645 -0.765821 
2.650822 0.300227 2.027365 -0.935065 0.143082 0.293559 
-2.985996 -0.148872 1.769145 -0.749123 -0.230834 -0.603092 
1.353621 0.491586 0.748167 0.581030 -0.252631 -0.773342 
-1.307231 0.155408 0.781405 -0.573876 -0.257972 -0.770165 
2.620221 0.160801 2.104271 0.951171 -0.201302 -0.202746 
0.362770 -0.017155 0.141843 0.009651 -0.203621 0.953444 
-0.163232 0.188178 -0.314993 -0.605094 -0.008564 -0.773987 
-2.200691 0.501367 1.203663 0.235562 -0.188896 0.907392 
1.987705 0.586491 1.214375 -0.548395 -0.286018 0.734322 
1.615189 0.700995 0.979778 -0.473938 -0.014502 0.868611 
1.216994 0.187712 0.673336 0.596518 -0.206296 -0.771078 
-0.195316 0.913203 -0.055626 -0.633783 0.329747 -0.685786 
-1.349936 0.397991 0.843874 0.413251 -0.188285 0.869642 
-0.251301 0.333295 -0.257703 -0.687019 0.063426 -0.699689 
-2.037868 0.019727 1.127459 -0.580963 -0.083427 -0.797143 
-1.386980 -0.192720 0.860761 -0.535200 -0.228705 -0.801727 
-0.204585 0.540365 -0.233647 -0.531819 0.246959 -0.776991 
-2.718047 0.510638 1.340278 -0.472239 -0.002715 -0.880526 
-0.697584 -0.786589 0.365395 -0.599784 -0.064834 -0.779029 
-1.475423 0.587035 0.917728 0.399895 -0.275244 0.869109 
2.479860 0.195973 1.710640 0.630895 -0.406134 -0.643469 
0.028345 0.294873 -0.398558 0.510469 0.084801 -0.845060 
-0.897887 -0.561338 0.523226 -0.674456 -0.036016 -0.732497 
0.530596 -0.186332 0.113558 0.712733 -0.076704 -0.685306 
0.789884 0.042413 0.390748 0.659449 -0.091181 -0.735225 
0.980511 0.336281 0.515455 0.640699 -0.111936 -0.749877 
2.131603 -0.159499 1.379379 -0.640282 0.247230 0.692414 
0.443101 -0.963965 0.203133 -0.193661 0.044605 0.955185 
2.335158 -0.423370 2.018083 0.793702 -0.478574 -0.341476 
1.706004 -0.539079 1.139025 0.564364 -0.448236 -0.667420 
-0.322637 -1.376042 0.195644 -0.902403 -0.006569 0.222908 
2.396051 -0.364953 2.195611 -0.875336 0.381334 0.229289 
0.331301 0.041441 -0.112145 0.715756 -0.126366 -0.651882 
-0.255016 0.489198 -0.230295 -0.594285 0.161124 -0.766767 
0.444454 -0.317475 0.015785 0.714960 -0.095957 -0.687168 
-0.021165 0.192131 0.274591 -0.043562 -0.250423 0.960993 
-0.709432 0.276443 0.289028 -0.738950 -0.015560 -0.662692 
-0.887240 -0.421461 0.540595 0.642238 0.000213 0.761950 
-0.210861 0.436811 -0.262743 -0.601603 0.147807 -0.762162 
-0.436805 -0.447289 0.044257 -0.687143 -0.112452 -0.705341 
0.048725 -0.311655 -0.279495 0.375241 -0.325571 -0.844425 
-2.903895 0.104187 1.515798 -0.766710 -0.098173 -0.630691 
1.186822 -0.282018 0.685633 -0.588719 0.068409 0.795016 
-3.027632 -0.147803 1.829851 0.652890 0.365654 0.643572 
-1.298275 -0.788150 1.019722 -0.607637 -0.331246 -0.700739 
-1.573704 0.041830 1.004399 0.441096 0.037413 0.855532 
1.727434 0.652594 1.014539 -0.489898 -0.304010 0.803196 
-1.293710 0.491600 0.803368 0.405947 -0.247257 0.873266 
0.194992 -0.891079 0.041603 0.015429 -0.351339 -0.929571 
0.119346 -0.895887 0.123275 0.063842 -0.044652 0.983123 
-1.309956 -0.520282 0.889316 0.588073 0.194900 0.768166 
-2.733919 -0.481079 1.709557 0.581474 0.360916 0.702996 
-1.256303 0.499642 0.719076 -0.601938 -0.273487 -0.747254 
2.586218 0.028941 2.255860 -0.891319 0.347609 0.220380 
2.148801 0.271923 1.357742 -0.652975 -0.053264 0.715266 
0.145577 1.051921 0.381227 0.225629 -0.032540 0.958210 
-0.755234 0.474527 0.428643 -0.568109 0.390513 -0.671663 
-0.027053 -0.542588 0.199931 -0.281582 -0.159806 0.933022 
0.750006 0.082889 0.348768 0.677710 -0.094073 -0.715486 
2.043468 0.568300 1.268015 -0.570096 -0.247711 0.722695 
0.642896 -0.273824 0.292274 -0.308876 -0.058479 0.896817 
0.541962 -0.733400 0.263165 0.490929 -0.149913 -0.845482 
0.258708 0.941333 0.042044 0.792518 0.291003 -0.440502 
-1.526642 0.533380 0.898202 -0.526657 -0.297973 -0.790405 
-1.285064 -0.684099 0.907285 -0.630204 -0.251616 -0.721082 
-0.485305 0.630692 0.160424 -0.766107 0.496790 -0.371054 
0.736681 -0.919564 0.385065 -0.430851 -0.037258 0.872631 
-0.404829 0.085903 0.181731 0.236018 -0.220663 0.907845 
0.950258 0.114933 0.566998 -0.474416 -0.148073 0.856689 
2.595186 0.561831 1.901376 -0.816805 0.201754 0.499368 
2.593552 0.023047 2.327556 -0.913068 0.320011 0.181316 
2.152912 0.116224 1.354864 -0.679251 0.021484 0.722970 
-0.648549 0.304284 0.425244 0.468031 -0.113654 0.865306 
0.601860 -0.277644 0.187690 0.676441 -0.074118 -0.724949 
-0.083524 -0.908136 0.130321 -0.161572 -0.041159 0.970150 
1.387726 0.722727 0.804808 -0.525810 0.347731 0.678428 
-2.432175 0.062496 1.254217 -0.299792 -0.206852 -0.915750 
-0.307681 -0.958958 0.070409 -0.452017 -0.220712 -0.861342 
-1.807006 -0.253636 1.091797 -0.231911 -0.265444 -0.899886 
1.782949 -0.781508 1.493358 0.702663 -0.523555 -0.461971 
-1.731252 -0.545720 1.210081 -0.283359 -0.422452 -0.825667 
-0.035317 -0.299095 0.223541 -0.137785 0.019262 0.987407 
