-1.736020 1.646068 -1.323371 0.752867 -0.370983 -0.525666 
2.902559 1.684985 -0.131218 0.106111 0.204529 -0.972788 
-0.011053 0.786695 -0.062132 -0.392148 0.391479 -0.829925 
1.540635 -0.069518 -0.488992 0.519812 -0.201945 0.810120 
2.154881 1.782056 -0.164616 -0.028783 0.290284 -0.943680 
-0.874436 0.573903 0.137611 -0.683233 -0.152295 0.690384 
-0.131281 -0.016150 -0.163490 -0.580463 -0.049106 -0.797582 
0.947706 1.315096 0.139963 0.709838 -0.169930 0.666361 
-0.208330 -0.288896 -0.082502 -0.581514 -0.151157 -0.792141 
-1.011099 -0.643886 -0.225564 -0.407188 0.106843 0.851469 
0.646040 -0.832775 -0.005178 -0.195442 -0.103263 -0.949589 
-1.729429 0.920346 -0.750503 -0.779422 0.151322 0.601119 
-1.074248 2.044950 -0.227635 -0.571696 0.605211 0.466007 
-1.359914 2.299677 -1.063372 -0.824991 0.190780 0.521474 
-1.209048 -0.111341 -0.357338 0.491584 0.161418 -0.826201 
2.471272 1.745654 -0.156655 0.023431 -0.025680 0.987885 
-0.344044 -0.503892 0.063462 -0.269824 -0.035780 -0.924997 
1.007097 0.688009 0.034849 0.671557 -0.128510 0.712973 
1.234381 0.953648 -0.073220 -0.222639 0.112339 -0.966085 
1.975621 0.690281 -0.229441 -0.043400 -0.001072 -0.954580 
2.453620 1.674368 -0.178474 0.063733 0.294895 -0.944932 
-1.387165 1.894790 -0.892599 -0.871656 0.205639 0.428785 
-0.617523 -1.041036 0.039022 -0.446338 0.310506 0.811655 
-1.202693 0.252529 -0.261090 0.560402 0.118078 -0.811813 
-0.072628 0.018603 -0.202487 -0.536502 -0.047036 -0.825699 
1.027516 1.903963 0.109696 -0.214948 0.274051 -0.933904 
0.521202 0.098672 0.251719 0.502518 -0.298699 0.799997 
0.658159 -0.075382 0.069945 0.553611 -0.185025 0.805055 
-1.250072 1.324877 -0.174609 0.635872 -0.169096 -0.730226 
2.097241 1.494790 -0.196626 0.109922 -0.179398 0.967873 
0.848141 0.203832 0.068300 0.520126 -0.253468 0.808107 
1.359215 1.672125 0.015470 0.461608 -0.237441 0.811929 
2.413459 2.107171 -0.091322 -0.017012 -0.324547 0.936281 
0.146260 -0.900211 0.112994 -0.103398 -0.365250 -0.917888 
2.147774 0.829168 -0.247090 -0.009037 0.114656 -0.984187 
0.556105 -0.319925 0.010456 0.084225 0.008674 -0.908673 
-0.153063 0.119787 0.385251 -0.156162 -0.247128 0.955908 
-1.390719 1.480738 -0.620244 0.842923 -0.054641 -0.514585 
0.025852 0.235171 0.434458 0.036086 -0.296421 0.950112 
-0.065425 0.951408 0.043920 -0.443416 0.443947 -0.760759 
0.312489 -0.220159 0.044594 0.464241 -0.018523 -0.873333 
-0.132165 -1.175341 0.236174 0.141955 -0.405592 -0.892665 
-0.359480 0.672860 0.120016 -0.831273 0.313889 -0.392255 
-1.090465 -0.351673 -0.312373 0.415108 0.108118 -0.854046 
-0.257837 0.716773 0.503676 -0.415813 0.276138 0.848501 
0.970655 0.113650 -0.062782 0.552699 -0.180236 0.812133 
2.333574 1.718801 -0.167647 0.044280 -0.048744 0.993128 
-1.537260 1.367261 -0.771528 -0.775577 0.569227 0.185512 
-1.135959 1.395602 -0.059730 0.585692 -0.142026 -0.775751 
0.502624 -0.894886 0.081630 0.429812 0.041502 0.898687 
-0.197072 1.082977 0.391560 -0.376240 0.604875 0.490752 
0.130820 1.119873 0.374930 0.812054 -0.013301 0.551096 
-1.454507 0.311389 -0.428381 0.591686 0.077485 -0.790766 
2.115628 1.998202 -0.087792 0.101757 -0.196422 0.956400 
1.500837 0.524850 -0.285738 0.272476 -0.259618 0.905917 
-0.206002 -0.205681 -0.092464 -0.598674 -0.122842 -0.778095 
-1.577014 0.490505 -0.503161 -0.677743 -0.012431 0.710568 
-0.454838 -0.386739 0.025221 -0.156322 -0.005556 -0.909298 
-1.724242 1.724843 -1.330649 -0.804069 0.173632 0.551715 
-0.323748 -0.452097 0.209370 -0.617124 -0.139620 0.772402 
-0.879348 -0.214346 -0.076546 -0.564290 -0.086334 0.807672 
2.304237 0.511428 -0.262595 -0.089285 0.005237 -0.993241 
1.283263 1.120772 -0.058749 0.423239 -0.178386 0.832837 
-1.170125 1.292778 -0.108990 0.594366 -0.126802 -0.764946 
-0.522741 0.604888 0.391970 0.084702 -0.025947 0.957473 
-1.834276 0.517812 -0.718272 -0.725742 0.116673 0.649940 
0.097477 -0.500740 -0.040138 0.255784 -0.476352 -0.835896 
-1.616696 2.327974 -1.389498 -0.781761 0.132572 0.601086 
-1.427289 0.714047 -0.403070 -0.732316 0.067851 0.644143 
-0.975976 -0.563485 -0.244437 0.359368 0.016171 -0.875432 
0.995923 0.541418 0.029273 0.653342 -0.150324 0.732234 
0.277283 -0.773269 0.195535 0.318835 -0.106946 0.911577 
-0.303553 -1.191708 0.153744 0.429524 -0.249794 -0.849492 
1.625046 0.770719 -0.224314 -0.050174 0.147867 -0.955975 
-0.353747 -0.128397 0.277963 -0.506597 -0.225896 0.810314 
-1.392992 1.596171 -0.669951 -0.862376 0.377625 0.323730 
-1.561750 1.575548 -1.034339 0.821891 -0.300720 -0.480196 
1.530785 1.162191 -0.167090 -0.278705 0.032229 -0.947919 
-1.778341 2.156020 -1.531208 0.760360 -0.121734 -0.634035 
-1.190060 0.820431 -0.203574 0.580389 -0.013472 -0.771203 
-0.119781 0.842858 0.009584 -0.496026 0.454948 -0.725323 
-0.393324 -1.347370 0.161828 0.431084 -0.483928 0.505094 
2.529817 1.858303 -0.133725 0.075563 0.287529 -0.949439 
0.333355 0.815779 0.367638 0.877552 0.369026 0.250373 
-0.311344 -0.396152 0.252949 -0.650063 -0.148211 0.744378 
0.912037 1.658932 0.108482 -0.709064 0.111479 -0.604935 
1.106820 1.769303 0.104061 0.588898 -0.321503 0.713899 
-1.181301 1.674832 -0.228131 0.695587 -0.268121 -0.611905 
-1.287264 1.582758 -0.431224 0.775136 -0.167146 -0.552777 
-0.468109 0.446348 0.156090 -0.360297 0.312257 -0.775099 
2.331047 0.997670 -0.258674 0.140933 -0.019810 0.963122 
-0.283857 -0.755972 0.195126 -0.355450 -0.110475 0.896268 
0.180869 -0.516945 -0.004117 0.174203 -0.393610 -0.867140 
0.905199 0.099518 -0.085643 -0.199176 0.127147 -0.879067 
0.716187 -0.026707 0.051829 0.550722 -0.190030 0.806266 
-0.231132 0.611306 0.524813 -0.330296 -0.153385 0.899475 
-0.349111 0.601579 0.076900 -0.668129 0.317103 -0.664187 
-1.228356 2.310366 -0.850916 0.863144 -0.203160 -0.456230 
-0.112360 -1.071886 0.206823 -0.201890 0.106873 0.968075 
-1.306253 0.539313 -0.338358 0.640136 -0.007271 -0.730505 
2.396954 0.859252 -0.268092 0.079270 -0.061062 0.991165 
-0.179620 -0.453461 0.316057 -0.280799 -0.162464 0.939030 
0.956988 0.719058 0.075898 0.697436 -0.122397 0.694952 
0.444408 0.033431 0.259117 0.447475 -0.276004 0.835714 
1.222377 1.332945 -0.012045 0.470731 -0.220695 0.803536 
1.968889 2.184347 -0.060425 -0.132503 0.248745 -0.957584 
1.794765 0.853171 -0.209519 -0.172918 -0.282622 0.922776 
1.381671 1.278860 -0.076963 0.269329 -0.295176 0.849446 
-1.928846 1.153539 -1.305606 0.788358 -0.339466 -0.508844 
-1.796476 0.863053 -0.845167 0.767649 -0.410801 -0.438204 
-0.007743 -0.247415 -0.177369 -0.393101 -0.270773 -0.852208 
2.540158 1.208190 -0.255010 -0.004872 0.108011 -0.991946 
0.668769 0.440956 0.295643 0.509989 -0.210699 0.797277 
-0.270705 -0.019089 -0.063910 -0.689625 -0.066568 -0.698947 
-1.806177 1.659866 -1.413776 0.762178 -0.311422 -0.552341 
-0.385372 -0.384026 0.039734 -0.273205 -0.007899 -0.910549 
-0.744403 0.067329 -0.063661 0.100455 0.110862 -0.858093 
-0.281325 -0.206614 0.298576 -0.507160 -0.191199 0.804646 
0.932038 0.571536 0.024709 -0.361263 0.154335 -0.916311 
-0.973958 0.317130 -0.085105 0.458790 0.173475 -0.855344 
1.590024 1.936469 -0.022893 -0.094018 0.255588 -0.956892 
-0.864215 0.835619 0.165614 -0.452672 -0.017265 0.876635 
-1.626474 2.488286 -1.425012 -0.784279 0.041214 0.609358 
-0.786338 1.019373 0.208634 0.813533 0.152671 -0.534396 
0.714553 -0.109296 0.013262 0.567082 -0.154615 0.806850 
1.302364 0.146624 -0.282716 -0.467688 0.194934 -0.854966 
-1.075884 0.630073 -0.076594 -0.745530 -0.107555 0.626583 
-1.190872 0.901981 -0.149063 -0.810976 -0.007231 0.555199 
-1.913679 0.708109 -0.915195 0.772091 -0.330515 -0.517051 
-0.381885 0.299496 0.389080 -0.274307 -0.266868 0.919182 
0.886035 0.506424 0.042108 -0.342633 0.174272 -0.914164 
0.578928 -0.378219 0.049184 0.542491 -0.095478 0.826421 
-0.205286 0.376650 0.477713 -0.154550 -0.301368 0.939546 
-1.478018 1.916916 -1.062574 -0.839472 0.083676 0.519351 
1.075788 1.422765 0.075059 0.595808 -0.218222 0.730835 
-1.121208 1.176931 -0.032665 -0.862513 -0.043609 0.474159 
-1.329349 2.380953 -1.034682 -0.838627 0.120471 0.507168 
0.435100 -0.340998 0.101806 0.580458 -0.131684 0.800998 
-0.824507 0.242021 -0.064331 0.198793 0.156321 -0.849081 
0.014425 0.787148 0.542246 0.089295 -0.149632 0.979716 
2.049633 1.428024 -0.216340 -0.132254 0.136863 -0.980520 
0.438784 0.116943 0.074088 0.341255 0.122175 -0.889689 
-0.978031 1.811499 0.161519 0.793810 -0.503372 0.149150 
1.268995 1.364322 -0.058169 -0.154793 0.041989 -0.977635 
-0.384292 -0.540898 0.128220 -0.581775 -0.090426 0.801367 
0.497860 0.302304 0.349423 0.399866 -0.343165 0.840042 
-1.035923 -0.045697 -0.169760 -0.587107 -0.138770 0.786744 
-1.125452 1.642267 -0.116544 0.684207 -0.019302 -0.712330 
1.658419 1.713914 -0.062914 0.319797 -0.210215 0.897182 
-1.639325 1.084817 -0.725166 -0.778792 0.109229 0.612326 
-0.038210 0.624008 0.545231 -0.038110 0.145793 0.982955 
-0.516739 -0.128689 0.001445 -0.172765 0.057114 -0.883558 
-0.943571 -0.636853 -0.205699 0.355879 -0.058599 -0.876935 
-1.359041 2.390249 -1.105235 0.791903 -0.191930 -0.576567 
-1.922161 1.974062 -1.656846 0.755785 -0.179162 -0.629439 
0.423006 -0.377484 0.035808 0.254072 -0.014894 -0.908047 
-0.558577 0.348133 0.082939 -0.107756 0.182309 -0.878684 
-0.052176 1.356302 0.225741 -0.617858 0.670795 -0.225778 
0.393806 0.164562 0.333836 0.326388 -0.312286 0.891038 
-0.323981 -1.101187 0.129590 0.390128 -0.235783 -0.878253 
-1.178650 1.788270 -0.272055 -0.948613 0.152692 0.160082 
-0.079597 -0.161810 -0.163770 -0.490450 -0.160345 -0.828676 
0.172795 0.903494 0.077264 0.609005 0.399316 -0.666561 
-1.322556 0.982328 -0.301765 0.644599 -0.101251 -0.711606 
2.407361 1.373324 -0.233080 0.008284 -0.209218 0.967735 
1.389017 0.598553 -0.210008 -0.290181 0.181423 -0.925746 
0.218621 0.924825 0.497402 0.648012 0.005399 0.741189 
-1.953748 0.855944 -1.111122 0.784077 -0.397512 -0.456345 
-1.859224 2.010478 -1.589118 -0.756816 0.208047 0.610497 
-0.009893 1.090915 0.555631 -0.075913 0.324010 0.915058 
0.311174 0.285745 -0.043814 0.687935 0.065323 -0.701653 
-1.668760 1.248607 -0.956140 0.771775 -0.187755 -0.601490 
-0.088008 0.740251 -0.052657 -0.447148 0.436610 -0.750548 
0.686645 0.841993 0.267003 0.508481 -0.051714 0.850977 
0.444634 0.583349 0.296344 0.255889 0.574430 -0.641512 
1.857311 0.814783 -0.209311 -0.240856 -0.293360 0.916168 
-1.289785 1.992181 -0.782853 0.888978 -0.129063 -0.434264 
1.332124 1.195226 -0.108421 -0.144330 0.091500 -0.980592 
0.381907 0.677184 0.254768 0.782129 0.535288 -0.142289 
-1.697760 1.148227 -0.932675 0.780130 -0.267793 -0.550315 
-0.880403 -0.116683 -0.079064 -0.589054 -0.115223 0.790473 
0.611449 0.196706 0.026929 0.150968 0.149300 -0.884382 
-1.280299 0.815481 -0.247560 -0.776740 0.018824 0.593782 
1.718277 2.167058 0.004448 0.109309 0.093439 0.966040 
-0.902276 0.445998 0.057330 -0.704637 -0.214482 0.672710 
-1.908072 0.771602 -0.959877 0.774801 -0.360732 -0.488797 
-0.889935 0.228465 0.015253 -0.567261 -0.254372 0.771859 
0.612621 0.500922 0.388395 0.362486 -0.058403 0.904077 
-0.459181 0.643531 0.420717 0.161078 -0.004402 0.944614 
-1.765063 1.566589 -1.330029 -0.803081 0.242909 0.531118 
-0.474741 -0.629074 0.075158 -0.549667 -0.032367 0.823195 
2.991737 2.041672 -0.032758 0.136710 0.252549 -0.957082 
-1.544643 0.934379 -0.506120 0.753320 -0.183756 -0.619364 
1.866688 1.779528 -0.110157 0.229354 -0.203972 0.945884 
2.614280 2.132636 -0.068603 0.081373 0.231125 -0.968454 
1.343546 0.760759 -0.135051 0.378404 -0.163155 0.873468 
2.188762 2.271454 -0.042005 0.027378 0.098280 0.976722 
2.358024 1.489909 -0.213980 -0.007489 -0.264423 0.953914 
-0.131748 -0.697879 0.044757 0.043818 -0.337077 -0.934713 
-1.756964 0.309651 -0.625397 -0.632472 -0.072776 0.767024 
0.497355 -0.533201 0.044700 0.041188 -0.040605 -0.931206 
-1.280124 1.600523 -0.357382 -0.902375 0.305924 0.170694 
-0.005304 0.136389 0.401981 -0.050360 -0.236444 0.967308 
-0.374728 -0.295557 0.036319 -0.335161 0.011875 -0.901980 
-0.055425 0.347657 -0.223573 -0.574478 0.125101 -0.790176 
0.928037 1.711565 0.159617 -0.973191 0.134430 0.098176 
-0.569103 0.318783 0.299504 -0.502087 -0.384127 0.767609 
-1.016196 0.610028 -0.021852 -0.746158 -0.138511 0.625394 
-1.333926 1.380007 -0.389469 0.719106 -0.408636 -0.432340 
-0.091126 -0.225520 0.349493 -0.163649 -0.077357 0.978006 
-0.248209 -0.965087 0.119849 0.222898 -0.296017 -0.920250 
2.002312 1.994927 -0.108448 -0.120635 0.235117 -0.959877 
-0.291982 0.276922 0.410010 -0.241298 -0.303400 0.915563 
0.638243 -0.338988 0.032164 0.535642 -0.097943 0.829779 
-0.961228 1.216927 0.155459 -0.631249 -0.085048 0.748223 
0.706246 -0.166001 -0.029062 -0.051466 0.053676 -0.898575 
-0.463039 -0.073086 0.200890 -0.557349 -0.248245 0.775289 
0.273325 -0.203703 -0.027163 0.577394 -0.115102 -0.787208 
1.023742 -0.631010 -0.173037 0.367943 0.086965 0.886876 
2.096462 1.934729 -0.116676 0.133504 -0.150961 0.968781 
0.817587 2.061981 0.228368 0.330902 0.115925 0.874882 
0.754017 0.260677 -0.011423 -0.009136 0.170203 -0.880569 
1.580852 1.035410 -0.189329 0.088714 -0.279183 0.932502 
-1.807777 2.518095 -1.625570 -0.744584 0.093515 0.659534 
-1.261772 0.060102 -0.343069 -0.603208 -0.209014 0.764546 
1.020838 1.773650 0.145282 0.664123 -0.160870 0.707313 
-1.744344 2.283452 -1.524498 0.753842 -0.121943 -0.642937 
-0.923969 0.675823 0.074039 -0.774730 -0.167361 0.595887 
0.207487 -1.092836 0.194240 0.191960 0.125705 0.960223 
-1.293476 2.404862 -0.977515 -0.849260 0.117164 0.484855 
1.861481 1.253874 -0.180478 0.364108 0.078979 0.898205 
-1.636894 1.190352 -0.825727 -0.772278 0.055591 0.630850 
-1.632795 2.075949 -1.327780 -0.733102 0.340772 0.563880 
1.123676 0.721547 -0.058102 -0.316876 0.127876 -0.930993 
-0.311509 -0.929283 0.154510 -0.218354 -0.051143 0.957049 
2.336136 2.076425 -0.108954 0.016216 0.209659 -0.977147 
-1.838261 1.723292 -1.474134 0.761080 -0.281331 -0.569944 
-0.613277 -0.001503 -0.020493 -0.064845 0.091477 -0.870252 
0.743176 -0.225578 0.001058 0.534994 -0.114934 0.828491 
-1.330920 0.424539 -0.350857 0.612504 0.038632 -0.761795 
0.966847 -0.427466 -0.165213 -0.311224 0.046577 -0.905755 
-0.345905 0.150777 0.105180 -0.454598 0.128793 -0.878393 
-1.062073 1.796151 0.123671 -0.818716 0.139157 0.498600 
-0.726253 -0.089368 -0.009982 -0.615170 -0.155375 0.769496 
-1.272443 0.973771 -0.217071 -0.821047 0.040153 0.543546 
-0.637436 -0.351849 -0.018149 0.125691 0.009762 -0.901270 
-1.617751 1.383470 -0.949584 -0.762998 0.529134 0.246529 
-1.292413 1.748059 -0.575569 0.812919 -0.348232 -0.420160 
1.702837 0.974558 -0.211844 -0.005512 -0.258574 0.941461 
-1.113195 1.405208 0.017825 -0.893600 -0.060598 0.415858 
-1.399492 2.252148 -1.115639 0.796964 -0.209724 -0.565212 
-1.167489 1.086582 -0.094372 -0.846081 -0.016350 0.502469 
0.748965 0.390308 0.042639 -0.100895 0.170034 -0.900438 
-1.953028 0.740002 -1.010576 0.777956 -0.343027 -0.506890 
-1.633494 1.431721 -1.015953 -0.779207 0.462802 0.319530 
-1.701249 2.613066 -1.516766 -0.765179 0.041276 0.635858 
0.825817 -0.084366 -0.024614 0.548007 -0.143210 0.818951 
-0.800322 0.928131 0.204153 -0.415202 -0.066759 0.896248 
1.163961 1.433998 -0.013457 -0.114395 0.044025 -0.987541 
2.617590 1.666620 -0.159256 -0.013614 -0.083099 0.984255 
1.186655 1.826606 0.105216 0.448133 -0.234498 0.836805 
-1.500492 2.074571 -1.171165 -0.741756 0.384516 0.532064 
-1.118338 1.323433 -0.057118 0.571481 -0.114105 -0.785657 
0.872469 1.525568 0.186471 -0.195845 0.047863 0.855967 
-0.125378 0.907667 0.055734 -0.537393 0.426648 -0.701466 
-0.219804 -0.176670 0.320820 -0.390386 -0.172021 0.860959 
1.273706 1.832141 0.087207 0.373202 -0.101633 0.910228 
-1.217319 2.282399 -0.779147 -0.860898 0.277021 0.416025 
0.870918 -0.502884 -0.112465 -0.280585 0.017034 -0.918459 
-1.316495 1.676391 -0.576574 0.861648 -0.286139 -0.389233 
1.125541 0.344237 -0.089083 0.570133 -0.183341 0.795569 
0.452103 0.617483 0.422957 -0.108211 -0.039458 0.906029 
-0.494432 -1.144139 0.102103 0.328400 -0.190472 -0.920905 
0.225786 0.953752 0.137059 0.692030 0.363537 -0.595709 
-0.556525 0.612921 0.329418 0.160579 0.700252 -0.559793 
0.336238 0.289939 0.401560 0.246072 -0.285383 0.921007 
-1.849005 1.272997 -1.266797 0.784086 -0.300492 -0.536069 
-1.861472 0.766655 -0.875032 0.769566 -0.361352 -0.486501 
-0.177169 -0.973949 0.133271 0.150621 -0.352520 -0.914688 
-1.328543 1.092422 -0.249154 -0.831434 0.060028 0.520562 
3.051052 2.161507 0.011241 -0.133705 -0.273892 0.951870 
1.475820 -0.123711 -0.453956 0.514119 -0.186800 0.815804 
-0.689006 0.189093 -0.026016 0.003456 0.142284 -0.854646 
1.496175 0.777768 -0.230805 -0.214933 0.170286 -0.953982 
2.518492 1.986241 -0.109057 0.045567 0.211278 -0.974718 
-0.281789 -0.491079 -0.004021 -0.446051 -0.156111 -0.836663 
-0.875695 -0.051260 -0.106429 0.340569 0.085364 -0.862022 
-0.046085 -0.728383 0.069841 -0.203946 -0.368975 -0.895483 
-1.898992 1.798986 -1.573617 0.763162 -0.226587 -0.599068 
1.608923 1.315760 -0.090558 0.123208 -0.292337 0.943887 
1.404089 0.828548 -0.155828 0.324762 -0.163214 0.898799 
-1.819889 0.594296 -0.716867 0.731691 -0.170586 -0.638129 
0.675299 0.361083 0.056314 0.004079 0.167753 -0.898109 
-0.353161 -0.254958 0.232509 -0.574713 -0.180592 0.781571 
0.555576 -0.089155 0.006073 0.183047 0.064257 -0.890246 
1.318802 1.940494 0.051507 -0.049508 0.244972 -0.964481 
1.114911 0.649950 -0.065756 -0.341321 0.135258 -0.920972 
0.116416 0.760132 0.524521 0.148704 -0.052259 0.984193 
1.351660 0.111778 -0.325711 -0.471739 0.199436 -0.849945 
-0.166014 0.746645 -0.020348 -0.513989 0.490606 -0.665671 
1.395677 1.952031 0.032245 -0.063754 0.239054 -0.964774 
-1.065490 1.855016 0.005610 -0.904449 0.387408 0.132297 
-1.577373 1.234805 -0.794090 0.784124 -0.486260 -0.343052 
-2.016135 0.920621 -1.270435 0.792102 -0.373465 -0.480457 
0.925008 0.169911 -0.082548 -0.214060 0.148220 -0.877481 
0.227766 -0.427959 -0.039955 0.509909 -0.250978 -0.804992 
1.928032 0.808901 -0.224049 -0.116313 -0.041231 -0.955313 
1.201284 0.704707 -0.097838 -0.307685 0.137814 -0.931710 
1.220768 1.063018 -0.027394 0.479011 -0.153529 0.801352 
-1.359450 2.558509 -1.145075 0.849985 0.235123 -0.451346 
2.768282 1.810226 -0.118691 -0.065103 -0.160456 0.974885 
-0.179100 0.243865 -0.156254 -0.679553 0.032035 -0.712835 
-1.475522 0.004407 -0.549264 -0.598570 -0.267794 0.753328 
0.281678 0.230590 -0.087775 0.734478 0.017800 -0.669411 
-1.631973 0.515386 -0.542263 -0.682454 0.002115 0.706482 
2.902112 2.227963 0.011248 -0.110554 -0.272438 0.952157 
-0.540945 0.044855 0.014170 -0.171214 0.102928 -0.872161 
-1.322120 -0.124341 -0.455679 0.509537 0.193766 -0.810906 
0.162137 1.184813 0.571686 -0.458479 0.451100 0.715066 
-1.045634 1.018304 -0.047681 0.512275 0.003201 -0.826780 
-0.367919 0.094147 0.322990 -0.369869 -0.296625 0.872494 
-1.156477 2.115726 -0.555974 0.849319 -0.209303 -0.474144 
1.015545 1.730550 0.080443 -0.031404 0.115608 -0.969972 
2.086921 0.879143 -0.232403 0.318358 0.126962 0.902020 
0.180778 0.490705 0.510657 0.165223 -0.261671 0.949405 
0.173724 -0.959371 0.192618 0.152100 -0.017036 0.981585 
2.403344 2.299513 -0.044945 0.011259 0.637330 -0.757631 
0.094654 0.905361 0.039185 0.496776 0.428422 -0.730577 
0.143164 0.705803 -0.057583 0.465562 0.425124 -0.730643 
-0.164686 -0.862960 0.211115 -0.168140 -0.087425 0.972297 
2.265827 1.669302 -0.183087 -0.023359 -0.342439 0.933867 
-1.216124 0.690654 -0.241768 0.595340 0.000159 -0.763123 
0.919402 0.203572 0.017169 0.528610 -0.233541 0.810052 
-1.866738 1.336442 -1.343081 -0.797419 0.324012 0.501879 
0.334992 0.701018 0.094480 0.775134 0.426216 -0.399238 
-0.951950 0.658778 -0.010625 0.465234 0.117463 -0.874415 
1.140278 0.886104 -0.038825 -0.261356 0.110543 -0.953890 
-1.666838 2.430619 -1.464497 -0.777001 0.065153 0.617211 
-0.731759 -0.166044 -0.025595 -0.610052 -0.126055 0.777878 
-1.369645 2.128633 -1.000193 -0.821788 0.290709 0.473520 
-1.691230 0.653929 -0.589168 -0.716496 0.070312 0.667974 
-1.359930 -0.065848 -0.474171 0.529805 0.209377 -0.802871 
-0.025087 0.530762 0.538070 -0.053653 -0.282436 0.956614 
-0.031597 0.415491 -0.217133 -0.542986 0.193673 -0.800402 
-0.718648 0.419847 0.225629 -0.615190 -0.276419 0.710223 
-0.287507 0.273768 -0.083445 -0.775118 0.027971 -0.627388 
0.311394 -0.041147 0.026579 0.519226 -0.014093 -0.827412 
0.793939 0.054747 0.035366 0.543595 -0.203789 0.807765 
0.477126 -0.758500 0.075126 -0.069022 -0.088997 -0.957402 
1.708216 0.812120 -0.220912 -0.078910 0.071319 -0.952584 
2.900506 1.769835 -0.115134 0.111365 0.213433 -0.970233 
0.211327 -0.727136 0.229770 0.206096 -0.198353 0.950369 
0.963359 -0.316711 -0.120177 0.490567 -0.097884 0.850757 
-0.131222 -0.333893 0.338406 -0.205954 -0.034829 0.976944 
0.785361 -0.630828 -0.078519 -0.243618 -0.018120 -0.931032 
-0.291822 0.138552 -0.038468 -0.680137 0.008849 -0.704024 
0.427027 0.027776 0.065669 0.344714 0.095771 -0.891386 
-1.413309 1.220400 -0.307235 -0.840315 0.093018 0.498716 
-0.056118 -0.527360 -0.033488 -0.132413 -0.527141 -0.829821 
0.421774 -0.048762 0.233619 0.453414 -0.244508 0.840689 
0.264726 0.015497 -0.076973 0.675583 -0.057563 -0.714729 
-0.325383 -0.138087 0.076157 -0.430389 0.052733 -0.896121 
-0.107605 0.696340 0.529658 -0.100379 0.049556 0.987096 
-0.834903 0.155499 -0.088223 0.207219 0.134920 -0.847387 
-1.105725 0.769208 -0.085703 -0.782106 -0.069561 0.586403 
0.301552 0.179391 -0.043446 0.669117 0.023865 -0.716481 
2.171731 1.036160 -0.247706 0.019215 0.151284 -0.982886 
-0.663773 0.117271 0.136755 -0.549592 -0.274337 0.774559 
1.469730 1.130790 -0.139629 0.207694 -0.262816 0.898382 
1.931104 1.218014 -0.202222 0.361878 0.104124 0.889087 
1.835555 0.570304 -0.216606 0.144277 0.079466 -0.924785 
1.104531 1.465255 0.017310 -0.117184 0.034012 -0.987407 
1.637421 0.034524 -0.547708 0.547156 -0.254313 0.796066 
1.937459 1.817772 -0.139077 -0.168508 0.187590 -0.964259 
2.802499 2.105789 -0.041820 -0.094451 -0.315838 0.937286 
-1.764832 0.843285 -0.765329 0.767382 -0.345351 -0.494420 
0.365174 0.087366 0.094807 0.422880 0.111910 -0.891881 
0.832666 -0.697821 -0.098812 -0.260782 -0.067414 -0.923881 
-0.773332 -0.574576 -0.095959 0.305882 -0.002395 -0.909000 
1.332529 1.869699 0.067325 0.435228 -0.101263 0.870589 
0.351023 -0.448189 0.173483 0.588792 -0.133050 0.795925 
-0.858797 0.724896 0.066040 0.409227 0.167887 -0.892916 
-0.286279 -0.666885 0.212336 -0.465937 -0.123763 0.852332 
0.435319 -0.569298 0.092566 0.534031 -0.061930 0.834077 
-0.106529 -0.992320 0.149755 0.067548 -0.405757 -0.907466 
-0.713245 0.616037 0.204204 0.587631 0.476478 -0.533390 
-0.338188 -0.858588 0.173364 -0.353251 -0.052516 0.915408 
0.312095 -0.620465 0.211311 0.537835 -0.117496 0.830252 
-0.814528 0.734853 0.166683 -0.381796 0.051974 0.909118 
0.132561 -0.906221 0.216054 0.167280 -0.040795 0.974829 
-0.427537 -1.112414 0.122445 0.253738 -0.154750 -0.948042 
2.985390 2.123342 -0.009657 -0.123107 -0.278422 0.950256 
0.277529 0.768381 0.474670 0.544299 0.287977 0.746614 
0.274919 0.397793 -0.079082 0.725087 0.090559 -0.676037 
-1.065242 1.077218 0.002833 -0.854628 -0.064512 0.492404 
-1.858989 1.188764 -1.219092 0.783992 -0.299533 -0.533597 
1.107554 1.085620 0.037063 0.576802 -0.140030 0.744965 
0.941104 0.981686 0.123326 0.724055 -0.086948 0.661508 
0.176429 -0.776578 0.067266 -0.103992 -0.317541 -0.929891 
-1.273320 0.237485 -0.284534 -0.624978 -0.140363 0.763903 
0.071732 -0.357826 -0.128650 0.417624 -0.299474 -0.839527 
-1.385700 0.959519 -0.361701 0.674568 -0.121852 -0.685727 
1.252752 0.755930 -0.086551 0.457274 -0.152134 0.829196 
-0.141965 1.209395 0.538340 0.399960 0.649541 0.610225 
-1.675216 0.950735 -0.665792 -0.784001 0.164904 0.593602 
0.770656 0.759153 0.204395 0.368535 0.062655 0.907287 
-0.383121 -0.395799 0.128484 -0.630090 -0.122295 0.766336 
0.590932 0.740887 0.326078 -0.452433 0.326861 -0.707463 
2.158386 0.951136 -0.247151 0.008289 0.137114 -0.983266 
-1.084688 0.014350 -0.223665 0.497124 0.134338 -0.837845 
1.875637 0.386794 -0.220622 -0.320498 -0.197836 0.911998 
0.369899 -0.146620 0.253852 0.493405 -0.217524 0.821546 
1.024565 0.468884 0.000411 0.630283 -0.162025 0.750695 
0.370091 -1.090599 0.157354 0.243694 0.063366 0.920140 
0.574136 0.343496 0.084193 0.131289 0.164618 -0.898341 
-1.914904 0.920068 -1.091760 -0.793209 0.267538 0.520741 
0.615778 0.580199 0.195132 -0.172309 0.475433 -0.576622 
-0.587564 0.408544 0.351408 -0.445535 -0.230268 0.829633 
0.812816 0.218383 -0.037977 -0.079042 0.160010 -0.879330 
-0.442486 -0.694832 0.066140 0.008114 -0.073255 -0.944329 
-0.524565 -0.073659 0.153141 -0.570038 -0.228082 0.773994 
0.168361 0.224974 0.426084 0.154554 -0.282169 0.945081 
1.514783 2.085634 0.036749 -0.244242 0.491078 -0.790954 
0.349267 -0.349608 0.213303 0.611290 -0.150955 0.770656 
-0.400700 0.171640 0.330836 -0.358977 -0.321443 0.873453 
-0.299264 -0.351049 0.040932 -0.442473 -0.031028 -0.889669 
0.816072 -0.002221 -0.007885 0.557633 -0.172892 0.808802 
1.698861 1.838376 -0.069172 -0.116853 0.266659 -0.949523 
-0.421377 0.404651 0.416195 -0.260152 -0.245133 0.925828 
-1.477877 1.624320 -0.896950 -0.838447 0.335505 0.424766 
0.694481 0.076532 -0.017765 0.041481 0.115851 -0.884358 
0.645131 -0.424393 0.011043 -0.119181 -0.005146 -0.926450 
-1.428462 1.333162 -0.600679 0.777670 -0.573436 -0.214608 
0.063526 0.293546 0.455673 0.054531 -0.320650 0.941767 
-1.609121 1.155101 -0.763168 0.766942 -0.502725 -0.342650 
-0.630659 0.597475 0.269428 0.346216 0.650821 -0.525094 
-1.596644 1.507732 -1.014085 -0.801763 0.399101 0.380715 
-0.163038 0.554495 -0.092118 -0.572864 0.225493 -0.745258 
1.389344 1.470946 -0.076369 -0.113203 0.192477 -0.949786 
1.193249 0.356550 -0.125727 0.515400 -0.189644 0.825894 
-0.346534 0.791074 0.313313 -0.896673 0.368673 0.024759 
-0.248249 0.743756 0.007413 -0.582151 0.552419 -0.571108 
-0.884167 1.156551 0.166009 -0.200758 -0.019123 0.945533 
0.572037 0.226909 0.277033 0.482829 -0.340261 0.800406 
1.230470 -0.076562 -0.264128 0.520617 -0.170577 0.825231 
-1.715384 0.196201 -0.634537 -0.617000 -0.138040 0.769186 
-0.536296 -0.902430 0.031359 0.189337 -0.102575 -0.956996 
1.623184 0.979190 -0.206551 0.077659 -0.243223 0.944631 
0.302685 0.858169 0.215500 0.859695 0.348852 -0.311021 
2.281057 1.910417 -0.143047 0.050637 -0.098387 0.983732 
-0.341367 -0.625246 0.178913 -0.553956 -0.096426 0.820147 
-1.003920 0.211336 -0.080870 -0.594878 -0.209337 0.769167 
1.095688 1.153701 0.005266 -0.197164 0.072786 -0.971969 
0.669991 0.705802 0.268972 0.312003 0.010727 0.878825 
-1.332300 2.463040 -1.090105 0.791970 -0.178947 -0.578842 
-1.403449 2.406250 -1.170090 0.779916 -0.183912 -0.596983 
0.642709 -0.675044 0.034959 0.449204 -0.003194 0.884074 
0.283061 0.698984 0.503357 0.454773 0.296711 0.822662 
-0.125201 -0.545834 0.295938 -0.179772 -0.210523 0.958968 
-1.878901 0.640201 -0.791891 0.767364 -0.265299 -0.574246 
1.006340 -0.015990 -0.077235 0.515197 -0.137368 0.836647 
-0.312176 0.146071 0.349144 -0.288218 -0.296413 0.904875 
1.431899 0.388417 -0.274369 0.336476 -0.269888 0.876515 
0.566544 -0.712438 0.057187 -0.178483 -0.071634 -0.956925 
-0.617656 0.046002 0.138360 -0.558415 -0.255182 0.774226 
0.914720 -0.679502 -0.127609 -0.296995 -0.094280 -0.911146 
0.133970 0.327364 0.471081 0.114569 -0.316323 0.939573 
-1.358904 0.916668 -0.309075 -0.797281 0.072635 0.571729 
0.422062 0.633053 0.346705 0.290854 0.611591 -0.537943 
-1.553213 0.026048 -0.600781 0.574863 0.232181 -0.780738 
2.057982 1.626461 -0.170275 0.112460 -0.222369 0.956653 
-0.627138 0.485037 0.364801 -0.402541 -0.086635 0.879599 
1.311249 0.215490 -0.250042 0.528502 -0.220850 0.814423 
2.567469 2.038739 -0.091301 -0.046234 -0.298384 0.944550 
-1.797513 1.348061 -1.240266 0.781313 -0.275189 -0.553654 
-0.394130 0.688020 0.327542 -0.719618 0.652643 -0.103527 
1.163943 -0.244930 -0.267637 -0.378557 0.111279 -0.879088 
0.161998 0.094559 -0.155098 0.614970 -0.017191 -0.768563 
0.608778 0.144865 0.211260 0.503622 -0.294412 0.802032 
1.275685 -0.161868 -0.320266 0.516191 -0.169528 0.825718 
-0.172107 -0.436864 -0.056040 -0.458825 -0.298983 -0.815741 
-1.049652 1.987632 -0.175514 0.917526 -0.063036 -0.308820 
0.041901 0.581354 0.550727 0.079946 -0.260170 0.960218 
0.056276 0.998622 0.070350 0.389424 0.406488 -0.805578 
-1.051912 0.292213 -0.142324 0.520064 0.145365 -0.839885 
2.957032 1.969552 -0.058978 -0.117195 -0.242014 0.962671 
-1.070562 0.823501 -0.044107 -0.801363 -0.076268 0.564827 
1.550986 0.095136 -0.472738 -0.507858 0.235668 -0.827099 
2.536402 1.787007 -0.143104 0.002405 -0.057437 0.984354 
-1.822408 1.195596 -1.153245 -0.771543 0.462454 0.344821 
1.652435 1.953990 0.016807 0.289675 -0.156468 0.901423 
1.668817 1.036901 -0.206291 -0.251229 0.003778 -0.956901 
0.061556 1.343731 0.214898 0.628755 0.649774 -0.350379 
1.187728 0.020399 -0.227474 -0.425339 0.154391 -0.870887 
-0.564155 0.165110 0.236434 -0.517051 -0.329405 0.777510 
0.646886 0.630420 0.260519 -0.442458 0.542784 -0.575815 
-1.155929 2.311677 -0.675516 -0.744019 0.444707 0.474184 
-0.389374 0.375671 0.156471 -0.484621 0.263407 -0.793154 
0.674957 0.298516 0.237818 0.480654 -0.342744 0.802666 
0.765590 -0.576324 -0.034230 0.462140 -0.035389 0.872779 
-0.391006 -0.096159 0.224984 -0.473423 -0.225478 0.832411 
0.312230 -0.412077 0.250211 0.631550 -0.149237 0.759253 
0.884562 1.315381 0.105524 -0.462245 0.087904 -0.855001 
0.976866 0.926972 0.094083 0.693910 -0.097681 0.682620 
2.008658 1.824923 -0.133576 0.196998 -0.056364 0.974023 
0.259766 0.577548 -0.057404 0.660534 0.224215 -0.693964 
-0.901938 0.152696 -0.115180 0.298567 0.134854 -0.843333 
2.074461 1.859715 -0.135524 -0.061413 0.338488 -0.932237 
0.992025 0.884358 0.031479 -0.289712 0.095483 -0.947933 
0.600039 0.664723 0.304625 -0.382646 0.512929 -0.623525 
0.099937 0.453227 -0.161473 0.582624 0.221364 -0.757422 
-1.208277 -0.186787 -0.373968 0.474316 0.155435 -0.829816 
0.422215 -1.285833 0.161075 0.811688 0.377037 0.232556 
-0.790715 0.852086 0.202246 -0.420603 -0.045996 0.890898 
2.799181 1.398675 -0.195413 0.064939 0.162161 -0.982137 
0.302026 0.878168 0.395002 0.885798 0.248865 0.367023 
-1.260920 1.490366 -0.332814 0.699344 -0.446100 -0.409318 
-0.053624 0.275270 -0.246772 -0.583193 0.059310 -0.799934 
-1.263034 -0.149888 -0.411698 0.492815 0.174395 -0.820402 
-0.021643 1.231207 0.153497 -0.528625 0.246576 -0.795775 
0.777924 -0.284672 -0.024349 -0.236945 0.035398 -0.917084 
0.985998 1.549525 0.079830 -0.117229 0.011249 -0.988207 
-0.930908 -0.715910 -0.171200 -0.394423 0.138849 0.862168 
0.102606 0.354433 -0.191604 0.599614 0.126755 -0.767735 
2.903232 1.913594 -0.083346 -0.108272 -0.238828 0.963706 
1.601697 0.913112 -0.224813 -0.176937 0.106103 -0.968336 
0.183025 1.037327 0.130506 0.616906 0.335869 -0.708897 
-1.468192 2.321512 -1.218334 0.780989 -0.190184 -0.592562 
1.437344 0.116578 -0.373813 0.544430 -0.227635 0.805189 
0.248234 -0.939651 0.169751 0.134064 -0.058896 0.984808 
-1.288818 1.422938 -0.311639 0.692903 -0.364776 -0.501451 
-1.252781 2.435681 -0.915276 -0.707127 0.432474 0.524612 
-1.568529 1.155392 -0.686814 0.769598 -0.458670 -0.368915 
-1.875049 0.898565 -1.011494 0.777892 -0.422535 -0.430214 
-1.498070 1.678495 -0.969125 -0.834789 0.278073 0.459924 
-0.319453 0.034531 0.066064 -0.498169 0.045456 -0.848159 
0.397456 -1.376874 0.140252 -0.206784 -0.160416 -0.950499 
2.708759 1.503562 -0.183796 0.029912 0.092790 -0.980007 
2.073872 0.480607 -0.239139 -0.120875 -0.126881 0.949120 
1.020667 0.823982 0.007868 -0.303569 0.105418 -0.940872 
1.625072 0.650905 -0.280412 -0.068862 0.215206 -0.945079 
1.675055 0.683934 -0.218398 -0.049181 -0.193028 0.938344 
-0.213397 1.151671 0.607441 -0.673534 0.345464 -0.619270 
0.692601 0.923307 0.266591 -0.684076 0.110730 -0.718515 
0.106688 1.272107 0.370195 0.335511 0.829628 0.418763 
-0.322313 0.390343 0.033455 -0.622998 0.139306 -0.746380 
2.074560 0.551265 -0.237657 -0.104382 -0.140964 0.950474 
0.091556 0.274975 -0.221775 0.600452 0.055866 -0.785322 
0.225399 0.756815 0.008042 0.569557 0.529682 -0.598558 
2.121844 0.747934 -0.230576 0.213654 0.029274 0.961397 
1.059723 0.304516 -0.044299 0.549831 -0.213051 0.802528 
-1.228795 1.895814 -0.467623 -0.846487 0.390275 0.335705 
-1.443763 0.457314 -0.426031 0.628152 0.017794 -0.750594 
0.167873 -0.320845 -0.095648 0.520675 -0.206395 -0.813141 
-1.801506 2.014745 -1.522362 0.768981 -0.132086 -0.620149 
0.178830 0.382180 0.486305 0.146483 -0.305982 0.939813 
-0.297979 -1.027328 0.133633 0.297422 -0.262940 -0.914255 
1.751434 1.668337 -0.097446 0.271071 -0.175573 0.935934 
2.134059 1.418467 -0.210166 0.116615 -0.147103 0.976174 
-1.132998 0.503664 -0.189352 0.557398 0.070415 -0.802292 
-0.591841 -0.052293 0.111414 -0.578289 -0.216546 0.772977 
2.469727 1.597902 -0.183156 -0.045096 -0.296556 0.947587 
0.914995 0.551567 0.092606 0.687073 -0.146890 0.710107 
-1.138543 -0.208270 -0.305513 -0.567552 -0.160278 0.789893 
-1.380487 0.296572 -0.361015 -0.636610 -0.107648 0.753122 
0.706521 -0.632703 -0.003222 0.455248 -0.018966 0.878549 
1.655401 1.265388 -0.180645 -0.113003 0.202560 -0.969591 
-0.251283 0.344080 -0.098228 -0.742130 0.075411 -0.649688 
-1.678578 1.815803 -1.303249 -0.807958 0.125650 0.560314 
2.150375 1.105686 -0.245119 0.030968 0.169120 -0.981264 
-1.624803 0.694559 -0.552590 0.700285 -0.092050 -0.681528 
0.027418 -0.556877 0.309651 0.268892 -0.192151 0.931026 
1.036796 1.275453 0.087924 0.633442 -0.175137 0.710622 
0.350892 -1.309790 0.163286 -0.641483 -0.433494 0.358351 
0.332621 0.244599 0.014834 0.587001 0.089838 -0.775121 
-1.255917 0.560499 -0.292230 0.617065 0.008105 -0.749270 
-1.446635 1.690406 -0.916400 0.821467 -0.347170 -0.443245 
-0.535082 0.567690 0.230783 -0.086065 0.520392 -0.583636 
-1.773708 0.636994 -0.670023 -0.742986 0.136889 0.631501 
1.607550 1.191669 -0.148804 -0.036471 -0.413839 0.890888 
-0.358629 0.450185 0.130479 -0.606436 0.269478 -0.719659 
-0.453833 0.346264 0.378990 -0.340929 -0.305948 0.872730 
-1.822851 0.792410 -0.819925 -0.776996 0.170796 0.598356 
2.676596 2.217228 -0.034285 0.093681 0.248530 -0.962180 
1.395946 1.168097 -0.133053 -0.171995 0.084733 -0.973742 
-1.721876 1.073240 -0.896145 0.770637 -0.514376 -0.339314 
1.096880 1.952800 0.130591 -0.320738 0.703547 -0.607091 
1.215486 -0.295366 -0.315615 -0.380567 0.113954 -0.874126 
1.414974 0.047093 -0.385236 -0.473774 0.202325 -0.843905 
0.614990 -0.608207 0.044581 0.472178 -0.024119 0.870163 
-1.666855 1.578923 -1.183006 -0.815324 0.278847 0.496196 
0.617456 0.063854 0.006453 0.128965 0.110468 -0.886360 
-0.755953 -0.329971 -0.030519 -0.562610 -0.073107 0.810477 
-1.571061 1.017526 -0.502114 -0.797984 0.178560 0.570012 
-0.208223 0.035023 0.351468 -0.255092 -0.237988 0.916707 
2.823714 1.754036 -0.125657 0.105319 0.233913 -0.964141 
0.490241 0.673708 0.394765 -0.158802 0.628191 -0.658623 
-1.249366 2.243974 -0.863276 0.857510 -0.225594 -0.456639 
1.715767 1.377798 -0.155149 -0.026134 0.344043 -0.926638 
0.269847 -0.360427 0.283157 0.543142 -0.126770 0.800282 
0.133192 1.232060 0.464472 -0.154185 0.869676 0.377973 
1.357992 1.358428 -0.081082 -0.224353 0.008299 -0.960805 
-1.749091 2.573120 -1.568222 0.739004 -0.089178 -0.665152 
1.763445 0.523848 -0.219587 0.178437 0.150172 -0.926943 
1.790269 1.140871 -0.205378 0.019394 0.232995 -0.967584 
-1.085319 1.329888 0.030704 -0.886265 -0.069530 0.431388 
-1.192790 0.142523 -0.259084 -0.612926 -0.193228 0.764118 
-1.807560 2.630435 -1.634624 0.732043 -0.067296 -0.676575 
-1.906184 1.001278 -1.153390 0.785458 -0.312735 -0.519078 
0.526739 0.403924 0.118683 0.197700 0.248558 -0.852438 
-1.759672 1.323005 -1.159927 0.778547 -0.249843 -0.567657 
0.273655 -1.033185 0.148009 -0.281084 -0.282771 -0.914673 
0.296325 -0.115643 0.007476 0.537038 -0.056553 -0.815385 
1.737996 0.313035 -0.341612 -0.076704 -0.298763 0.904296 
-0.107157 -0.469891 -0.061224 -0.333829 -0.401305 -0.843367 
-0.980646 1.072201 0.083770 -0.862062 -0.104518 0.483390 
-1.689707 0.574778 -0.591356 0.673981 -0.046670 -0.713443 
1.055978 -0.341227 -0.197278 0.492846 -0.111662 0.846020 
-1.654722 0.225445 -0.577477 0.591380 0.107636 -0.795569 
-0.577330 -0.512564 0.036443 -0.556281 -0.049430 0.817242 
2.334256 1.417491 -0.228850 -0.077694 -0.002580 -0.986636 
-0.830646 0.363913 0.096699 -0.626109 -0.260757 0.718561 
0.867741 0.145139 0.026032 0.534210 -0.222527 0.809088 
0.061074 -0.245931 -0.155303 0.439690 -0.233255 -0.839903 
-0.937932 1.452870 0.100311 0.772278 0.168774 -0.499878 
0.750626 0.425059 0.199091 0.581927 -0.256772 0.753664 
-1.054156 1.501821 0.093053 -0.912086 -0.094295 0.384425 
0.811878 -0.840405 -0.049398 0.322779 0.178406 0.913295 
-0.543836 -0.704487 0.052465 -0.514726 0.001944 0.846523 
-1.185832 0.552862 -0.193573 -0.711764 -0.070438 0.664817 
2.204391 1.573115 -0.201727 -0.119161 -0.034319 -0.980873 
0.562720 0.602793 0.356948 -0.071338 -0.021823 0.937822 
2.436431 1.948139 -0.123265 0.002137 -0.176210 0.976741 
-0.186712 1.096278 0.171583 -0.664436 0.386333 -0.582704 
-1.344118 1.614257 -0.557342 -0.880650 0.344120 0.275235 
-1.854249 1.029115 -1.075321 -0.765707 0.517966 0.285591 
-0.420805 0.248752 0.353511 -0.346010 -0.310881 0.876700 
-1.709088 2.082813 -1.423639 -0.740986 0.285319 0.584380 
-0.274964 0.083173 0.343043 -0.285655 -0.268917 0.906239 
-1.255354 1.433908 -0.218495 0.661897 -0.276843 -0.621616 
-0.545299 0.524766 0.159805 -0.246272 0.368622 -0.750389 
1.749704 1.181814 -0.149809 0.305474 -0.017939 0.893530 
-1.998056 0.741989 -1.090165 0.782869 -0.341114 -0.510328 
0.986187 0.320129 -0.067702 -0.315433 0.177395 -0.882940 
-1.508762 1.592859 -0.962256 0.828479 -0.297420 -0.470513 
-1.889380 1.207401 -1.282488 0.786199 -0.319764 -0.522371 
-0.500163 -0.446081 0.022905 -0.045503 -0.016582 -0.914976 
0.334982 -0.205009 0.286031 0.543226 -0.206019 0.792268 
0.970299 1.138336 0.065907 -0.223509 0.062014 -0.967720 
-1.331140 1.334741 -0.303411 0.690940 -0.278796 -0.594719 
2.689111 1.753529 -0.138885 0.096448 0.272476 -0.952700 
-0.018183 1.015821 0.579032 -0.133700 0.066809 0.980436 
-0.006046 -0.812312 0.082844 -0.580906 -0.302602 -0.726256 
1.955780 0.947512 -0.199769 0.276291 0.041620 0.949480 
-0.382069 0.544197 0.464733 -0.403874 -0.107722 0.875263 
0.246386 0.409941 0.474187 0.168398 -0.273222 0.944867 
1.081815 -0.266690 -0.198261 0.499628 -0.124133 0.841593 
0.504174 0.149424 0.056544 0.269450 0.133115 -0.887643 
0.199896 0.293716 0.446536 0.171884 -0.309993 0.931898 
1.471009 -0.006030 -0.437026 -0.476231 0.205481 -0.838475 
-0.573360 -0.634419 0.040521 -0.525984 -0.013842 0.838319 
-0.188298 0.040239 -0.129440 -0.640452 -0.037720 -0.744611 
-1.646761 1.959802 -1.301557 -0.780540 0.261356 0.563319 
-1.624816 2.160496 -1.348994 0.780492 -0.078692 -0.614311 
1.638857 0.450105 -0.392696 -0.140639 0.324348 -0.925070 
-1.054638 1.628130 0.142908 -0.637298 -0.046840 0.747234 
0.906327 1.124216 0.096516 -0.238530 0.057318 -0.965246 
1.693368 0.384373 -0.358120 -0.005858 0.301697 -0.917150 
0.051600 -0.092690 -0.189655 0.474832 -0.138909 -0.839055 
-1.095805 0.082756 -0.188540 -0.604183 -0.162355 0.774551 
-0.959608 0.584759 0.027299 -0.744927 -0.167304 0.628508 
0.352682 -0.095071 0.299098 0.476906 -0.240749 0.822463 
-0.160788 -0.216890 0.340940 -0.242415 -0.105947 0.946888 
-1.247631 1.829920 -0.529716 0.738883 -0.418201 -0.479921 
0.321405 -1.237438 0.150439 -0.522059 -0.219242 -0.813370 
-0.329146 0.741007 0.167158 -0.805592 0.414576 -0.361686 
0.607325 0.290645 0.282440 0.474229 -0.358130 0.800882 
2.873234 1.978147 -0.068832 -0.104227 -0.263806 0.955139 
0.216263 -0.193255 0.320402 0.374610 -0.160618 0.872337 
0.456456 0.205327 0.080402 0.330879 0.148478 -0.887867 
-1.193695 0.032951 -0.289546 -0.598960 -0.188074 0.770940 
-1.678419 1.747121 -1.280632 -0.810203 0.149145 0.548767 
-1.267763 0.476292 -0.311045 0.621597 0.021290 -0.748670 
-1.994835 0.800258 -1.132849 -0.797272 0.322393 0.497601 
1.657063 0.122939 -0.525248 -0.403028 0.295076 -0.844412 
-0.357445 -0.828643 0.070473 -0.012854 -0.177412 -0.933708 
0.264761 -0.553140 0.248807 0.499710 -0.151885 0.844922 
-0.967194 0.256397 -0.039588 -0.607088 -0.219823 0.753897 
-1.152168 1.788120 -0.199480 -0.958711 0.131942 0.128011 
1.422028 -0.049965 -0.411264 -0.459725 0.189609 -0.845073 
1.682135 2.100264 0.009886 0.268265 -0.145691 0.936443 
-1.860609 0.706913 -0.821292 0.766908 -0.325615 -0.519195 
-0.829230 -0.289875 -0.057224 -0.556294 -0.072459 0.813886 
-0.988271 1.003351 0.063501 -0.852188 -0.096913 0.501607 
0.902433 0.624594 0.112425 0.704585 -0.133434 0.695059 
1.058046 1.362638 0.034697 -0.151338 0.042360 -0.981106 
-1.506469 1.991831 -1.161878 0.811079 -0.021224 -0.582765 
1.890104 0.649780 -0.216343 -0.248387 -0.244843 0.919167 
-0.052770 -0.764055 0.263168 -0.310161 -0.097988 0.932770 
2.194331 0.548447 -0.251652 -0.054376 0.012777 -0.978754 
1.727309 2.005517 0.000232 0.258775 -0.159970 0.918144 
-0.238760 -0.546859 0.028731 0.017796 -0.332984 -0.910165 
-0.802500 0.011910 -0.093841 0.189165 0.096890 -0.857595 
1.239641 0.210823 -0.223721 -0.465691 0.192088 -0.860947 
1.721054 1.102539 -0.195093 -0.287819 -0.062557 -0.948831 
1.605407 1.117147 -0.187058 -0.288373 0.011464 -0.946435 
-0.023041 -0.886674 0.123621 -0.317515 -0.366737 -0.869481 
-0.497933 -0.226186 -0.003638 -0.180691 0.031324 -0.890288 
1.485469 1.835316 -0.024295 -0.155073 0.176961 -0.970066 
-1.881058 1.868007 -1.573431 -0.775980 0.182187 0.598622 
-0.061421 0.928771 0.564533 -0.208595 -0.023925 0.968795 
-1.225754 2.181569 -0.683044 -0.859357 0.285480 0.382441 
-0.839951 1.019264 0.099859 0.750099 0.130651 -0.644922 
-0.189763 0.877470 0.067788 -0.603774 0.427663 -0.657923 
-0.558703 0.138352 0.019153 -0.163986 0.127657 -0.865724 
0.123256 -0.250162 0.345630 0.192389 -0.071445 0.974271 
-0.991745 -0.480268 -0.258567 0.367668 0.069200 -0.873904 
1.900712 1.504500 -0.164198 0.202548 -0.129978 0.969289 
-0.943393 0.095001 -0.089632 -0.612288 -0.173301 0.768315 
0.803575 0.513666 0.066908 -0.268064 0.205443 -0.908039 
1.443454 1.995325 0.061432 0.375885 -0.129931 0.889797 
1.892802 2.037151 -0.035676 0.190493 -0.175157 0.939534 
-0.126551 -0.894805 0.112959 0.086117 -0.378484 -0.917553 
-1.214087 1.631171 -0.166067 -0.883448 0.415155 0.179557 
1.375274 -0.019112 -0.360512 0.531414 -0.202273 0.814169 
0.407220 0.394721 0.162444 0.461515 0.297006 -0.789452 
2.531973 1.459774 -0.205468 -0.026962 -0.230691 0.964118 
-0.941226 1.103485 0.140578 -0.742584 -0.105434 0.627682 
-0.988519 1.094483 0.017242 0.490331 0.005098 -0.848155 
-1.515725 1.040520 -0.463841 0.743380 -0.197910 -0.628383 
-1.045937 0.381209 -0.125979 0.516470 0.130107 -0.841680 
0.324035 0.394744 0.446265 0.197321 -0.253373 0.943928 
-0.541102 -0.041296 0.003023 -0.155487 0.080306 -0.877053 
1.584951 1.694326 -0.045610 0.352097 -0.213931 0.879195 
2.344041 2.222959 -0.079483 0.034674 0.223816 -0.973350 
0.360516 0.664370 0.456377 0.654963 0.164723 0.660439 
-1.392312 1.749739 -0.833155 0.822951 -0.374733 -0.410351 
1.241020 1.896724 0.064422 -0.033609 0.258298 -0.961851 
1.238366 1.182743 -0.063129 -0.164278 0.083572 -0.977367 
2.116956 0.608585 -0.243731 -0.059039 0.003662 -0.970882 
0.321048 0.063706 0.026605 0.537156 0.027049 -0.813243 
-0.409732 0.553192 0.235659 -0.559893 0.439700 -0.654821 
-0.618371 0.563748 0.195955 0.176178 0.521272 -0.540043 
2.066823 0.955525 -0.239233 0.026704 0.160895 -0.979192 
-1.538915 1.088516 -0.563908 0.771994 -0.325977 -0.480163 
0.688914 -0.279639 -0.012736 -0.096022 0.028643 -0.911380 
1.570012 1.348384 -0.150832 -0.097858 0.258071 -0.957082 
-1.516444 0.523243 -0.475894 0.649645 -0.014173 -0.730978 
-1.224706 1.767027 -0.379861 -0.930896 0.194981 0.209336 
-0.302489 0.481768 0.475006 -0.197972 -0.230501 0.951760 
-0.990127 1.637774 0.084971 0.632592 0.109661 -0.746582 
-0.313476 0.113122 0.032067 -0.566447 0.047595 -0.793700 
-0.062324 0.489210 -0.174334 -0.556427 0.251417 -0.772922 
-1.619512 1.626193 -1.148566 0.786496 -0.354048 -0.491705 
1.951774 0.461630 -0.228573 0.167264 0.100748 -0.935276 
1.512883 0.440738 -0.324938 -0.225430 0.280806 -0.915726 
0.025144 -1.169533 0.259111 0.563549 -0.222874 0.753900 
2.570498 1.324965 -0.230159 -0.002569 0.086536 -0.987736 
1.802294 2.159135 -0.011284 0.179602 -0.122166 0.973676 
0.271633 0.329047 0.438003 0.200392 -0.293833 0.929962 
2.308810 0.729860 -0.261658 -0.055976 0.053978 -0.992393 
-0.012590 -1.109629 0.243239 -0.613044 -0.065699 0.748315 
0.134564 -0.708474 0.248704 0.182858 -0.186300 0.959595 
0.394420 0.349783 0.405648 0.248058 -0.244979 0.933660 
-1.254554 1.132989 -0.213550 0.623135 -0.116125 -0.734981 
1.047826 1.155550 0.074560 0.626915 -0.147283 0.715513 
0.270559 -0.470659 0.267469 0.528624 -0.143661 0.826152 
1.433811 1.686633 -0.016095 -0.113949 0.056429 -0.966413 
-1.290529 1.673331 -0.507579 0.828256 -0.279272 -0.435415 
1.777932 0.692287 -0.213213 -0.195016 -0.245628 0.921289 
-0.120676 -0.609940 0.012159 -0.098180 -0.325235 -0.934422 
-0.414535 -0.866515 0.127654 -0.481957 0.007801 0.867749 
-1.237757 1.156741 -0.149246 -0.848671 0.013072 0.493383 
-1.555552 2.223848 -1.288744 0.781361 -0.141648 -0.600715 
-0.241919 0.154203 0.373588 -0.227823 -0.280440 0.926129 
-1.378926 0.464955 -0.383691 0.625903 0.018813 -0.749705 
-1.222735 1.548034 -0.156360 -0.895802 -0.046061 0.420031 
0.058302 1.068439 0.556399 -0.039470 0.172844 0.941024 
0.627590 0.409383 0.086555 0.010351 0.195492 -0.898514 
-0.544860 0.208145 0.033626 -0.195315 0.145846 -0.862622 
-1.213980 0.899728 -0.215714 0.590894 -0.038514 -0.759363 
2.739860 1.586644 -0.164107 -0.043745 -0.129953 0.981570 
1.118901 1.613915 0.079515 0.513166 -0.311068 0.732471 
-0.226145 0.870025 0.487359 -0.651577 0.076271 0.741938 
1.110780 1.698114 0.114056 0.637937 -0.044975 0.751934 
0.018244 0.620057 -0.145461 0.413733 0.369318 -0.821485 
1.477931 1.914352 0.049788 0.365181 -0.133798 0.881530 
-0.032087 0.858945 0.556521 -0.152149 -0.146539 0.967827 
0.416208 0.485144 0.196294 0.504641 0.385948 -0.722959 
1.318054 1.470304 -0.046258 -0.240840 -0.029391 -0.956659 
-1.796430 0.998505 -0.947494 -0.782583 0.171907 0.575098 
0.388548 0.486335 0.452872 0.285219 -0.173507 0.924195 
-0.641878 0.340489 0.245195 -0.542443 -0.348161 0.749708 
-1.547546 1.528599 -0.946284 -0.806074 0.407405 0.363486 
1.456713 1.754459 0.001515 0.418975 -0.260541 0.826383 
2.818566 1.667070 -0.142850 0.099458 0.226867 -0.966142 
0.543364 0.058249 0.030664 0.213865 0.107223 -0.888181 
0.573031 0.079202 0.205254 0.512553 -0.275833 0.801558 
-1.234368 1.251033 -0.128313 -0.861519 0.006016 0.469292 
-0.954757 1.296811 0.084257 0.489593 -0.038725 -0.855348 
0.019688 1.210793 0.471489 -0.030867 0.717921 0.679755 
1.799325 1.618052 -0.119463 0.245299 -0.151984 0.956222 
-0.081467 1.103817 0.541705 0.160207 0.250237 0.914700 
1.688574 1.619864 -0.088331 0.295177 -0.165262 0.927744 
0.736017 0.325754 0.197481 0.507632 -0.311911 0.793389 
-0.623799 -0.697600 0.022317 -0.499193 0.012084 0.856080 
2.174006 1.506977 -0.209997 -0.117876 0.023407 -0.981565 
-1.856112 0.416120 -0.729857 0.682971 -0.085398 -0.695403 
-0.931688 0.521480 0.043306 -0.729781 -0.189436 0.647376 
0.433979 -0.501023 0.049460 0.159489 -0.039497 -0.923673 
2.242656 1.048124 -0.247888 0.212714 0.034224 0.934673 
1.724774 0.905094 -0.212018 -0.057103 -0.257088 0.935924 
0.888502 0.734963 0.068852 -0.326005 0.124619 -0.933882 
-0.636891 -0.761836 -0.023777 0.238152 -0.056911 -0.936889 
-1.279373 1.958876 -0.694770 -0.852078 0.376825 0.341141 
