-2.316358 1.165379 -0.461674 0.444478 0.083669 -0.884716 
-1.378288 -0.015641 0.051080 -0.261626 -0.047417 0.949936 
3.634037 0.918961 0.342507 -0.517474 -0.017245 0.847774 
0.076561 0.360606 -0.270769 0.584814 0.152204 -0.768667 
2.027842 1.106322 -0.051130 0.119170 -0.241359 -0.941138 
0.882890 -0.279074 0.121087 0.225305 -0.089848 0.964309 
1.678643 0.646088 -0.000202 0.233482 -0.129830 0.922818 
2.573734 0.316767 -0.037579 0.183810 -0.147857 -0.965482 
-0.525923 -0.332385 0.027109 -0.362755 0.001296 -0.883099 
0.927982 0.436490 0.143172 -0.124629 0.213796 -0.938849 
-2.899975 1.189212 -0.807732 -0.308243 -0.039782 0.939463 
-0.364223 -0.040985 0.036332 -0.587338 0.019026 -0.791065 
-0.039282 -0.905173 0.206024 -0.356350 0.051582 0.920326 
-3.314650 0.869414 -0.855990 -0.202765 0.102648 0.960432 
0.024207 1.190304 0.405161 -0.060325 0.652963 0.724630 
-1.993672 0.633717 -0.168784 -0.393443 -0.149926 0.887460 
-0.024461 0.475116 -0.262459 -0.508606 0.281827 -0.798378 
-2.025185 -0.279235 -0.060643 0.308173 -0.177075 -0.926872 
1.243710 -0.650533 0.007325 0.186792 -0.124686 0.972666 
-3.049907 0.323107 -0.728388 -0.319944 0.146630 0.925109 
-0.957836 0.474751 0.215869 -0.139001 0.281489 0.944315 
-2.590300 0.037148 -0.473568 0.366067 -0.206920 -0.901413 
-2.834545 0.359365 -0.684133 0.411365 -0.282088 -0.862169 
-0.974947 0.062227 0.179831 -0.220758 -0.176477 0.951670 
2.296347 0.229039 -0.049345 0.314104 -0.136863 -0.933922 
-1.101851 -0.823139 0.024237 0.069664 0.017141 -0.977473 
0.293326 0.491754 0.419328 0.123621 -0.206291 0.968334 
2.911897 0.554181 0.009392 -0.349697 0.003338 0.919538 
0.024698 1.307565 0.228052 0.273129 0.843675 0.420723 
3.268731 0.687352 0.145903 0.476422 0.002788 -0.871960 
-0.144449 0.013861 -0.225163 -0.594311 -0.046337 -0.780158 
-2.340773 0.901654 -0.468960 -0.615227 -0.020248 0.771316 
0.379888 -0.978039 0.135255 0.174362 0.053888 0.973515 
0.554737 0.264640 0.311110 0.102128 -0.331572 0.933653 
3.247399 0.283996 0.210505 0.355246 -0.203908 -0.901283 
0.813565 0.139365 0.227158 0.173522 -0.234152 0.945467 
2.959517 0.112680 0.110633 -0.265856 0.193819 0.935507 
1.931471 0.330403 -0.084894 -0.101303 -0.134710 -0.978156 
-0.801408 -0.372977 0.097486 -0.053718 -0.009172 -0.970367 
-2.801078 0.886561 -0.762008 0.263575 0.045040 -0.952345 
-0.768733 0.392654 0.313050 -0.234427 -0.087496 0.946820 
-2.100685 -0.288512 -0.066517 0.334550 -0.213846 -0.913792 
-1.083696 0.142317 0.154380 -0.274671 -0.171571 0.933182 
-1.680689 1.186150 -0.015421 0.367273 0.217153 -0.857249 
-0.423550 0.285366 0.326728 -0.088849 -0.300788 0.945927 
-0.120944 0.529017 0.467941 -0.130911 -0.287021 0.946716 
-0.985075 0.599253 0.210825 -0.126459 0.201394 0.958508 
-0.206629 1.053373 0.092776 -0.731218 0.299315 -0.558055 
-2.472448 0.390515 -0.523175 0.425977 -0.148434 -0.885879 
-1.664773 0.873643 0.038048 -0.500983 -0.242525 0.811426 
1.901165 0.546530 -0.051505 -0.003513 -0.098744 0.942136 
-0.378765 -0.132622 0.025969 -0.553621 0.012864 -0.809633 
-1.972350 0.915286 -0.179413 0.317076 -0.127937 -0.909772 
-0.657120 -0.109925 0.063402 -0.299552 0.033121 -0.883047 
1.220799 0.392442 0.082507 -0.075600 -0.077389 -0.989035 
-0.280336 0.972011 0.216415 -0.910769 0.348991 -0.125795 
-0.566893 -0.811163 0.105322 -0.087415 -0.114246 -0.978538 
-0.404832 0.451734 0.125437 -0.695664 0.210857 -0.672766 
1.944957 -0.210458 0.058026 -0.279900 0.210591 0.915949 
0.425914 -0.370151 0.005389 0.434342 -0.015933 -0.868853 
0.867563 -0.595564 0.094964 0.192436 -0.046971 0.974878 
1.729060 1.430634 -0.040111 -0.214832 0.100984 -0.917600 
2.190689 0.337817 -0.019958 -0.028839 0.091789 0.974859 
-2.513165 1.190447 -0.626727 0.503982 0.041567 -0.859302 
0.207218 0.112015 -0.192586 0.671027 -0.021185 -0.711965 
1.822222 0.546802 -0.071048 -0.035824 -0.166428 -0.982367 
-0.302812 0.045480 0.268816 -0.212751 -0.263799 0.913286 
1.454098 0.235890 0.022148 -0.058129 -0.073826 -0.991083 
-1.692982 0.021387 -0.052579 0.291536 -0.073969 -0.937001 
-0.165740 0.946530 0.456674 -0.345555 0.024941 0.908727 
0.897574 0.415804 0.227766 0.202499 0.218820 0.928279 
-2.543918 -0.450924 -0.270140 -0.463685 0.271258 0.839715 
-0.355261 0.774153 0.216050 -0.898232 0.385182 -0.127545 
0.562654 -0.683714 0.115916 0.234731 -0.005816 0.963316 
-2.470324 -0.449440 -0.227460 -0.432099 0.261038 0.856659 
-0.283981 0.137442 -0.133770 -0.744901 -0.024577 -0.646115 
-2.106174 -0.441578 -0.036110 -0.297855 0.200345 0.929143 
2.589179 1.216682 -0.017941 -0.027875 -0.007638 0.967226 
1.027899 0.303507 0.176104 0.348379 -0.188493 0.911629 
-1.414617 0.902966 0.055014 0.172938 -0.051953 -0.966305 
2.212531 0.691993 -0.075884 0.164171 0.037781 -0.961779 
-2.721836 -0.041861 -0.520824 0.404388 -0.237976 -0.879176 
-0.603062 0.495149 0.167176 -0.338562 0.380088 -0.699563 
-1.733080 1.374078 0.006108 0.829086 0.014881 -0.537606 
2.981853 0.894367 -0.011259 0.372548 0.070207 -0.914909 
0.960567 0.352909 0.207081 0.370700 -0.188991 0.908264 
0.744739 0.663033 0.266819 0.156922 0.122003 0.948564 
0.303264 0.825816 0.354148 0.755373 0.361111 0.459795 
-3.329951 0.473267 -0.820444 0.228643 -0.141415 -0.958829 
0.059056 -0.752896 0.221648 0.299879 -0.052770 0.938476 
2.175568 -0.475119 0.174079 0.195333 -0.320524 -0.920445 
-2.875093 0.878260 -0.769632 -0.382061 0.280662 0.874918 
1.032896 0.192334 0.167184 0.305593 -0.171329 0.929562 
1.540382 0.730529 0.043380 0.320707 -0.184410 0.893754 
0.481759 0.211026 0.301272 0.120594 -0.326232 0.928500 
2.135317 0.462471 -0.098331 -0.057189 -0.099329 -0.967353 
1.057252 -0.706927 0.037377 0.188546 -0.081436 0.973883 
-1.277016 0.453204 0.120488 -0.412699 -0.189357 0.872531 
-1.747129 0.070487 -0.071097 0.321143 -0.088098 -0.928444 
-2.634276 -0.209721 -0.407146 -0.514304 0.275160 0.788596 
-0.190400 1.163803 0.180137 -0.839700 0.473288 -0.228379 
-3.185870 0.661338 -0.816151 0.201147 -0.028840 -0.972037 
2.722352 0.360647 -0.007675 -0.183669 0.122336 0.962741 
2.251079 0.297241 -0.036287 0.310448 0.230279 0.904525 
0.977704 -0.707689 0.044517 -0.052561 0.001201 -0.979676 
-0.963866 -0.242697 0.112691 0.045292 0.025439 -0.992034 
0.697396 -0.079797 0.169755 0.230593 -0.185163 0.939906 
3.397869 0.853149 0.195820 -0.458942 -0.007099 0.875919 
-0.943291 0.184875 0.146900 0.000517 0.023000 -0.988443 
0.327583 -0.768749 0.161708 0.350222 -0.028525 0.911366 
-3.089906 0.392671 -0.748987 -0.296045 0.121947 0.935603 
-1.660177 0.790453 0.032410 -0.491119 -0.212046 0.821940 
-2.408800 0.584950 -0.527622 0.504986 -0.089981 -0.850739 
3.039782 0.229761 0.125203 -0.314314 0.150846 0.923228 
-2.637239 1.289367 -0.691588 0.467220 0.041387 -0.877852 
0.443089 -0.172809 0.158864 0.296119 -0.188926 0.916454 
2.636373 1.078010 -0.072001 0.178105 0.117479 -0.971093 
-2.825818 1.393423 -0.758663 0.301208 0.410796 -0.831271 
-2.238029 0.580062 -0.400527 0.404705 0.036569 -0.897642 
-3.579992 1.170195 -0.886861 -0.100021 -0.055836 0.989101 
-1.721294 1.182528 0.065995 -0.177297 0.102614 0.944444 
0.710765 -0.420879 0.081848 0.107999 -0.029113 -0.954474 
0.107945 1.283687 0.240552 0.401082 0.851278 0.302168 
0.616935 0.550003 0.250304 0.183135 0.551950 -0.692490 
1.697779 -0.353068 -0.014130 -0.043829 0.067346 0.982157 
2.842424 0.065544 0.069154 -0.217695 0.207789 0.949005 
-0.313422 -0.586549 -0.011523 -0.437292 -0.148140 -0.856724 
-2.208144 1.115871 -0.387897 0.541787 -0.111441 -0.824859 
0.280537 0.124604 0.285225 0.123135 -0.284702 0.949830 
2.507718 0.844410 -0.075208 -0.037073 -0.138091 -0.975017 
-0.092707 0.952641 0.481364 -0.215602 0.025480 0.968317 
0.565809 -0.119147 0.045858 0.372128 0.026007 -0.865865 
-1.921258 0.283295 -0.089631 -0.430536 0.035297 0.885661 
0.426567 0.060741 0.056988 0.540322 0.035598 -0.802781 
-1.601273 0.284352 -0.020519 0.253964 -0.109573 -0.944680 
-0.654444 0.178353 0.273994 -0.099526 -0.291318 0.943280 
0.250592 0.372452 0.396152 0.112699 -0.283139 0.948863 
2.703451 0.584297 -0.046985 -0.204749 0.042106 0.959988 
-0.556492 0.359578 0.347539 -0.095066 -0.193312 0.950143 
-1.618011 0.008909 -0.015673 -0.310790 0.014879 0.935948 
-2.156687 -0.351619 -0.078354 0.353495 -0.250110 -0.887415 
0.070694 1.079548 0.468136 0.016745 0.204256 0.934090 
-0.610462 0.041604 0.228171 -0.164464 -0.248151 0.936928 
0.192525 -0.145139 -0.175310 0.585777 -0.117444 -0.781244 
0.488646 0.343163 0.354774 0.072828 -0.247298 0.948427 
-0.067440 1.248023 0.327298 0.000059 0.865741 0.458204 
-0.356753 0.494809 0.004151 -0.711003 0.175310 -0.671871 
-2.472114 0.047941 -0.397535 -0.672188 0.323925 0.604986 
0.988304 0.147663 0.133126 -0.041886 0.026211 -0.993064 
-1.879417 0.704272 -0.102564 0.404149 -0.202807 -0.860636 
-0.970511 0.399784 0.236200 -0.375226 -0.181504 0.906490 
0.339075 -0.473870 0.004262 0.468238 -0.044865 -0.864250 
2.260780 0.634703 -0.060995 0.118436 0.031507 0.985409 
-1.864207 0.043617 -0.095993 0.345460 -0.109387 -0.922532 
-2.736957 0.022906 -0.550287 -0.477552 0.247521 0.816859 
-1.274586 0.344846 0.112324 -0.373477 -0.164647 0.891290 
-2.244944 1.315525 -0.394723 0.440749 0.044053 -0.892594 
-1.237905 -0.371679 0.069790 -0.147244 -0.124038 0.978923 
0.011791 -0.173355 0.292897 0.104261 -0.051490 0.986427 
-1.179228 -0.189799 0.094598 0.085570 0.041951 -0.994388 
0.050241 -0.048081 0.295606 0.117462 -0.133010 0.977358 
-0.261845 -0.068782 -0.134656 -0.676411 -0.098689 -0.702519 
2.416386 0.328153 -0.045699 0.148545 0.207239 0.927100 
3.438490 0.381946 0.283847 -0.432714 0.149353 0.887077 
2.572410 1.074223 -0.023969 -0.024516 -0.018919 0.961925 
-1.607314 -0.153415 0.001646 -0.253426 0.005056 0.953564 
2.133818 0.846043 -0.065940 0.137383 -0.055025 -0.958244 
-0.601301 -0.693638 0.105454 -0.090452 -0.093637 -0.974204 
1.722019 -0.194064 -0.056067 -0.003440 -0.069329 -0.996091 
0.735667 -0.590120 0.123480 0.194243 -0.018939 0.975674 
-0.558784 -0.158564 0.044787 -0.380362 0.022805 -0.863559 
-1.345171 0.468612 0.059712 0.147595 -0.107143 -0.971652 
0.186868 -0.574461 -0.033812 0.112884 -0.404364 -0.887169 
-0.016170 -0.752360 0.231551 -0.436549 -0.037935 0.887465 
1.681814 1.239740 0.015856 -0.109531 0.364573 0.818209 
2.501295 0.208426 -0.019417 0.252151 -0.167554 -0.946415 
-0.142933 1.167772 0.353763 -0.969243 -0.091796 -0.065853 
0.893757 -0.711090 0.059370 -0.027768 -0.024067 -0.979482 
-0.008250 0.940557 0.492326 -0.134187 0.031313 0.977868 
-1.382316 0.553604 0.096658 -0.463453 -0.181617 0.852216 
-0.212755 -0.379561 0.249528 -0.405724 -0.076271 0.886896 
0.086254 -0.569265 0.235596 0.176818 -0.192858 0.962287 
-1.028396 -0.296756 0.114541 -0.167992 -0.107815 0.977315 
1.796244 1.161934 -0.002586 0.359417 -0.163719 0.873660 
0.309029 0.415013 0.394820 0.107249 -0.229353 0.963575 
-0.547838 0.587340 0.342926 0.054205 0.300798 0.941779 
1.088827 -0.528520 0.059322 0.190355 -0.098301 0.973434 
0.416959 0.221552 0.079385 0.581866 0.049996 -0.778066 
1.563964 0.889716 -0.006107 -0.048388 -0.197964 -0.977059 
-0.212803 -0.837918 0.048539 0.117356 -0.348204 -0.912874 
1.642669 0.720047 0.012280 0.267033 -0.163425 0.910812 
-1.722567 1.240938 0.010744 0.694164 0.573463 -0.320288 
1.705667 -0.118965 -0.041352 0.033838 0.036823 0.995671 
0.136781 -0.521713 -0.075175 0.273685 -0.477188 -0.832480 
1.540735 0.067520 0.016004 0.108411 -0.005669 0.983220 
1.270390 0.713190 0.124481 0.452985 -0.223012 0.852576 
-2.191633 0.591267 -0.331914 -0.716547 0.132803 0.677791 
-0.371339 -0.313070 0.117797 -0.372962 -0.149103 0.903090 
-1.358499 0.632488 0.064228 0.144250 -0.136367 -0.971171 
-0.209004 -0.279027 -0.148473 -0.572734 -0.167161 -0.792188 
0.171413 1.179633 0.293026 0.800209 -0.047008 0.384879 
-2.619626 0.873694 -0.655597 -0.434933 -0.019688 0.880934 
-0.374571 0.743802 0.286717 -0.899581 0.397822 0.128110 
-2.863312 0.569684 -0.721134 -0.294757 0.015951 0.938306 
-1.141213 -0.064068 0.119388 -0.204756 -0.110313 0.966258 
3.022827 1.227413 0.022594 -0.270972 -0.054491 0.933471 
-2.716548 0.978192 -0.720563 0.316905 0.122929 -0.929197 
-2.427761 -0.317043 -0.249855 0.480130 -0.296254 -0.809884 
-2.848243 0.448801 -0.702226 0.411585 -0.294655 -0.855938 
0.563305 0.293468 0.102365 0.397903 0.070970 -0.847118 
-1.206930 0.839284 0.136464 0.508861 0.355182 -0.744830 
-0.178974 0.054370 0.288978 -0.169191 -0.231308 0.943700 
-1.521195 0.326231 0.035600 -0.407920 -0.083004 0.886203 
-2.229836 0.908323 -0.389202 0.549628 -0.132543 -0.796749 
0.106960 0.221231 -0.273863 0.614427 0.038670 -0.767260 
-0.999490 0.396915 0.150595 0.026666 -0.027753 -0.997045 
-2.756422 0.146292 -0.603593 -0.465062 0.228300 0.831848 
2.366713 0.229689 -0.027676 0.249727 0.257071 0.897368 
-0.296924 -0.870537 0.057862 -0.046169 -0.260818 -0.957672 
-2.908831 0.379078 -0.705023 0.384141 -0.261565 -0.876371 
-0.555082 -0.475449 0.101661 -0.303675 -0.074380 0.938996 
-1.927697 0.380444 -0.118682 0.402903 -0.164898 -0.885182 
-0.271767 0.225429 0.331701 -0.121514 -0.318165 0.939861 
0.208995 -0.136031 0.260792 0.334299 -0.166313 0.882322 
3.013216 0.707599 0.010041 0.157541 -0.325363 -0.921234 
-2.545621 0.482694 -0.577096 -0.494045 0.148088 0.853546 
-1.003191 -0.085059 0.152121 -0.171650 -0.141500 0.971239 
3.554933 1.038424 0.293779 -0.480721 0.011735 0.869801 
0.378756 0.670628 0.375423 0.567612 0.208338 0.746563 
2.742042 0.649494 -0.054600 0.083462 -0.236524 -0.957263 
0.641033 -0.143990 0.150750 0.264632 -0.169744 0.933709 
1.451532 0.400664 0.026247 -0.055644 -0.115328 -0.989488 
-0.082361 -0.544529 0.242295 -0.158722 -0.198458 0.964689 
0.220174 1.121645 0.195981 0.875003 0.423990 -0.195067 
2.142535 1.162865 -0.072070 0.101990 -0.015961 -0.992723 
-0.128506 0.559753 -0.168401 -0.518868 0.288247 -0.761376 
3.066648 0.546199 0.076070 -0.399755 0.013155 0.904409 
-0.408397 -0.222355 0.017725 -0.506279 0.007853 -0.832074 
-0.456140 -0.281462 0.015785 -0.448825 0.006427 -0.854666 
-1.902501 -0.466840 -0.018571 0.212714 -0.125659 -0.957734 
-0.333885 0.178468 0.056329 -0.661621 0.019299 -0.745431 
-0.378246 0.553383 0.042472 -0.697702 0.257895 -0.661008 
1.529397 0.150251 0.023888 0.146737 -0.024126 0.967538 
-1.961790 -0.240842 -0.063233 0.296177 -0.145996 -0.933346 
-0.104494 0.125967 0.315618 -0.091856 -0.249247 0.960793 
-2.064371 -0.359920 -0.046195 -0.306685 0.175535 0.928718 
0.210316 0.027616 -0.181417 0.649950 -0.054189 -0.728402 
-2.568786 -0.017216 -0.433893 -0.592194 0.295578 0.694778 
3.291939 0.506451 0.186854 0.453137 -0.060674 -0.879835 
2.325241 0.081008 -0.003664 0.309858 -0.183714 -0.927942 
2.393624 -0.205172 0.111903 0.065708 0.300737 0.916275 
1.633594 -0.310896 -0.038774 -0.002236 -0.044140 -0.997436 
-0.926342 -0.799531 0.042577 -0.006584 0.012307 -0.980853 
-0.271180 0.213971 -0.158937 -0.760956 0.004762 -0.632360 
1.648498 0.882083 0.014081 0.297935 -0.222897 0.897882 
0.116603 0.076691 -0.251723 0.582111 -0.018624 -0.791959 
1.680014 -0.490416 0.019861 -0.101797 0.095214 0.967176 
2.003325 0.778203 -0.024087 0.093112 -0.074210 0.941951 
-0.673290 -0.683435 0.103898 -0.053772 -0.076804 -0.981670 
-2.818976 0.638995 -0.720248 -0.288103 -0.017572 0.941791 
-2.719375 0.270036 -0.622796 0.429333 -0.200527 -0.877183 
1.251726 0.469117 0.118126 0.372988 -0.170882 0.887565 
-0.204905 0.827301 -0.004460 -0.566989 0.440693 -0.686487 
3.162589 0.465221 0.136523 -0.402517 0.060047 0.901454 
-2.410185 0.021032 -0.364021 0.342513 -0.186810 -0.912468 
-2.528076 1.001824 -0.641053 0.537378 -0.044109 -0.836826 
-1.513940 0.849895 0.033997 0.195466 -0.177304 -0.955537 
-1.500814 -0.634446 -0.000898 0.101410 0.059335 -0.988527 
1.365392 -0.377571 0.029898 0.100985 -0.067942 0.985981 
0.352477 0.635287 0.431065 0.527452 -0.033521 0.813677 
0.316955 -0.058198 0.008151 0.606502 -0.040252 -0.782488 
-1.289723 -0.671666 -0.004833 0.084208 0.140228 -0.985479 
3.321090 0.573456 0.194766 -0.368430 0.178408 0.899277 
-2.895160 1.386555 -0.789564 0.238993 0.445698 -0.838812 
1.321754 0.718090 0.060702 -0.064315 -0.160370 -0.984038 
1.840167 -0.005823 -0.046115 0.029232 -0.134776 -0.979676 
-0.309143 0.429491 -0.075419 -0.705882 0.086111 -0.700523 
-3.288354 1.041037 -0.872003 0.171155 -0.032216 -0.983096 
-2.029525 0.717762 -0.195300 -0.477596 -0.091211 0.829018 
0.282620 -0.534140 -0.054854 0.474511 -0.211817 -0.832152 
-0.258775 -0.350348 -0.099417 -0.591995 -0.201596 -0.773473 
-1.885984 1.097938 -0.103753 0.318506 -0.241660 -0.893767 
-1.474585 -0.347647 0.042677 0.118617 -0.006045 -0.988407 
-0.062949 0.124088 -0.293747 -0.551567 0.009665 -0.822368 
-2.190442 0.170180 -0.267331 -0.262159 0.067970 0.956870 
-1.766120 -0.355099 -0.025939 0.196584 -0.063325 -0.968154 
-1.977844 0.358818 -0.168858 0.499310 -0.176421 -0.809981 
-0.761693 0.322696 0.278264 -0.245657 -0.240301 0.923818 
-0.116677 -0.311888 0.279776 -0.208206 -0.007602 0.975451 
-1.530095 -0.211580 0.013518 0.175488 -0.026132 -0.971253 
2.307660 0.430820 -0.074843 0.273875 -0.017593 -0.947462 
-0.214124 -0.456412 -0.089703 -0.441677 -0.318525 -0.807515 
2.830908 1.125235 -0.006366 -0.164905 0.006183 0.960473 
0.030250 -0.569970 -0.063894 0.313789 -0.485356 -0.804895 
-1.419669 0.459049 0.077472 -0.438574 -0.146035 0.866725 
0.295114 0.309562 -0.135239 0.778580 0.041273 -0.622967 
0.307957 0.434697 -0.081588 0.704301 0.093409 -0.701024 
1.609061 0.639449 -0.015840 -0.044102 -0.166985 -0.983032 
-1.270613 0.033313 0.061142 0.146248 -0.003824 -0.975579 
0.450854 -0.120531 0.033317 0.477679 0.017968 -0.836496 
-2.071548 0.905797 -0.259769 0.442438 -0.108820 -0.853293 
0.621810 -0.228504 0.036017 0.296260 0.018210 -0.896844 
0.456110 0.133994 0.070778 0.529393 0.045424 -0.799283 
1.881790 0.904330 -0.031210 0.042910 -0.251222 0.899599 
0.502412 -0.039089 0.204055 0.230666 -0.229828 0.924494 
-1.692988 0.208589 -0.026449 -0.394416 -0.001525 0.900701 
-0.141971 -0.017970 0.293264 -0.148522 -0.174178 0.966968 
2.125699 -0.429075 0.151816 0.193192 -0.318205 -0.917397 
0.819085 -0.441457 0.107931 -0.010978 -0.032190 -0.985199 
-2.765308 1.362970 -0.725018 -0.425152 0.059116 0.891358 
2.116537 1.329890 -0.010590 0.046735 0.100589 0.963282 
-1.539691 0.530004 0.046937 -0.460406 -0.139200 0.854993 
-0.096018 1.282009 0.141847 -0.687345 0.618455 -0.069243 
-0.141537 0.769071 0.455647 -0.185309 0.066611 0.966727 
-0.342696 0.441411 0.393387 -0.102736 -0.198479 0.972386 
-1.487602 -0.152181 0.016692 0.181949 -0.021676 -0.968565 
1.439157 -0.299234 0.010005 -0.027533 -0.002422 -0.996757 
0.126349 -0.762420 0.200295 0.173841 -0.085778 0.969204 
-3.256697 0.953596 -0.856378 0.192769 -0.047557 -0.976099 
0.418831 0.001021 0.224188 0.210254 -0.256187 0.924919 
0.203512 0.884419 0.435078 0.534391 0.113374 0.814858 
1.371004 -0.253179 0.041971 0.098749 -0.053808 0.986575 
1.940206 1.245829 -0.067526 0.092658 -0.031141 -0.993869 
0.166650 1.219607 0.217043 0.682188 0.672189 -0.187652 
-0.272990 0.545086 0.437304 -0.174530 -0.191250 0.952642 
-0.610629 0.118742 0.256722 -0.127679 -0.276958 0.938785 
0.037065 0.737635 0.467087 0.066656 0.042254 0.994323 
-2.707608 0.698474 -0.692552 0.461551 -0.293688 -0.828099 
-2.595936 0.392718 -0.594040 0.461013 -0.165952 -0.868552 
1.389786 0.355643 0.073880 0.279300 -0.105973 0.919301 
-0.856752 -0.070952 0.093260 -0.122336 0.049414 -0.932097 
-0.766616 0.036071 0.214533 -0.145956 -0.222502 0.951641 
1.880183 1.020877 -0.008936 0.315711 -0.099527 0.902936 
-1.584419 0.506339 -0.004546 0.236537 -0.143193 -0.947479 
3.185167 0.598230 0.121842 -0.296566 0.226945 0.916657 
-2.501757 -0.352309 -0.278466 -0.422307 0.237664 0.861497 
0.562073 0.009551 0.216821 0.203282 -0.238947 0.930612 
0.293402 0.211748 -0.121467 0.753368 0.007075 -0.642828 
2.337672 -0.143901 0.077886 0.232884 -0.239380 -0.931499 
0.940945 0.049059 0.183526 0.191387 -0.184314 0.955955 
0.169119 0.633996 -0.135558 0.519150 0.373559 -0.741422 
0.491156 0.505848 0.411826 0.051656 0.120840 0.974296 
0.229780 -1.014082 0.142701 0.052323 0.061664 0.992634 
-1.567629 1.059059 0.013141 0.243200 0.033709 -0.951138 
-0.417803 0.551790 0.122166 -0.706815 0.286034 -0.644974 
1.020803 0.083469 0.126461 -0.063991 0.036606 -0.995707 
3.078055 0.986051 0.012013 0.348817 -0.029527 -0.934735 
0.304735 0.712170 -0.026933 0.591309 0.597090 -0.535327 
3.532042 0.938673 0.270763 0.494228 -0.033259 -0.865278 
-0.658978 -0.613635 0.122318 -0.205507 -0.021587 0.971298 
-0.064702 0.185550 0.340402 -0.054994 -0.281536 0.952481 
0.303427 -0.140396 0.240421 0.411472 -0.204642 0.835413 
1.672392 0.414347 -0.030719 -0.038675 -0.140483 -0.988163 
0.758252 0.350887 0.282387 0.258314 -0.197869 0.926068 
-0.458698 0.495661 0.140998 -0.649424 0.248529 -0.680577 
-0.026140 0.285349 0.379464 -0.005684 -0.342459 0.936190 
0.364783 0.122200 0.059265 0.610873 0.037899 -0.777571 
0.304444 -0.304433 -0.032095 0.561962 -0.076327 -0.814942 
2.175224 1.320670 -0.054243 0.103408 0.119862 -0.985556 
3.027900 0.786603 0.012943 -0.220271 0.248288 0.936466 
0.951963 -0.637825 0.070508 0.190796 -0.062718 0.974425 
0.822337 -0.293977 0.084479 0.060950 0.006302 -0.961536 
-0.652793 0.208466 0.109475 -0.325900 0.032372 -0.866691 
3.718683 0.853541 0.398823 -0.526581 0.032991 0.847836 
-1.279047 -0.467509 0.036366 0.087876 0.089276 -0.989768 
0.551343 -0.209630 0.031188 0.365345 0.015382 -0.875852 
0.759716 -0.167349 0.059686 0.182855 0.034188 -0.923062 
0.766928 -0.352042 0.113321 0.253758 -0.081550 0.955544 
2.558063 0.108021 0.014176 0.276418 -0.195959 -0.936901 
1.254957 0.228662 0.070703 -0.075354 -0.041049 -0.990693 
0.224803 0.177432 0.321502 0.121537 -0.288580 0.948546 
3.247200 1.219608 0.084721 0.478031 0.457943 -0.741537 
0.342718 -1.126213 0.159695 0.270411 0.189857 0.858505 
-0.934633 -0.055134 0.104990 -0.053336 0.055818 -0.951135 
-0.724829 -0.019337 0.197117 -0.178021 -0.208102 0.946345 
-0.026072 -0.607250 -0.038222 -0.311484 -0.468603 -0.819505 
-0.294957 0.377623 -0.124329 -0.747435 0.057787 -0.657649 
-2.330049 0.015142 -0.300918 -0.261928 0.110540 0.945990 
2.241813 0.407996 -0.045581 0.233180 0.164650 0.939991 
-0.337997 -0.655128 0.142412 -0.393877 -0.061736 0.902428 
-0.048146 0.307029 -0.309132 -0.571832 0.101124 -0.797418 
1.526856 0.366632 0.037113 0.237879 -0.063638 0.928787 
2.787197 0.486444 -0.011254 -0.250619 0.058682 0.946016 
0.084600 0.125649 0.317239 0.082212 -0.245030 0.962454 
-0.020426 1.356609 0.032209 -0.580450 0.253976 -0.727108 
0.380560 0.060977 0.245450 0.170073 -0.282300 0.933789 
-0.106881 -0.963123 0.116903 0.063246 -0.455370 -0.884373 
1.632310 0.575662 0.012234 0.242097 -0.111294 0.921517 
-0.498189 0.456146 0.411100 -0.027216 0.012834 0.988091 
1.080585 0.259856 0.155884 0.328125 -0.176487 0.917033 
-0.961635 0.337002 0.157931 0.016877 -0.007311 -0.998625 
-0.747094 -0.521748 0.110067 -0.030587 -0.048331 -0.983261 
-1.688341 1.112331 0.001119 0.252182 -0.225441 -0.938036 
-2.901467 0.732094 -0.761815 0.408463 -0.330974 -0.838435 
-2.549222 -0.308397 -0.325266 0.440231 -0.263980 -0.850595 
2.287416 1.253927 -0.053833 0.202695 0.050383 -0.975501 
-0.222390 0.814698 0.438819 -0.437153 0.205833 0.855375 
2.629838 -0.172817 0.119652 0.192992 -0.269816 -0.939156 
-0.104169 -0.238432 0.283709 -0.188955 -0.044589 0.975053 
2.806862 0.675786 -0.031982 -0.276492 -0.011025 0.940689 
0.176098 0.693175 -0.095365 0.470395 0.500964 -0.686054 
2.191803 0.792659 -0.069466 0.112150 -0.017895 -0.967106 
1.717296 1.113075 -0.001606 0.311541 -0.297580 0.889008 
0.543609 0.130555 0.079673 0.448054 0.051065 -0.822319 
0.201168 0.795154 0.443845 0.351720 0.177665 0.892254 
0.712503 0.041414 0.214448 0.174892 -0.228085 0.943953 
-2.595237 0.642991 -0.624690 -0.422600 0.058420 0.884993 
-2.986629 0.541255 -0.750353 0.364233 -0.266844 -0.876707 
2.220550 0.225341 -0.013916 -0.012443 0.157176 0.957277 
0.385458 0.468410 0.385577 0.135619 -0.140539 0.963958 
-2.373456 -0.144666 -0.279466 0.546751 -0.314932 -0.755125 
-0.069405 0.596624 -0.182321 -0.447074 0.364706 -0.784837 
1.031068 -0.631934 0.054871 0.189827 -0.080048 0.973935 
-0.615937 0.441313 0.374979 -0.113817 -0.002336 0.974615 
-0.233568 0.629485 -0.114056 -0.578966 0.338430 -0.718880 
2.480377 1.232398 -0.017063 0.022398 -0.019179 0.963585 
-0.564655 -1.028142 0.112012 -0.121558 0.137921 0.977865 
1.923168 0.969049 -0.067428 0.300125 -0.019153 -0.937077 
1.825195 0.615868 -0.041686 0.133720 -0.102254 0.943957 
1.141703 0.418661 0.146132 0.384594 -0.193918 0.889213 
-1.124606 -0.497407 0.048771 0.061119 0.082069 -0.987952 
1.281634 -0.501804 0.023639 0.179116 -0.131104 0.973711 
-3.294059 1.136323 -0.865340 -0.153787 -0.098500 0.973513 
2.704514 0.857961 -0.059206 -0.106123 -0.006998 0.984694 
0.165977 -0.436098 -0.126543 0.451915 -0.324878 -0.813974 
-1.822385 -0.514242 -0.004599 0.171094 -0.089580 -0.972631 
0.104662 0.376862 0.420523 0.073245 -0.342823 0.934332 
1.315388 0.799777 0.061632 -0.065136 -0.170982 -0.982000 
-0.302863 0.260424 -0.090022 -0.757206 0.025892 -0.643844 
1.841542 -0.117444 -0.000837 -0.085632 0.144913 0.965006 
-3.130894 0.871536 -0.819753 -0.277916 0.177271 0.924653 
0.363851 -0.257090 0.004181 0.527454 -0.002543 -0.834800 
-0.555346 -0.882350 0.113223 -0.181440 0.027593 0.979278 
1.075445 -0.455268 0.059437 -0.086225 0.043700 -0.985268 
-3.204447 1.007875 -0.852043 -0.217770 0.009952 0.968137 
-0.216661 1.111248 0.141553 -0.846144 0.400563 -0.335161 
0.329520 -0.842684 0.157640 0.250057 -0.005442 0.937675 
3.408213 0.638411 0.229107 -0.413442 0.141182 0.886800 
-0.032243 1.292065 0.067789 -0.592693 0.277674 -0.709449 
-1.227979 0.252942 0.082973 0.117093 -0.043074 -0.981586 
-2.058296 0.047645 -0.145478 -0.355353 0.113640 0.922138 
0.508735 0.503425 0.146399 0.572204 0.261198 -0.712933 
-0.398718 0.152948 0.066333 -0.597948 0.036402 -0.769828 
-0.038407 0.548463 -0.225343 -0.473372 0.337380 -0.797712 
-0.097128 -0.855054 0.202223 -0.217340 -0.002841 0.962045 
0.104570 1.136919 0.437671 -0.185327 0.341557 0.874140 
2.038911 -0.041310 0.007101 0.026832 -0.272626 -0.935897 
3.192377 0.392241 0.162063 0.299738 -0.242568 -0.905059 
2.132252 -0.216401 0.084331 -0.326511 0.214768 0.904571 
1.563887 1.128987 -0.030863 -0.390243 0.167584 -0.902976 
-2.118083 0.147813 -0.215575 -0.311766 0.083073 0.939595 
-2.074126 1.133549 -0.257332 0.419990 -0.307892 -0.832366 
1.181464 0.089558 0.115318 0.238193 -0.125722 0.949301 
-2.835691 0.163393 -0.649526 -0.400782 0.191477 0.890444 
2.039234 0.865268 -0.041066 0.223905 -0.134973 0.925419 
-1.699417 0.829520 -0.017792 0.267874 -0.192819 -0.936269 
0.464540 -0.795341 0.113343 0.241822 0.016214 0.961600 
-2.680419 0.206991 -0.576305 -0.501386 0.228077 0.801235 
0.347202 -0.836541 0.058430 0.254867 -0.185216 -0.924418 
-2.331871 0.382180 -0.431387 0.366067 -0.094973 -0.914457 
1.595513 0.513938 -0.010991 -0.044451 -0.149284 -0.986409 
0.201848 0.991389 0.430522 0.561066 0.026253 0.778344 
0.362567 -0.195997 0.173513 0.349309 -0.190281 0.887479 
1.836982 1.286685 -0.065809 0.074456 -0.052236 -0.994491 
-0.773522 -0.736249 0.092898 -0.166954 -0.033748 0.978517 
-2.332379 1.200797 -0.399061 -0.592106 0.012493 0.748209 
-0.035036 1.370481 0.103417 -0.587392 0.686070 -0.212161 
-1.849498 0.278377 -0.089733 0.348047 -0.141678 -0.919506 
0.077283 0.708156 -0.117827 0.356022 0.558218 -0.721383 
-2.428377 0.505708 -0.510081 -0.575435 0.172924 0.774978 
2.090435 -0.350779 0.122632 -0.283976 0.259650 0.910408 
-1.811000 0.103729 -0.087555 0.342873 -0.105324 -0.922353 
1.398984 0.976721 0.015871 -0.405632 0.175476 -0.887101 
-2.350276 1.227569 -0.492841 0.476704 0.021290 -0.874659 
-3.081914 0.820246 -0.805656 -0.304407 0.203868 0.914141 
0.118928 0.844424 -0.034229 0.513189 0.380622 -0.750440 
1.079252 0.185506 0.113555 -0.076484 -0.000821 -0.992657 
-0.524622 0.122851 0.264627 -0.137366 -0.291482 0.930707 
0.707871 0.030252 0.082766 0.274504 0.051664 -0.879782 
1.971960 1.362306 -0.027280 0.089292 0.611820 -0.759680 
0.430024 0.665674 0.253646 0.588385 0.690264 -0.268518 
-2.287385 0.374275 -0.369094 -0.740264 0.263928 0.580277 
-0.597451 0.273763 0.112277 -0.376074 0.028974 -0.852564 
2.674751 0.718822 -0.058405 -0.126574 0.028379 0.979948 
-0.314689 0.720823 0.019749 -0.669391 0.528385 -0.487231 
3.259717 0.360078 0.202237 -0.399530 0.117821 0.899692 
0.318642 0.028315 0.264229 0.235243 -0.264095 0.902347 
0.873710 -0.920695 0.066183 -0.073143 -0.125669 -0.970340 
-0.052671 -0.255611 -0.221927 -0.435258 -0.253274 -0.833970 
-2.320659 0.979993 -0.449145 -0.617724 -0.064588 0.755709 
3.711829 0.960484 0.393462 -0.513279 0.036812 0.850658 
-0.288891 -1.269106 0.163139 0.695531 -0.323463 0.080662 
0.253681 1.042706 0.222320 0.895587 0.370684 -0.099375 
0.961874 0.779882 0.199681 -0.383231 0.176562 -0.898791 
-0.361190 0.112502 0.263661 -0.139377 -0.300545 0.939836 
-0.807171 0.152034 0.121869 -0.161085 0.033644 -0.924804 
1.675002 -0.424206 -0.006343 0.070644 -0.092240 -0.977987 
-2.628521 -0.032095 -0.470603 0.387971 -0.224290 -0.887730 
-2.582163 0.214975 -0.529958 0.372639 -0.180052 -0.905319 
1.284678 -0.578894 0.010208 0.187145 -0.137536 0.972314 
-2.394292 0.385691 -0.477239 0.402171 -0.137657 -0.897518 
-1.267089 -0.038304 0.058921 0.149276 0.011771 -0.975355 
-0.285096 -1.054021 0.128919 0.139760 -0.043830 0.847919 
-0.216760 -0.507049 0.228391 -0.369547 -0.135014 0.911666 
2.618466 0.071135 0.031868 0.272863 -0.209635 -0.936009 
1.215530 0.871664 0.134375 0.018490 0.237456 0.930760 
-2.425102 1.113443 -0.510282 -0.596138 0.031852 0.772815 
3.260371 0.617312 0.157159 -0.335901 0.197610 0.906499 
-0.200306 0.746817 -0.049915 -0.530037 0.484071 -0.670850 
-3.288208 0.538087 -0.820081 -0.225296 0.085433 0.965919 
-3.200573 0.476417 -0.789066 -0.255941 0.100453 0.952804 
0.249598 0.936592 0.386406 0.758646 0.130912 0.595284 
-0.435669 -0.485339 0.032109 -0.374859 -0.038990 -0.886428 
-2.453613 1.164892 -0.575939 0.479155 0.071424 -0.868755 
-0.013525 -0.921175 0.099024 -0.447191 -0.383182 -0.784059 
1.039255 0.593321 0.112732 -0.272007 0.182885 -0.918613 
-2.436589 -0.122064 -0.324758 0.577715 -0.323077 -0.737933 
-2.280573 0.077812 -0.304342 0.624363 -0.336635 -0.688799 
-1.995744 -0.387507 -0.039176 0.267818 -0.166844 -0.938706 
1.320655 0.202479 0.054083 -0.070141 -0.044598 -0.991097 
-2.579236 1.061934 -0.641655 -0.543089 0.042769 0.823815 
-0.513841 -1.078621 0.120868 -0.017066 -0.235654 -0.967547 
2.781201 0.557110 -0.034591 0.119935 -0.243518 -0.952600 
-0.026076 1.188361 0.038195 -0.484996 0.163548 -0.845251 
1.534503 -0.057022 0.009741 0.086936 -0.006815 0.988145 
0.869699 -0.009373 0.094393 0.116677 0.058556 -0.927425 
2.895025 0.971194 -0.030238 0.286283 0.094489 -0.941567 
-1.892669 -0.172074 -0.063970 -0.301644 0.081216 0.937879 
0.694244 0.536781 0.280011 0.012584 0.343090 0.928162 
2.842901 0.586087 -0.012998 -0.306696 0.007243 0.931924 
-3.253564 0.677599 -0.830010 0.190344 -0.042820 -0.974826 
-0.399057 0.691687 0.232908 -0.622258 0.763905 -0.120072 
0.348669 0.596534 -0.016017 0.674526 0.292985 -0.672361 
3.644771 0.988907 0.343390 0.523539 -0.007432 -0.847886 
1.985454 0.925185 -0.060550 0.244930 -0.120171 -0.929585 
-3.076570 1.137628 -0.838885 -0.231470 -0.068318 0.958029 
2.670726 0.644271 -0.068611 0.066989 -0.199927 -0.967649 
-0.618986 0.646810 0.312322 -0.018292 0.231247 0.941128 
0.124049 -0.720585 0.006196 -0.042319 -0.413684 -0.906018 
0.138849 0.979725 0.019058 0.553245 0.284569 -0.766226 
-1.098514 0.658343 0.123339 0.394935 0.267012 -0.864388 
0.988170 -0.065962 0.098908 -0.004993 0.060665 -0.966483 
-0.131497 -0.254782 -0.188254 -0.508236 -0.198622 -0.814377 
0.007267 -0.600718 0.255825 0.442669 -0.124508 0.877925 
2.209415 -0.244338 0.099049 0.063751 -0.319320 -0.928087 
-2.787680 0.312123 -0.657281 0.417921 -0.246372 -0.869539 
2.956014 0.216304 0.088815 -0.290890 0.147334 0.930273 
1.881164 0.056146 -0.047163 0.025534 -0.153016 -0.976084 
0.579595 0.518251 0.180554 0.345356 0.404714 -0.693773 
-1.857082 0.348958 -0.087839 0.348125 -0.150820 -0.918875 
1.621471 -0.119396 -0.018225 0.055248 0.014715 0.992649 
-0.927694 0.543801 0.197818 0.346956 0.396052 -0.828068 
0.549580 0.196008 0.289015 0.120953 -0.310376 0.933841 
-2.327134 0.753586 -0.469180 0.602016 -0.046965 -0.789481 
-1.656644 -0.294078 0.001484 -0.213739 0.010513 0.965803 
0.896116 0.761098 0.223174 0.268783 0.000658 0.962660 
-3.351885 1.088045 -0.875589 0.152742 -0.017429 -0.985328 
-0.379609 -0.415912 0.007465 -0.470543 -0.020776 -0.856926 
-1.890289 -0.251279 -0.051103 -0.278672 0.084113 0.944054 
1.316522 0.112504 0.053198 -0.071973 -0.021076 -0.991955 
-1.614764 1.004764 0.064296 -0.516618 -0.302751 0.794929 
2.562750 1.321753 -0.041378 0.129506 0.338278 -0.903813 
0.391538 -0.867965 0.122031 0.261124 0.026083 0.953666 
0.760043 -0.914203 0.069118 -0.005836 -0.107400 -0.973131 
-0.617897 -0.964701 0.093825 -0.154627 0.043746 0.978749 
1.113097 0.645232 0.197932 0.245433 0.012109 0.962254 
-1.367742 0.868843 0.154169 -0.200660 0.040788 0.971950 
-0.811632 -0.292954 0.086339 -0.085963 0.011877 -0.957953 
0.142552 0.193845 0.343706 0.108741 -0.279203 0.951568 
-0.315925 0.873876 0.212827 -0.916383 0.336564 -0.131443 
0.263836 0.592669 -0.110395 0.627024 0.276626 -0.704284 
-3.149131 1.127571 -0.855750 0.210205 -0.027259 -0.974716 
-3.260982 0.437187 -0.798116 0.252852 -0.157173 -0.947449 
-1.256788 -0.606776 0.015102 -0.121894 -0.167882 0.977058 
-0.374905 -0.882963 0.139221 -0.279263 0.015711 0.944414 
0.897346 0.294069 0.215769 0.314328 -0.215522 0.917444 
-0.189562 0.089044 -0.202018 -0.654697 -0.026678 -0.726672 
-1.104784 -0.311620 0.096279 -0.158509 -0.128701 0.977126 
0.685229 0.457251 0.328139 0.092200 0.191495 0.965049 
-0.153220 -0.768778 0.188902 -0.151944 -0.096373 0.972038 
0.808954 -0.223353 0.068186 0.113837 0.025787 -0.945205 
1.023311 0.725834 0.189216 0.118514 0.153524 0.968106 
2.185023 -0.309777 0.121574 -0.265518 0.246843 0.915201 
-2.586954 0.960919 -0.657811 0.554634 -0.275168 -0.772406 
-1.419890 0.830200 0.108641 -0.496212 -0.278214 0.817230 
0.072289 0.925541 0.484690 0.212965 0.033401 0.966321 
1.842100 -0.220580 0.029384 0.151974 -0.204548 -0.944835 
1.242352 -0.041143 0.068029 -0.080201 0.028420 -0.993275 
2.026794 0.027538 -0.008831 -0.255112 0.131071 0.927749 
2.436001 0.868020 -0.072132 -0.015811 -0.137356 -0.972599 
-0.207460 1.017564 0.424807 -0.612594 -0.002166 0.743361 
-2.272523 0.234617 -0.318020 -0.441569 0.133842 0.842257 
-0.344558 0.593608 -0.026777 -0.675411 0.281580 -0.674469 
-0.470755 -0.451640 0.090557 -0.353104 -0.091225 0.923080 
-2.494408 -0.096166 -0.361220 -0.633121 0.316332 0.654394 
-1.872914 0.613357 -0.047074 -0.469774 -0.099802 0.844034 
0.027226 0.860695 -0.068030 0.410042 0.371035 -0.823658 
0.622300 -0.076413 0.178285 0.236127 -0.197780 0.933689 
-2.052435 0.133141 -0.185644 0.473121 -0.195966 -0.836632 
1.570840 -0.259257 -0.013380 0.046851 -0.001483 0.993904 
2.657897 0.438631 -0.048445 0.131608 -0.159664 -0.972600 
-0.120808 0.082512 -0.249048 -0.591802 -0.016451 -0.784290 
1.197083 0.670586 0.144704 0.475395 -0.224567 0.847120 
-0.269028 0.477086 -0.132657 -0.684831 0.111449 -0.705551 
0.018083 1.247536 0.047072 0.613331 0.068246 -0.771978 
-0.034878 -1.027076 0.152355 -0.264507 -0.424309 -0.856726 
2.430941 0.401870 -0.054499 0.083605 0.165402 0.950793 
-2.078994 -0.068653 -0.120129 -0.344848 0.138867 0.922540 
1.018309 0.597166 0.187492 0.097892 0.272577 0.952576 
0.209058 0.721980 0.454770 0.312611 0.277867 0.885136 
-0.201985 0.312813 -0.207345 -0.714915 0.068795 -0.669432 
3.158596 0.759086 0.083634 -0.287462 0.206879 0.919303 
-0.838750 0.032934 0.208018 -0.137683 -0.210436 0.958423 
-2.245889 0.976544 -0.401380 0.529460 -0.204412 -0.794242 
0.463992 -0.427895 0.025095 0.362670 -0.031784 -0.889492 
-1.754015 -0.100566 -0.041072 -0.296596 0.042394 0.940432 
2.252844 -0.190353 0.086072 0.017849 -0.320342 -0.932743 
0.777760 0.211165 0.243175 0.196480 -0.251229 0.934948 
1.523446 0.986263 0.054111 0.382634 -0.282635 0.869218 
0.801018 -0.074497 0.077580 0.165452 0.046908 -0.919621 
-2.235123 -0.147668 -0.197416 0.494426 -0.299919 -0.782656 
0.948772 0.651581 0.208036 0.162806 0.159385 0.957183 
1.887891 0.256673 -0.081640 -0.053528 -0.128404 -0.986398 
-1.012842 0.277546 0.188703 -0.329394 -0.208420 0.914084 
0.032190 0.246325 0.364977 0.020617 -0.316768 0.943290 
-0.321302 -0.205794 0.004119 -0.588844 -0.010491 -0.803092 
0.751259 0.482054 0.275643 0.075868 0.297988 0.939411 
2.038906 -0.406702 0.132940 0.218792 -0.314783 -0.910863 
0.617703 0.173887 0.274025 0.124465 -0.291826 0.939045 
0.020414 1.237397 0.348913 -0.020393 0.803192 0.574539 
-0.051674 0.874828 -0.049780 -0.432881 0.382159 -0.800384 
-3.049075 0.728485 -0.798310 0.224536 -0.013195 -0.965382 
3.064709 0.848015 0.022175 -0.262545 0.169664 0.936842 
-0.555471 0.418207 0.132461 -0.485415 0.184411 -0.772958 
0.090953 -0.935521 0.106274 0.024588 -0.443997 -0.881586 
-0.272172 -0.215330 -0.082066 -0.620868 -0.149605 -0.753512 
0.746193 0.578092 0.250595 -0.118225 0.451920 -0.786654 
-2.202864 0.244972 -0.308267 0.667990 -0.303202 -0.661348 
1.842257 1.084533 -0.004054 0.318813 -0.129866 0.891770 
-0.212220 0.734391 0.451016 -0.330835 0.278731 0.880239 
-2.041047 1.023906 -0.231757 0.450204 -0.190225 -0.837928 
1.338495 0.268235 0.082815 0.260043 -0.106920 0.930587 
0.989699 -0.566708 0.060610 -0.058816 0.012207 -0.982738 
-0.576511 0.109001 0.082487 -0.422794 0.044794 -0.825996 
-2.175384 0.510845 -0.346789 0.316484 0.072792 -0.940888 
0.656412 -0.121873 0.055189 0.288089 0.031937 -0.889591 
1.832928 0.199801 -0.056571 0.062631 0.062405 0.985344 
-0.056033 0.359196 0.411457 -0.031134 -0.353955 0.932213 
0.884153 0.599171 0.206363 -0.352364 0.304096 -0.861788 
-0.756355 0.104893 0.240196 -0.116874 -0.249284 0.951897 
0.115817 0.254994 0.369354 0.082263 -0.309759 0.943365 
-0.084293 -0.660500 -0.015915 -0.067114 -0.420482 -0.894930 
-0.935920 0.756839 0.227522 0.339387 0.167443 -0.924448 
1.103408 -0.767952 0.017933 0.187177 -0.087906 0.973690 
-2.068279 0.771590 -0.226663 -0.735606 -0.008978 0.626315 
0.677121 0.305147 0.118344 0.268474 0.052953 -0.894263 
1.581042 0.426600 0.024431 0.236775 -0.064246 0.926158 
-0.119905 -0.707039 0.206408 -0.190187 -0.127867 0.964912 
-0.354479 0.730329 0.359268 -0.739120 0.400420 0.421237 
-2.571294 0.120374 -0.483068 -0.612367 0.295982 0.666140 
0.994064 0.374100 0.140733 -0.036502 -0.029651 -0.996524 
3.494488 0.995430 0.243265 0.485237 -0.022803 -0.870514 
1.658575 1.141741 -0.033978 -0.043033 -0.237542 -0.969566 
-2.334541 1.299797 -0.427663 -0.623416 0.023717 0.748539 
0.279315 -0.406269 0.217253 0.566106 -0.120688 0.800589 
0.565047 -0.900065 0.109619 0.192627 0.035233 0.977159 
1.691261 0.999599 0.003758 0.300950 -0.259596 0.894594 
-2.366962 0.473619 -0.478811 0.416529 -0.086392 -0.892921 
0.936812 -0.822944 0.037024 -0.038291 -0.017087 -0.977127 
-0.153885 1.234800 0.215644 -0.667756 0.689647 -0.123036 
-0.198034 1.213764 0.503534 0.511459 0.200945 0.802540 
0.762474 0.207477 0.116845 0.197834 0.029618 -0.912976 
-2.493300 -0.018570 -0.387415 -0.646313 0.317285 0.636278 
2.324419 1.037525 -0.062879 0.035121 -0.274420 -0.946225 
-0.021554 -0.062136 0.296875 -0.098044 -0.117163 0.981855 
-0.180788 0.686155 -0.100205 -0.477649 0.469428 -0.703926 
-1.011050 -0.448841 0.075801 0.039667 0.042081 -0.988249 
-3.433296 1.093754 -0.877255 -0.131839 -0.053566 0.982381 
-1.779998 0.205807 -0.053208 -0.407925 0.026391 0.898253 
-2.226906 -0.308913 -0.135167 0.410428 -0.276224 -0.845141 
2.780230 1.047023 -0.063922 0.188638 0.101120 -0.968475 
-0.359729 -0.969133 0.093687 -0.097933 -0.208152 -0.968358 
-0.275976 0.936436 0.354195 -0.848473 0.179276 0.463833 
-1.910165 1.015734 -0.070739 -0.774996 0.017672 0.614648 
-0.864420 0.524757 0.240394 -0.189300 0.181243 0.946411 
2.458508 0.471368 -0.062001 0.007892 0.123711 0.975307 
0.893547 0.133741 0.119971 0.067398 0.035282 -0.953224 
2.192387 -0.396054 0.150609 -0.225064 0.276030 0.921698 
0.047379 1.315536 0.055549 0.522345 0.306458 -0.725527 
0.149535 -0.000760 -0.220584 0.588989 -0.054271 -0.783107 
-0.621945 -0.503941 0.111082 -0.261191 -0.058194 0.952736 
0.059280 -0.640740 0.230649 0.306549 -0.137961 0.934878 
2.323686 0.569217 -0.061718 0.079087 0.069370 0.985507 
-1.323285 0.700773 0.077679 0.127902 -0.141095 -0.974970 
0.274186 -0.850492 0.053544 0.062608 -0.273772 -0.952462 
3.230483 1.138027 0.078965 -0.456452 -0.191717 0.861611 
-2.070531 0.570587 -0.291003 0.698195 -0.191032 -0.643937 
0.123091 -1.126917 0.201952 -0.125089 -0.447159 -0.877423 
0.574433 -0.976065 0.103114 0.172341 0.066250 0.977403 
0.371998 0.650969 0.052348 0.755968 0.395294 -0.469048 
0.295123 -0.526718 0.172300 0.511323 -0.110194 0.848867 
1.308725 0.854834 0.143439 0.244505 0.018609 0.962847 
-2.672054 -0.107387 -0.465609 -0.503458 0.265128 0.795270 
1.470030 0.555460 0.060765 0.319561 -0.130847 0.897603 
-0.626305 -0.040321 0.196659 -0.201363 -0.215137 0.936478 
-2.622817 1.119672 -0.637510 -0.481983 0.029448 0.846028 
2.027044 1.197888 -0.060915 0.073123 -0.189590 -0.963834 
1.428102 0.622502 0.033007 -0.056522 -0.153873 -0.985378 
1.508814 -0.136959 -0.001624 -0.036760 -0.025062 -0.995112 
-3.188547 1.320024 -0.852800 0.120871 0.383696 -0.886722 
-0.348714 0.288644 0.333624 -0.112364 -0.258289 0.956469 
-2.287422 -0.243601 -0.193860 0.465460 -0.291853 -0.808919 
-1.114446 -0.240133 0.086088 0.078973 0.078455 -0.992958 
0.492821 -0.444430 0.088548 0.348278 -0.086032 0.925674 
-2.580534 -0.371248 -0.318454 -0.527186 0.289301 0.782645 
1.978078 -0.459890 0.143547 -0.279559 0.295243 0.908848 
0.401065 0.676230 0.173135 0.746305 0.589198 -0.212122 
-2.304534 0.459351 -0.400284 -0.685289 0.209461 0.662760 
1.720467 1.491859 -0.000647 0.033361 0.136942 0.893270 
3.490908 1.067716 0.251222 -0.475562 -0.026102 0.868664 
0.002942 0.008753 0.301119 0.074444 -0.150808 0.982328 
-0.075511 0.935909 -0.019191 -0.456212 0.350450 -0.798270 
-0.758068 -0.197090 0.128829 -0.258234 -0.136642 0.945261 
-0.113074 1.263438 0.275450 -0.301836 0.879099 0.269835 
-0.319569 0.533935 -0.074968 -0.692337 0.189416 -0.684900 
1.793319 -0.276741 0.021128 -0.118426 0.146668 0.958078 
1.750967 0.214130 -0.050919 -0.032985 -0.114416 -0.991977 
0.225795 -0.045238 -0.162886 0.642913 -0.084959 -0.732405 
-1.447488 0.621463 0.082629 -0.471402 -0.193408 0.843560 
-0.457494 0.142575 0.276549 -0.136073 -0.308530 0.925774 
1.757924 1.235646 0.004555 0.433024 -0.179364 0.869576 
-1.727234 1.545481 0.046498 0.678350 0.195256 -0.500000 
-0.023908 0.986500 -0.008464 -0.310421 0.296299 -0.890942 
0.204317 0.438565 -0.173762 0.663270 0.149820 -0.706868 
-2.711409 0.518136 -0.662732 0.448232 -0.253867 -0.848807 
-1.812568 0.752295 -0.053027 0.314663 -0.194565 -0.924372 
-1.095934 -0.686504 0.034811 -0.134444 -0.122908 0.977586 
1.150038 0.602803 0.155433 0.454330 -0.220623 0.858974 
-1.593916 -0.470185 0.033510 -0.142760 -0.012331 0.987555 
-1.711203 0.586041 -0.034688 0.282252 -0.164953 -0.934513 
-2.788692 0.568790 -0.702278 0.435530 -0.306442 -0.839806 
-2.460653 1.197747 -0.493996 -0.532097 0.015900 0.793835 
-1.569115 0.712819 0.011231 0.222295 -0.166311 -0.949518 
2.404870 1.339167 -0.033745 -0.015478 0.342679 0.901335 
-2.190856 0.958479 -0.341472 -0.656028 -0.101403 0.708903 
-3.119097 0.466220 -0.767564 -0.273151 0.094127 0.945740 
2.521999 0.707872 -0.078781 0.011929 -0.106330 -0.982599 
3.187272 1.073361 0.053001 0.393776 -0.021816 -0.917372 
-1.344523 0.279641 0.085641 -0.361777 -0.127407 0.900176 
0.922422 0.215440 0.202260 0.281165 -0.201690 0.929434 
-2.714892 0.590541 -0.667552 -0.363663 0.040509 0.909484 
2.889422 0.243004 0.052922 -0.280915 0.128430 0.934068 
-0.278069 -0.610966 0.183722 -0.459492 -0.097411 0.869509 
0.651315 -0.009083 0.201121 0.203250 -0.218504 0.937665 
0.179902 -0.960938 0.107426 -0.145921 -0.401838 -0.895299 
1.155480 -0.713138 0.015795 0.187174 -0.102191 0.973294 
0.782423 0.066955 0.217430 0.156890 -0.227039 0.950401 
-1.123451 -0.146441 0.102817 0.083471 0.050109 -0.994207 
0.897741 -0.106067 0.083387 0.069369 0.050188 -0.949291 
-2.764234 1.047323 -0.744556 -0.427139 0.085790 0.884521 
-1.641712 -0.218225 -0.012309 0.204180 -0.047808 -0.963865 
-0.105803 0.692275 -0.121857 -0.399014 0.504427 -0.733605 
0.141758 -0.123008 0.287748 0.176520 -0.116840 0.968476 
0.835727 -0.747133 0.077370 0.190966 -0.031567 0.975290 
0.080373 1.028102 0.017378 0.405190 0.272437 -0.852476 
0.062105 1.328638 0.156014 0.629094 0.708450 0.184966 
0.808730 0.137326 0.110796 0.161641 0.040259 -0.920127 
0.172771 -0.641799 -0.013878 0.215505 -0.319668 -0.920578 
1.561912 1.054688 0.044006 0.377561 -0.301738 0.869447 
3.441982 0.962108 0.209906 0.472159 -0.033830 -0.877724 
-1.706197 0.945317 -0.013139 0.265816 -0.207271 -0.935820 
-0.466486 0.019729 0.057034 -0.505533 0.030542 -0.809723 
3.384170 0.437497 0.246213 0.451533 -0.110829 -0.879574 
-2.022885 -0.205037 -0.068041 -0.336121 0.147119 0.922836 
2.701274 1.270696 -0.035640 -0.048206 0.018929 0.989410 
0.845400 0.540729 0.213530 -0.289532 0.377083 -0.840395 
0.253631 0.953837 0.128562 0.787516 0.281803 -0.450379 
2.184964 0.389679 -0.083618 0.250741 -0.037078 -0.956202 
-0.116489 1.167919 0.060235 -0.581357 0.290963 -0.736385 
-0.033091 0.022392 -0.287804 -0.495612 -0.073919 -0.835760 
-0.352875 0.253719 0.074104 -0.659703 0.043334 -0.743218 
-1.697862 1.036428 -0.005745 0.258921 -0.217319 -0.936883 
0.904207 0.368780 0.144773 -0.005941 0.102536 -0.993071 
-0.185934 1.071286 0.360433 -0.507098 0.766060 -0.041789 
0.073570 -0.385902 0.285756 0.121427 -0.071386 0.987158 
-0.810808 0.067224 0.107908 -0.173656 0.045566 -0.913640 
-0.123600 0.226436 0.357194 -0.092161 -0.296112 0.946909 
-1.590313 0.212697 0.005196 -0.378771 -0.034660 0.903447 
0.467034 0.000297 0.052570 0.489627 0.031941 -0.822351 
0.096962 -0.213935 0.285049 0.181406 -0.054527 0.974995 
-2.331541 0.527483 -0.436019 -0.632000 0.165047 0.736613 
-0.163121 0.633677 0.484968 -0.138715 0.252144 0.943369 
0.539704 -0.490119 0.054489 0.249106 -0.048762 -0.921041 
-2.291439 0.694414 -0.429041 -0.638657 0.064226 0.762654 
-1.372521 -0.236413 0.053983 0.124525 0.006755 -0.984991 
2.528531 0.473113 -0.081734 0.136841 -0.100474 -0.981863 
-0.056259 1.300433 0.230428 -0.324013 0.846719 0.385264 
-0.206028 -0.588878 0.206843 -0.307771 -0.182775 0.921718 
-2.026751 0.802274 -0.178925 -0.768019 0.081815 0.620889 
2.260883 -0.346512 0.143383 -0.220355 0.260058 0.923810 
0.312803 -0.913661 0.074951 0.006725 -0.265626 -0.959288 
-1.915615 1.161649 -0.126206 0.361796 -0.288503 -0.866063 
-3.007461 1.278422 -0.835552 -0.211231 -0.182490 0.952811 
2.790919 0.113047 0.048696 -0.189629 0.201584 0.957478 
3.026673 1.158308 0.004435 0.299656 0.024812 -0.944520 
-1.949698 0.870773 -0.125038 -0.534470 -0.121089 0.779853 
2.389438 0.753906 -0.074492 -0.019410 -0.002134 -0.993075 
1.370897 0.995558 0.089098 -0.117102 0.362671 0.857701 
-2.074246 0.210601 -0.200175 -0.341714 0.050006 0.929547 
-1.018960 0.737729 0.190011 0.432957 0.259654 -0.847681 
2.105367 0.574756 -0.111325 0.163009 0.010711 -0.984339 
-2.021114 0.275754 -0.202168 0.552818 -0.178861 -0.772566 
0.037176 -0.901255 0.206723 0.359419 0.050521 0.919229 
-0.429625 -0.742002 0.074028 -0.243542 -0.106482 -0.933962 
-0.283848 -0.336424 0.218201 -0.588329 -0.127439 0.773116 
2.623024 1.125816 0.002355 -0.082047 -0.022024 0.945785 
