-1.570912 1.557675 -0.730943 0.861934 -0.241932 -0.433481 
-0.835710 0.096407 -0.055136 0.134835 0.119608 -0.873236 
-0.122566 0.059617 0.355158 -0.136872 -0.216219 0.964513 
0.466629 0.155803 0.297089 0.374668 -0.323884 0.859488 
-1.072109 1.933364 0.166177 -0.689057 0.336940 0.524637 
0.649459 0.743710 0.284548 -0.476918 0.262621 -0.745469 
-0.327705 0.122099 0.069027 -0.534950 0.064850 -0.828409 
2.279168 0.731295 -0.240378 0.218261 0.123619 0.927740 
0.356177 0.065459 0.086451 0.466212 0.093816 -0.874537 
-1.578445 1.805501 -0.886799 0.846980 -0.140648 -0.503688 
-1.973611 0.656469 -0.845820 0.754573 -0.364969 -0.504295 
-2.139946 2.221814 -1.562623 -0.681822 0.016715 0.725355 
-1.479572 0.664846 -0.335829 -0.709256 0.038633 0.676696 
-0.263951 -0.646348 0.216143 -0.419618 -0.144027 0.872473 
-2.179405 1.639559 -1.523882 0.693698 -0.219001 -0.667057 
2.123764 1.397487 -0.228852 0.134512 -0.092804 0.985307 
1.292865 1.027247 -0.047262 0.464613 -0.146906 0.816705 
2.540475 1.683496 -0.200970 -0.016981 -0.014571 0.987605 
-1.351741 1.443768 -0.259178 0.650206 -0.329314 -0.573654 
-2.133827 1.300421 -1.401554 -0.745458 0.223467 0.623216 
2.131742 0.851923 -0.237107 0.358344 0.202054 0.874145 
-0.659410 0.513043 0.311376 -0.225716 0.081369 0.946987 
-1.271558 1.513507 -0.027663 -0.871290 -0.133948 0.452856 
0.075381 1.179372 0.484274 -0.224503 0.595088 0.738840 
0.664752 0.126413 0.180789 0.450079 -0.275626 0.838564 
-1.114660 0.165849 -0.105299 -0.561402 -0.161680 0.806762 
-0.450210 0.280405 0.096302 -0.354511 0.140483 -0.863360 
-1.368183 2.059625 -0.531686 0.900977 0.194543 -0.310639 
1.499971 0.851857 -0.181478 -0.158267 0.056596 -0.983884 
-1.130522 0.024312 -0.146878 -0.535932 -0.166093 0.824439 
2.956242 1.481709 -0.160390 0.168884 0.166026 -0.967989 
-0.270161 -1.177009 0.170068 0.373191 -0.294765 -0.859707 
-1.154511 1.788939 0.037460 0.876112 0.131830 -0.283287 
2.867624 1.907345 -0.110815 -0.151718 -0.289063 0.936284 
0.131004 0.868568 0.531068 0.264250 -0.113754 0.955323 
2.951087 1.992894 -0.078139 0.176699 0.192717 -0.963086 
-0.875027 0.157503 -0.058714 0.172591 0.134938 -0.869315 
0.314751 0.875289 0.285112 0.912956 0.334133 -0.032487 
-1.885563 0.994569 -0.937831 0.714936 -0.158763 -0.673408 
1.224821 0.344407 -0.117452 -0.336437 0.133137 -0.925473 
2.063496 1.153090 -0.250771 -0.014195 0.113143 -0.985101 
-0.834784 -0.303936 -0.024496 -0.503152 -0.079334 0.849723 
-0.333841 -0.901293 0.086798 0.068430 -0.211718 -0.971024 
0.962378 -0.453695 -0.117027 -0.266776 0.035996 -0.927662 
0.048923 -1.175472 0.246748 0.115470 -0.495638 -0.852019 
1.654787 0.963316 -0.218508 -0.245326 -0.002671 -0.958699 
-0.069543 0.852203 -0.018443 -0.461588 0.419407 -0.768821 
-1.280500 1.338361 -0.114896 0.546864 -0.157583 -0.806479 
-2.168180 2.376642 -1.586318 -0.672363 -0.012456 0.735080 
-0.401419 0.354921 0.136420 -0.487102 0.220839 -0.798941 
2.330479 0.802858 -0.254913 0.051222 0.046803 -0.991956 
0.150733 -0.857704 0.211444 0.161766 -0.066241 0.973341 
-1.609596 1.569136 -0.797490 -0.862008 0.225666 0.449638 
-1.084617 0.567528 -0.026831 -0.691334 -0.145038 0.682276 
0.086335 -1.124650 0.213084 -0.009645 -0.468057 -0.873635 
-0.288737 0.948274 0.246453 -0.909450 0.357943 -0.190749 
0.247510 -0.070780 -0.093266 0.648710 -0.088580 -0.733585 
2.711348 1.528555 -0.195920 0.155724 0.244307 -0.951421 
-0.070305 0.957184 0.549307 -0.199839 -0.014233 0.971490 
2.541451 1.028946 -0.270047 0.002111 -0.010022 -0.995358 
1.540553 1.755017 -0.064938 0.002771 0.250046 -0.964122 
-0.791080 0.293312 0.145663 -0.514885 -0.285905 0.791859 
-0.927504 0.765472 0.152034 -0.488839 -0.049132 0.852953 
-1.184764 0.751909 -0.083724 -0.747136 -0.086515 0.632096 
-1.154930 0.967590 -0.026835 -0.800217 -0.104621 0.571430 
2.310115 1.041653 -0.263829 0.004395 0.064328 -0.992809 
-0.239357 0.170406 0.366877 -0.199730 -0.286988 0.932663 
2.742165 1.248165 -0.217585 -0.097024 -0.145958 0.976271 
-0.155321 1.156026 0.554634 0.386642 0.210785 0.850633 
-0.378229 0.423528 0.164621 -0.587897 0.279481 -0.739112 
-0.320029 0.294730 0.009872 -0.639865 0.091789 -0.741533 
-1.666103 0.652829 -0.471093 -0.703632 0.092959 0.686433 
-0.236083 1.149629 0.596206 -0.539637 0.463808 -0.682087 
-0.202835 0.003263 0.332393 -0.260925 -0.226533 0.911827 
1.536955 1.359003 -0.147380 -0.010055 0.194415 -0.975515 
0.405852 0.000042 0.064142 0.401543 0.079125 -0.879823 
1.609039 1.804310 -0.076272 -0.018053 0.210042 -0.972653 
-1.386074 1.250867 -0.207898 0.594987 -0.171745 -0.770071 
-1.884017 0.252091 -0.606849 0.615798 -0.066385 -0.762786 
-0.243902 -0.191027 0.295207 -0.450537 -0.180865 0.829853 
0.183389 0.402498 0.475587 0.142261 -0.302529 0.941086 
-1.177912 0.990220 -0.093552 0.478157 -0.046853 -0.848073 
-0.625490 -0.626877 0.032485 0.192451 -0.055203 -0.947733 
-1.277875 1.076981 -0.154584 0.532315 -0.098231 -0.811166 
-1.713234 2.213350 -1.182730 0.737492 -0.121971 -0.661081 
-1.148260 0.275954 -0.152309 0.479517 0.092268 -0.859339 
-1.881596 0.392436 -0.611209 -0.678524 0.106335 0.707636 
-1.840124 0.202801 -0.568018 -0.597382 -0.006830 0.784796 
0.167596 1.114870 0.470967 0.833108 0.298028 -0.262747 
-1.118693 -0.598391 -0.249881 0.364664 -0.021590 -0.877782 
-1.845394 2.390588 -1.313888 0.730863 0.287731 -0.585323 
2.413858 0.623484 -0.245543 0.001101 -0.010644 -0.995380 
-0.729723 0.261359 0.181266 -0.467062 -0.315383 0.812748 
0.209851 -0.252987 -0.100012 0.577155 -0.150395 -0.791517 
-0.345240 0.717629 0.440145 -0.665856 0.382256 0.568798 
0.792384 0.730100 0.198836 0.357190 0.085200 0.909857 
-1.828140 0.873880 -0.773067 0.772155 -0.438674 -0.414567 
-1.961105 1.528907 -1.278398 -0.750959 0.085759 0.637433 
-0.191815 -0.897538 0.099004 0.151959 -0.344908 -0.916216 
-0.458259 0.396898 0.136652 -0.402329 0.250121 -0.796389 
0.281927 0.815184 0.126633 0.730688 0.428696 -0.460992 
-1.541583 1.882195 -0.840388 0.845094 -0.074257 -0.522100 
1.510058 0.018405 -0.334974 0.382916 -0.237907 0.875622 
1.978405 1.571141 -0.185502 -0.200983 -0.041665 -0.967068 
-1.398012 1.590981 -0.347660 -0.932806 0.102654 0.248332 
-0.504623 0.150581 0.050155 -0.295032 0.118370 -0.861026 
0.413190 -0.119099 0.045169 0.375933 0.048805 -0.885559 
0.111507 0.466449 -0.166191 0.590952 0.222873 -0.750817 
0.328129 0.399491 0.017031 0.634524 0.148915 -0.738269 
2.972054 1.802410 -0.113773 0.175143 0.165777 -0.969423 
-1.233596 1.862854 -0.160359 0.886957 0.278606 -0.240206 
-2.082932 2.201322 -1.518491 0.674251 -0.069478 -0.733306 
2.946860 1.373801 -0.173401 -0.120512 -0.079034 0.982521 
0.907914 0.572119 0.153095 0.665535 -0.130202 0.733962 
-2.046632 0.915607 -1.110939 0.738297 -0.238388 -0.619933 
-1.925060 1.592950 -1.256289 -0.750906 0.050770 0.643064 
-1.292215 -0.219067 -0.337877 0.435484 0.171507 -0.863710 
-1.147594 -0.060662 -0.203413 0.435423 0.138597 -0.876240 
2.859463 1.693343 -0.150560 0.152737 0.171416 -0.969916 
-1.052838 0.748796 -0.030884 0.415565 0.040290 -0.893982 
1.028173 0.382905 0.026375 0.577865 -0.167696 0.791974 
1.767160 1.899540 -0.097234 -0.048532 0.188811 -0.977386 
-0.823601 0.967110 0.198383 0.711535 0.175556 -0.672986 
0.911784 0.498782 0.131386 0.646090 -0.149120 0.748247 
0.589922 0.249679 0.056748 0.215892 0.144160 -0.882421 
0.656900 -0.486936 0.043318 0.455897 -0.053884 0.877581 
-1.484856 2.215893 -0.853435 0.901609 0.053390 -0.422914 
0.245613 0.198626 0.378119 0.193661 -0.297784 0.931030 
-0.206260 0.642550 -0.079418 -0.581762 0.308483 -0.725229 
0.340887 0.680397 0.479040 0.565700 0.362451 0.719861 
0.973457 1.369665 0.115866 -0.855335 0.208680 -0.271893 
2.217456 1.246041 -0.260370 -0.083617 0.058484 -0.991796 
-0.051300 1.117100 0.523787 0.104270 0.348511 0.896528 
-1.722757 1.979764 -1.134310 -0.767544 0.213672 0.589346 
0.853972 -0.207634 -0.027175 -0.218777 0.051140 -0.927157 
0.187067 0.774773 0.496086 0.312683 0.108010 0.915093 
1.434577 1.831447 -0.032691 0.006771 0.191166 -0.978473 
-0.282944 -0.147995 -0.007573 -0.576745 -0.078035 -0.792704 
0.968790 0.978433 0.064306 -0.229375 0.009602 -0.972006 
-1.225192 1.460819 -0.053964 0.525534 -0.167317 -0.824452 
1.915706 0.950348 -0.193137 0.178702 -0.025386 0.955872 
1.320109 0.828229 -0.071074 0.431008 -0.109075 0.837887 
0.008936 -0.163869 -0.207577 0.415507 -0.217461 -0.849591 
0.321143 0.752370 0.438187 0.663107 0.352495 0.588151 
-1.377885 1.321294 -0.200354 0.600174 -0.196310 -0.753230 
-0.144213 0.222117 0.411642 -0.128198 -0.284728 0.947752 
-0.392340 0.498896 0.193620 -0.618907 0.346855 -0.692200 
-1.890661 1.747780 -1.255764 -0.743980 -0.018430 0.663703 
-0.731822 -0.910891 -0.016381 -0.335059 0.191953 0.902587 
-0.237090 -0.162194 -0.089011 -0.634950 -0.115524 -0.744619 
0.409324 -0.310063 0.125725 0.517672 -0.147054 0.833920 
0.327546 0.295972 -0.000995 0.629882 0.094497 -0.748656 
0.091607 -1.051780 0.170124 0.004031 -0.429771 -0.887489 
-1.732910 1.013621 -0.686373 -0.721553 0.022804 0.685628 
-0.059597 -0.692257 0.045191 -0.151560 -0.380536 -0.898464 
-1.854505 1.953489 -1.266664 -0.720135 0.243431 0.629888 
0.172428 -0.245655 0.319822 0.275021 -0.093416 0.933662 
-2.049628 2.112031 -1.483110 0.685881 -0.091645 -0.719865 
0.151558 1.234186 0.388705 0.330370 0.849557 0.133227 
0.857923 0.495266 0.070306 -0.269540 0.179861 -0.935749 
-1.095568 1.484219 0.040289 0.832015 0.248070 -0.281373 
-0.167648 1.220047 0.311135 -0.670507 0.701238 -0.118297 
0.536311 -0.543499 0.069914 0.476879 -0.053890 0.866949 
0.119715 0.157798 -0.204980 0.601107 0.011147 -0.781029 
-1.344199 1.370335 -0.111176 -0.847023 -0.082775 0.491140 
-0.405673 0.333760 0.383176 -0.242767 -0.257391 0.929598 
0.795814 -0.162478 -0.028929 -0.108261 0.057631 -0.915205 
1.031364 1.480940 0.025075 -0.636849 0.115838 -0.749708 
-2.271265 2.457434 -1.673863 -0.650147 -0.001695 0.759436 
0.057644 1.221316 0.140691 0.511155 0.189887 -0.827770 
-1.389868 1.475552 -0.324432 0.651205 -0.093039 -0.715685 
2.757537 1.734315 -0.161457 -0.096498 -0.135820 0.979494 
1.062165 1.845087 0.070391 -0.818154 -0.408488 -0.326855 
0.003282 -0.659555 0.016824 0.657180 -0.310817 -0.662345 
2.206885 0.668068 -0.230735 0.266816 0.157626 0.912761 
-1.806294 1.217374 -0.933784 -0.791442 0.430370 0.335135 
1.214752 1.424752 -0.038238 -0.101972 -0.048423 -0.989492 
-1.486959 0.101908 -0.340140 -0.547269 -0.117847 0.826697 
0.603427 -0.040807 0.139990 0.485695 -0.219088 0.834576 
-0.481173 -0.370865 0.017505 -0.178091 -0.000711 -0.907270 
2.011253 1.956652 -0.111637 0.177344 -0.116002 0.958575 
0.840226 -0.457960 -0.023240 0.430299 -0.057798 0.889303 
1.599273 -0.165497 -0.448124 0.481353 -0.229741 0.844187 
0.428544 0.562270 0.390764 0.391439 0.146174 0.836838 
0.965989 0.732782 0.044160 -0.277992 0.059522 -0.954471 
0.930027 0.862283 0.168157 0.482246 -0.053803 0.866367 
-1.158822 0.565194 -0.130130 0.473952 0.038878 -0.856078 
0.315725 -0.537490 0.029080 0.357345 -0.108213 -0.887019 
1.087685 1.569632 0.090075 0.003858 0.101529 0.871717 
0.346536 0.348369 0.408316 0.201331 -0.258588 0.940935 
1.311480 0.151829 -0.195198 -0.305057 0.197765 -0.919190 
-0.316902 0.843933 0.220868 -0.884326 0.354585 -0.264678 
-0.973939 -0.148262 -0.100865 0.380684 0.079826 -0.898290 
-1.886498 0.821234 -0.810665 -0.702322 0.073712 0.698155 
0.111147 0.616313 -0.115274 0.491244 0.332391 -0.772166 
0.628166 -0.031459 0.001712 0.150445 0.080558 -0.891653 
1.626609 0.314218 -0.327464 -0.135702 0.211016 -0.959321 
-1.492382 1.552761 -0.539685 -0.902135 0.174199 0.339488 
-0.372934 -0.445442 0.122670 -0.574827 -0.117486 0.808993 
-1.379916 0.760773 -0.276836 0.574338 -0.064252 -0.777976 
0.129233 -0.954211 0.204697 0.162324 0.016071 0.977895 
1.278712 0.581956 -0.112675 -0.266073 0.093400 -0.951088 
-2.123122 1.032306 -1.282548 0.747931 -0.272370 -0.602448 
-0.408571 0.153604 0.079023 -0.417242 0.115157 -0.858494 
-1.514861 1.130207 -0.369192 0.679471 -0.238991 -0.638662 
2.826515 1.967855 -0.113820 0.154304 0.178363 -0.970177 
-1.174264 -0.346399 -0.271701 -0.494287 -0.160526 0.839686 
-2.053221 2.032785 -1.470785 0.690582 -0.072458 -0.715264 
1.744841 1.253432 -0.149236 0.358785 0.001911 0.922966 
-1.064015 0.349038 -0.039651 -0.622167 -0.169914 0.748100 
-1.058325 -0.351318 -0.202783 0.358952 0.091362 -0.893768 
0.600571 0.563190 0.343882 0.046630 0.069242 0.950408 
0.266469 0.786966 0.043330 0.619860 0.521512 -0.570978 
1.716344 1.021387 -0.216014 -0.296229 -0.056633 -0.944205 
1.366790 1.782236 -0.022826 0.024803 0.220509 -0.972130 
1.833121 1.478453 -0.161930 -0.192299 0.083569 -0.966685 
2.405747 0.384821 -0.227228 0.058034 0.047444 0.996183 
0.025160 -0.454868 -0.116505 0.274333 -0.457102 -0.835654 
-0.025098 0.042391 0.358635 -0.084126 -0.185898 0.976849 
-0.091239 0.375800 -0.204997 -0.601677 0.149049 -0.757204 
-2.048384 1.941452 -1.449494 0.693825 -0.027648 -0.714942 
0.212219 -0.672218 0.040673 0.074760 -0.275730 -0.946329 
-2.123772 0.536471 -0.985359 0.751263 -0.317488 -0.562259 
-1.206352 1.481070 0.019656 -0.870243 -0.156753 0.455844 
-2.132154 1.671298 -1.481296 -0.718461 0.081263 0.683402 
-2.049024 1.051629 -1.193054 0.737345 -0.236162 -0.626177 
-1.539849 2.253195 -0.935813 0.868444 0.135622 -0.444005 
2.226117 1.474837 -0.225130 0.055034 -0.171431 0.970595 
-1.486272 0.005046 -0.380005 -0.535991 -0.167153 0.823700 
-1.640431 1.397782 -0.754544 -0.850083 0.310781 0.408502 
0.038269 1.390547 0.240304 0.511239 0.787394 0.326101 
-0.857619 0.674965 0.069433 0.495021 0.226183 -0.800248 
1.025542 -0.691118 -0.139235 -0.300927 -0.107015 -0.910879 
0.316016 0.529722 -0.019049 0.699890 0.202658 -0.672588 
-0.032076 1.401337 0.223991 -0.506171 0.784311 0.179872 
-0.594759 0.460020 0.385595 -0.341626 -0.100881 0.907247 
-1.119250 0.399370 -0.077666 -0.636196 -0.142155 0.735738 
-0.197508 -0.098956 -0.123146 -0.616721 -0.088128 -0.762313 
-0.845283 0.474485 0.059656 0.308816 0.242440 -0.918186 
0.172871 -0.747264 0.052652 -0.039821 -0.318268 -0.930295 
-0.548403 0.674300 0.359745 -0.012354 0.011692 0.926988 
-1.152658 1.467918 0.083572 -0.439217 -0.009921 0.863710 
1.172244 -0.036184 -0.140658 0.471222 -0.161391 0.861410 
-2.020024 1.117520 -1.191845 0.732649 -0.220542 -0.638456 
-0.919364 0.057118 -0.019855 -0.533516 -0.187857 0.818471 
0.673818 0.221714 0.219133 0.427231 -0.314065 0.839976 
-0.337204 0.364296 0.063811 -0.603719 0.154053 -0.763511 
2.684213 1.320067 -0.221300 0.021339 -0.056050 -0.980853 
-1.538854 1.220568 -0.438765 -0.792816 -0.041023 0.590055 
0.432436 0.092274 0.281631 0.362930 -0.299116 0.871148 
-0.614952 -0.409193 0.004914 0.047036 -0.004882 -0.919354 
-1.036199 0.781391 0.041387 -0.761605 -0.150659 0.614015 
-0.082674 1.305901 0.246660 -0.662691 0.654922 0.131236 
0.259823 0.532784 0.486815 0.179907 -0.219893 0.958529 
-0.185138 -0.248559 -0.115304 -0.570023 -0.141619 -0.799398 
-1.928762 0.707876 -0.814067 0.758033 -0.386229 -0.479189 
0.739921 -0.161439 0.015320 0.518518 -0.137652 0.841105 
0.192254 -0.145374 0.319820 0.300958 -0.158777 0.906206 
1.162831 0.624984 -0.021913 0.534059 -0.136061 0.798378 
1.788500 1.034345 -0.193616 -0.151509 -0.335364 0.917744 
0.893349 -0.421020 -0.068375 -0.255817 0.025042 -0.934103 
2.870746 1.833386 -0.126641 -0.151038 -0.265061 0.943028 
0.304926 0.817864 0.403058 0.768457 0.330521 0.461711 
-1.466993 1.640993 -0.552819 0.752761 -0.311312 -0.530986 
-1.423549 1.866234 -0.588428 0.809223 -0.101364 -0.567144 
0.838184 -0.096828 -0.006979 0.506401 -0.143061 0.846938 
1.412103 1.877641 0.019939 0.227530 0.012464 0.951700 
2.957673 1.713101 -0.131098 -0.154425 -0.178723 0.967796 
0.243100 -0.193302 0.294841 0.438083 -0.178246 0.837575 
-1.006238 0.385453 0.010669 -0.637487 -0.188677 0.735802 
-1.382504 0.561118 -0.299611 0.582988 -0.030493 -0.776723 
-0.219655 -0.764327 0.208278 -0.179988 -0.168242 0.960103 
-0.027940 -0.833573 0.244191 -0.379915 -0.028886 0.912599 
0.275588 -1.039720 0.145248 -0.288617 -0.296239 -0.906274 
2.290426 0.634004 -0.240303 0.026349 0.018245 -0.991473 
0.241015 0.716230 0.495581 0.383099 0.269090 0.861847 
-1.327528 0.327067 -0.273451 0.545837 0.036827 -0.810876 
0.888375 0.101909 -0.046980 -0.118483 0.126009 -0.897795 
-1.872409 0.967476 -0.868136 -0.791410 0.519041 0.249091 
-0.841167 0.241282 0.100801 -0.503757 -0.269766 0.806511 
0.067697 -0.726377 0.256780 0.278446 -0.120049 0.939420 
-0.976376 0.814078 0.094159 -0.774516 -0.173897 0.600941 
1.217476 1.558369 -0.030914 -0.100689 -0.078241 -0.986996 
-1.348030 1.951954 -0.463955 0.795182 -0.108091 -0.587458 
-0.357495 -0.834803 0.067702 -0.049932 -0.183845 -0.936709 
-1.033437 -0.050093 -0.121547 0.412850 0.104685 -0.889017 
-0.366901 0.574276 0.111884 -0.663835 0.329115 -0.663863 
0.093833 -0.823252 0.235282 0.215013 -0.064321 0.959207 
2.124413 0.709188 -0.237829 0.072021 0.070539 -0.985941 
-0.920986 0.130741 0.012329 -0.511574 -0.221175 0.820927 
-0.858599 0.015146 -0.001597 -0.536199 -0.184487 0.816978 
-1.243172 1.560745 -0.088851 0.561227 -0.238893 -0.745226 
-0.344356 -0.096209 0.288006 -0.459987 -0.236645 0.828336 
1.685426 1.468468 -0.117769 0.341613 -0.145605 0.898198 
-2.088326 0.970990 -1.194541 -0.768622 0.340197 0.494647 
0.422450 -0.376336 0.091898 0.551449 -0.119555 0.824647 
1.084400 -0.629601 -0.173378 -0.313665 -0.065454 -0.906842 
0.459627 -0.062051 0.041241 0.332817 0.065465 -0.885150 
0.165829 0.005278 -0.157323 0.602139 -0.050435 -0.776244 
1.173677 0.333572 -0.067714 0.492377 -0.165136 0.841081 
-0.193139 0.919697 0.500563 -0.475977 0.022234 0.842125 
1.839931 1.089002 -0.211481 0.101762 0.272357 -0.951171 
0.002323 0.996525 0.564497 0.147329 0.071241 0.982759 
-1.953402 0.622486 -0.786225 -0.710501 0.126469 0.682443 
-0.142460 0.406773 -0.160918 -0.641311 0.168833 -0.714144 
1.135926 1.766609 0.076637 -0.085798 -0.125392 0.918808 
0.823517 0.064339 0.059809 0.481188 -0.211039 0.843125 
0.263533 -0.238771 -0.055602 0.602336 -0.144279 -0.768442 
0.503225 -0.001052 0.038617 0.293427 0.083019 -0.884430 
-1.397798 2.091161 -0.604658 -0.679907 0.456294 0.518590 
1.150353 -0.273196 -0.181636 0.455288 -0.134354 0.869058 
-0.486002 0.306430 0.347028 -0.350927 -0.359381 0.856289 
0.113558 0.055652 -0.198495 0.572729 -0.025402 -0.803244 
-1.096152 0.243162 -0.116345 0.455365 0.114271 -0.877768 
0.444525 0.646229 0.394315 0.145280 0.760240 -0.561676 
-1.592921 1.356667 -0.686342 0.800724 -0.047463 -0.571026 
1.184301 1.442645 0.024355 0.573992 -0.239600 0.754097 
1.721015 0.451367 -0.248292 -0.013069 -0.127837 0.956447 
0.248940 -0.667394 0.218571 0.352329 -0.154815 0.898015 
0.499259 -0.131072 0.021032 0.278753 0.049417 -0.890129 
-0.653419 0.722872 0.295931 0.452159 0.321776 -0.718314 
-1.642065 1.475632 -0.811509 -0.849018 0.254263 0.459587 
0.221028 0.864878 0.479627 0.627815 0.088347 0.770815 
-0.011616 1.253616 0.127865 -0.657932 0.168225 -0.716393 
-1.634364 1.080820 -0.610168 0.795921 -0.428417 -0.354443 
-1.481842 1.278893 -0.338390 -0.811046 -0.054495 0.557045 
1.178900 -0.425908 -0.243712 -0.318475 0.087070 -0.906676 
0.302741 0.720677 0.003533 0.652096 0.526115 -0.539457 
-0.358070 -0.263710 0.038835 -0.399042 0.019282 -0.890478 
-0.984703 0.152656 -0.016773 -0.515427 -0.214582 0.821756 
0.027747 0.379081 0.471896 0.022276 -0.336726 0.939410 
-0.329503 -0.344080 0.228135 -0.616600 -0.151315 0.764202 
-1.062829 0.901796 -0.021462 0.416387 0.009730 -0.890399 
0.383232 0.384290 0.156345 0.544052 0.271142 -0.771929 
1.101256 1.306350 0.062332 0.635144 -0.203815 0.721830 
0.935510 -0.337768 -0.057135 0.441989 -0.087445 0.881322 
-1.241941 0.926508 -0.104468 -0.789647 -0.062067 0.587022 
-1.542408 1.083950 -0.321141 -0.795598 0.041870 0.571403 
1.217886 1.085091 -0.047250 -0.164966 0.005407 -0.981517 
1.343876 1.292158 -0.099767 -0.105858 -0.021685 -0.989459 
2.475616 1.717294 -0.211133 0.103591 0.236387 -0.960436 
2.447308 0.544273 -0.240861 0.050364 0.032367 0.993429 
0.805952 -0.291031 0.006184 0.463847 -0.090709 0.871467 
0.053205 1.231656 0.429295 -0.075164 0.778343 0.592333 
1.112548 0.200945 -0.048663 0.482885 -0.194001 0.851487 
-1.424453 2.002554 -0.583730 -0.870478 0.232794 0.390164 
0.369188 0.571317 0.119779 0.646803 0.359240 -0.665194 
0.047156 0.454583 -0.207900 0.542761 0.238836 -0.786641 
1.124802 0.974732 -0.007136 -0.202227 0.018115 -0.976289 
1.415745 0.042182 -0.274939 0.438378 -0.218369 0.861984 
1.228577 0.653282 -0.050331 0.484567 -0.130519 0.822311 
-0.132475 -0.691133 0.241815 -0.187567 -0.187785 0.959313 
1.306445 -0.199506 -0.276549 -0.376861 0.144101 -0.893050 
0.007784 -1.243031 0.281322 0.220513 -0.527965 -0.818934 
-0.299589 0.122789 0.329830 -0.245529 -0.287895 0.921457 
-2.032807 1.556637 -1.360776 0.705264 -0.320027 -0.609022 
1.137328 0.065254 -0.120603 -0.374576 0.140960 -0.907718 
-0.081342 1.285591 0.337728 -0.312573 0.830324 0.448925 
0.963866 1.095870 0.148695 0.235798 0.018741 0.892617 
-0.963026 0.897915 0.052657 0.366506 0.042503 -0.926059 
-1.961123 1.022925 -1.056957 0.725276 -0.194492 -0.651676 
0.350680 0.770356 0.367145 0.873950 0.365048 0.268735 
0.919207 1.294788 0.150220 -0.780722 0.184884 -0.423063 
-0.155391 -0.921729 0.199489 -0.160509 -0.022892 0.976947 
1.026105 0.943634 0.087839 0.678613 -0.115183 0.700867 
-1.803539 1.714783 -1.165578 0.700833 -0.463215 -0.534452 
1.084024 1.492898 0.109815 0.425774 -0.001412 0.903876 
-1.352777 0.410883 -0.266554 -0.632020 -0.036999 0.746494 
1.061058 0.467031 -0.031321 -0.335144 0.105401 -0.930418 
-0.984178 -0.475292 -0.177355 0.318546 0.060268 -0.905365 
-1.241201 0.237758 -0.193671 -0.581479 -0.107628 0.791049 
0.774757 0.984076 0.222082 -0.646154 0.128417 -0.751584 
-2.091464 0.734871 -1.057616 -0.779351 0.418013 0.400824 
0.147198 0.818143 0.004540 0.513076 0.452181 -0.713532 
2.005949 2.035952 -0.108511 0.114489 -0.022789 0.983118 
1.898856 0.331991 -0.192487 -0.336084 -0.115480 0.928042 
-0.118794 1.243462 0.383915 -0.266243 0.864204 0.300868 
-1.971693 2.185997 -1.418187 -0.715632 -0.015700 0.687654 
-0.180681 1.109050 0.155327 -0.652550 0.382504 -0.591656 
-0.904402 0.736951 0.064462 0.337557 0.126422 -0.926697 
-1.900390 0.323845 -0.624835 0.647920 -0.110399 -0.732580 
-0.163220 0.484194 -0.135153 -0.631809 0.180070 -0.731319 
-1.006641 0.704744 -0.000562 0.394708 0.062390 -0.910296 
-0.275405 0.898927 0.183957 -0.818909 0.352357 -0.371563 
-0.198216 1.055618 0.400999 -0.290529 0.881948 0.273088 
2.280665 0.419092 -0.222645 -0.091398 -0.095014 -0.986028 
-0.880727 -0.813060 -0.097842 -0.342415 0.156898 0.890871 
1.555123 0.216079 -0.300856 0.217808 -0.239281 0.930113 
0.132276 0.079252 0.356129 0.136700 -0.229005 0.962797 
-0.180407 1.178349 0.235555 -0.818021 0.508183 -0.249406 
-0.603386 -1.071499 0.062393 0.274357 -0.257398 -0.923005 
1.206029 1.229583 -0.038602 -0.140046 -0.018027 -0.984615 
1.483692 0.225547 -0.258102 0.266533 -0.224439 0.917564 
0.489099 -0.054908 0.200191 0.477942 -0.240537 0.830607 
0.145323 -0.408369 0.322177 0.196825 -0.127416 0.966713 
-1.173420 0.053669 -0.197182 0.463497 0.154358 -0.870407 
1.587305 0.658143 -0.240900 -0.171711 0.100197 -0.975058 
-1.678405 1.404703 -0.833362 -0.834805 0.296444 0.449234 
-1.118726 -0.303551 -0.234784 0.381395 0.113003 -0.885662 
1.193445 0.908562 -0.040009 -0.202358 0.032059 -0.976642 
1.184587 0.132802 -0.109321 0.482443 -0.180050 0.856117 
0.006697 0.854403 -0.045757 0.404639 0.395551 -0.821478 
0.317008 -0.770310 0.189631 0.380750 -0.070225 0.898625 
1.551285 1.557984 -0.087881 -0.059712 0.020073 -0.969731 
0.292223 -0.095537 -0.013708 0.574633 -0.063789 -0.790473 
-1.406146 1.492680 -0.253850 -0.892422 0.263133 0.317307 
-1.807109 1.786139 -1.166744 -0.749486 0.225100 0.618246 
-1.039554 1.301932 0.030086 0.595173 0.147207 -0.775331 
-2.187267 2.299948 -1.602723 -0.670580 0.011720 0.737480 
1.619069 0.107279 -0.363312 -0.131052 0.271715 -0.946880 
1.129102 -0.192642 -0.166893 -0.338456 0.106069 -0.910061 
1.777269 0.268793 -0.242527 -0.145600 -0.130850 0.940993 
0.524372 0.594452 0.382830 -0.113675 0.027822 0.949644 
0.244331 1.046659 0.378920 0.870562 0.441830 0.167602 
-1.676752 1.682285 -0.961290 -0.829245 0.143178 0.523146 
-1.263652 1.391786 -0.042158 -0.854456 -0.119786 0.480554 
-1.464812 1.829161 -0.650087 0.820483 -0.061419 -0.558205 
-1.085813 1.266106 0.110427 -0.489573 -0.044631 0.862494 
-0.108726 -0.913045 0.116753 0.066278 -0.413423 -0.905957 
1.613319 0.724486 -0.230408 0.185272 -0.109425 0.972741 
-0.083831 -0.190745 0.338565 -0.158223 -0.084440 0.977367 
0.704123 0.554516 0.149907 -0.298065 0.446417 -0.598180 
-1.692311 0.752400 -0.490957 -0.731800 0.130171 0.661059 
0.442908 -0.761381 0.079130 0.023354 -0.100050 -0.957120 
-0.234445 0.038224 -0.111427 -0.680512 -0.046071 -0.706948 
-0.700291 -0.197588 0.007814 -0.564428 -0.131093 0.813087 
0.546266 0.257356 0.309815 0.405783 -0.359890 0.836145 
1.392094 1.205902 -0.123657 -0.113779 -0.005746 -0.988671 
-1.364640 0.917315 -0.205571 -0.781654 -0.009063 0.597698 
-1.862549 0.901262 -0.842086 0.781793 -0.471040 -0.383297 
-1.411292 1.425842 -0.373958 0.683452 0.007570 -0.710035 
-0.683919 0.425739 0.082300 0.043123 0.244255 -0.884321 
-1.100689 1.216656 0.059943 -0.838500 -0.163261 0.509851 
-1.982333 1.180773 -1.177219 0.740301 -0.220174 -0.629692 
1.449591 0.157245 -0.265479 -0.225625 0.224214 -0.933566 
-1.961419 1.457286 -1.267854 0.717282 -0.366138 -0.578407 
0.113754 0.379377 0.475199 0.093202 -0.327059 0.938343 
-0.634075 -0.548256 0.035603 -0.487970 -0.035317 0.860633 
0.764152 -0.619698 -0.011496 0.416804 -0.027774 0.897502 
0.644961 0.317978 0.268320 0.434360 -0.334669 0.826792 
0.310977 0.208539 -0.034016 0.662336 0.043854 -0.721725 
-0.000551 -0.566161 0.307821 -0.391562 -0.154466 0.882112 
1.451019 1.642596 -0.054141 -0.015328 -0.063227 -0.973741 
-1.928710 1.782744 -1.310968 0.721537 0.004544 -0.686948 
2.799746 1.407421 -0.195436 0.152586 0.201530 -0.961046 
-1.905958 1.343691 -1.148575 -0.784594 0.238219 0.565197 
1.394293 0.404511 -0.189167 -0.266265 0.139356 -0.942304 
-0.442814 -0.016989 0.231757 -0.453472 -0.267986 0.831184 
0.881886 -0.283303 -0.009623 0.443136 -0.082554 0.882424 
-2.184006 1.958166 -1.581633 0.676576 -0.075332 -0.730239 
-0.019001 -0.476327 0.317001 -0.152660 -0.193419 0.957573 
1.135626 1.305948 -0.004696 -0.138322 -0.033672 -0.984455 
0.278444 -0.393548 -0.013309 0.512395 -0.122514 -0.840092 
-0.860655 -0.367127 -0.045266 -0.488616 -0.070829 0.857185 
-1.233640 0.847504 -0.110737 -0.776170 -0.057533 0.605893 
0.991899 0.605217 0.070686 0.642441 -0.146195 0.742414 
-0.480986 0.493796 0.168879 -0.431746 0.332819 -0.738362 
1.010553 1.298641 0.119401 -0.015665 0.089587 0.871335 
-0.100889 -0.835424 0.088523 0.018470 -0.394980 -0.910742 
1.074297 1.416769 0.089770 0.597707 -0.132319 0.763579 
1.480979 1.908366 -0.031060 -0.178276 0.374161 -0.872044 
1.888164 0.884657 -0.233830 -0.244721 -0.135984 -0.954832 
-1.230144 -0.027968 -0.233499 -0.531047 -0.191738 0.821667 
-0.015026 -1.127312 0.250615 -0.614792 -0.101122 0.742034 
-1.059576 -0.664545 -0.207242 0.352324 -0.081281 -0.881217 
0.199370 1.151927 0.248856 0.842377 0.476830 -0.216898 
0.345738 -1.253920 0.133569 -0.222036 -0.100831 -0.935603 
-0.902531 0.188788 0.048113 -0.497348 -0.248852 0.819895 
-1.464767 1.055972 -0.297886 0.624289 -0.153271 -0.744793 
-0.164640 1.208229 0.461998 -0.922116 -0.277649 -0.174140 
-0.853248 0.333011 0.016150 0.233407 0.156392 -0.903905 
-0.562223 -0.524054 0.053826 -0.512078 -0.053156 0.846368 
0.132384 -0.298231 -0.128569 0.493660 -0.219729 -0.820557 
1.437823 0.887319 -0.152261 -0.162722 0.047834 -0.982984 
-1.810976 1.064409 -0.848855 -0.780571 0.582650 0.158860 
1.286509 -0.126555 -0.235918 0.470405 -0.174294 0.858350 
2.475127 1.142156 -0.263338 -0.025047 -0.031072 -0.991235 
1.732463 1.982208 -0.065102 -0.189164 0.495016 -0.806037 
0.827699 0.954395 0.169626 -0.762096 0.148350 -0.612924 
-0.554511 -0.617061 0.040565 0.079260 -0.055440 -0.942666 
1.874376 0.147620 -0.180866 0.367205 0.063668 -0.926158 
-1.742520 1.434087 -0.970191 -0.812121 0.254935 0.523018 
-1.756566 1.055277 -0.802302 0.738793 -0.182035 -0.637483 
0.283343 -0.260042 0.275300 0.532553 -0.172697 0.796079 
1.041410 0.591347 -0.008918 -0.310037 0.080880 -0.940841 
0.883326 -0.727258 -0.092643 -0.237707 -0.077151 -0.931080 
1.780309 0.481291 -0.213155 0.088831 0.043552 -0.953201 
2.133944 2.068440 -0.131014 0.094073 -0.024212 0.991460 
-1.096273 1.874468 0.133832 0.536251 0.238164 -0.754302 
-0.306420 0.141309 -0.004312 -0.632882 0.031076 -0.745444 
-0.151994 0.833566 0.011435 -0.520139 0.460594 -0.705496 
0.735480 -0.737157 -0.034876 -0.178775 -0.050155 -0.951184 
-0.796355 -0.017499 0.021768 -0.535825 -0.185779 0.815794 
-0.097589 -0.022952 -0.198039 -0.549293 -0.056570 -0.818802 
-0.712014 0.128159 0.138996 -0.478036 -0.274556 0.820518 
-1.962801 2.105600 -1.401311 0.701629 -0.106790 -0.701423 
-0.530101 0.473958 0.448604 -0.254415 -0.048134 0.963802 
1.123019 -0.089464 -0.142650 -0.350829 0.117971 -0.910025 
1.966422 0.260722 -0.194005 0.222914 0.011602 -0.940977 
-0.193087 0.190276 -0.155915 -0.681966 0.012187 -0.708408 
3.189883 1.939090 -0.031513 0.216844 0.204882 -0.953430 
0.949459 1.089651 0.066149 -0.416544 0.053289 -0.876658 
1.704872 1.192750 -0.145345 0.010821 -0.302296 0.929062 
2.111791 1.791510 -0.192035 -0.094301 0.238540 -0.962399 
-1.416007 1.403563 -0.277826 -0.830104 -0.106256 0.528538 
-0.423380 -0.281007 0.017192 -0.312945 0.018040 -0.893412 
0.574255 -0.601585 0.047494 -0.064599 -0.055610 -0.949793 
2.670651 1.596385 -0.194715 0.158081 0.265681 -0.946568 
-0.527876 -1.012254 0.075707 0.172599 -0.213530 -0.953349 
-1.410448 1.627838 -0.426290 0.719663 -0.296394 -0.575553 
-1.964439 0.461089 -0.703648 0.718980 -0.236425 -0.638907 
-1.705898 -0.015171 -0.517644 -0.534713 -0.143437 0.827791 
2.550912 1.461547 -0.227330 -0.039492 -0.147853 -0.975263 
-1.224153 -0.176800 -0.281440 0.429103 0.153781 -0.870421 
-0.098498 -1.001924 0.150750 0.030716 -0.424109 -0.894192 
-1.401656 1.181398 -0.190235 -0.817093 -0.031421 0.538988 
-1.715356 1.301389 -0.875590 0.773941 -0.161524 -0.595627 
0.093031 -0.466311 0.311816 0.127899 -0.189897 0.971275 
1.063669 -0.545397 -0.195143 -0.278648 0.042520 -0.918096 
-1.296925 -0.147685 -0.326025 0.450547 0.177883 -0.861372 
1.019792 1.031338 0.042159 -0.210375 0.003834 -0.974691 
1.583612 0.964761 -0.184544 0.178798 -0.183022 0.930880 
0.530136 -0.888723 0.077844 0.389748 0.042513 0.916377 
-1.533644 0.064842 -0.380954 -0.542442 -0.128665 0.827865 
0.164163 -1.151666 0.223705 -0.209581 -0.395853 -0.892477 
-1.817123 0.997100 -0.811152 -0.710057 0.070160 0.675517 
-1.221630 -0.292355 -0.304184 0.405821 0.145007 -0.873623 
-2.125007 2.295228 -1.553367 0.664251 -0.045220 -0.743278 
1.018121 0.102107 -0.036359 0.490955 -0.180397 0.850042 
-0.166883 -0.632782 0.021834 -0.187064 -0.271478 -0.940366 
1.846504 1.871123 -0.123314 -0.066392 0.172098 -0.979662 
-0.232272 -0.863110 0.180621 -0.135890 -0.100509 0.979093 
0.091495 -0.659310 0.024603 0.036923 -0.377136 -0.918119 
-1.902170 1.251893 -1.093310 -0.783249 0.329418 0.472396 
-0.083110 1.216130 0.446426 0.142944 0.772243 0.584285 
-0.515032 -0.232222 0.097099 -0.554399 -0.160827 0.808202 
1.192868 -0.120704 -0.173737 0.466759 -0.157131 0.862752 
-1.308482 1.520564 -0.220564 0.637818 -0.024170 -0.747735 
2.052266 1.838453 -0.110731 0.150802 -0.135949 0.940430 
0.410336 -1.279900 0.159612 0.816583 0.459309 -0.106442 
-1.199845 1.576293 0.070191 -0.540024 -0.028291 0.837047 
1.451416 0.640851 -0.161698 0.304554 -0.122710 0.917610 
-0.917177 -0.340954 -0.080477 -0.492187 -0.088081 0.852969 
-0.235681 0.319122 0.431537 -0.174806 -0.313279 0.930160 
-1.860833 1.194382 -1.019865 0.745115 -0.192732 -0.629376 
-0.075364 -1.207836 0.264976 -0.428731 -0.306176 0.571035 
1.768239 0.682560 -0.230730 -0.082542 0.001972 -0.965422 
-1.752388 1.217015 -0.846312 -0.803051 0.455455 0.292332 
-1.696945 0.231428 -0.481565 0.557905 0.023704 -0.814924 
-0.763790 0.526897 0.209844 -0.250007 0.166683 0.931387 
-2.106163 1.365306 -1.389314 0.724396 -0.258303 -0.628611 
-0.274386 0.995883 0.331230 -0.917475 0.352154 0.053401 
0.773884 0.431330 0.210966 0.556132 -0.230283 0.779348 
-1.598339 1.497529 -0.755915 0.864528 -0.211138 -0.451845 
1.191310 1.125057 0.008969 0.552512 -0.165292 0.768145 
0.547913 -0.124027 0.134257 0.500957 -0.196953 0.831760 
0.084432 0.297684 -0.236371 0.598946 0.077323 -0.781385 
-0.716957 0.065176 -0.024067 -0.009375 0.107773 -0.872886 
3.267486 1.962410 -0.007634 0.231006 0.214988 -0.948714 
-0.026900 0.519301 0.521018 -0.051265 -0.295630 0.952644 
1.609824 1.289106 -0.174268 -0.056348 0.168796 -0.974610 
-1.218654 0.522215 -0.142222 -0.672273 -0.088568 0.704303 
-1.313966 0.946259 -0.159497 -0.788522 -0.034567 0.587453 
0.593277 0.411360 0.104645 0.134452 0.222965 -0.870481 
1.132711 0.479026 -0.061692 -0.320507 0.105009 -0.934221 
-0.351732 -0.683518 0.167785 -0.509898 -0.068629 0.848697 
-1.561479 1.282953 -0.521783 -0.808376 0.019101 0.560885 
-1.059632 0.128511 -0.073488 -0.535014 -0.183952 0.821067 
0.745788 0.148358 -0.003182 0.046413 0.131838 -0.889019 
1.813426 0.134082 -0.244391 0.236314 0.130232 -0.933363 
-1.977956 0.940860 -1.016646 -0.775233 0.467172 0.324609 
-1.045141 1.411666 0.091097 0.878469 0.264423 -0.196504 
1.800557 0.751953 -0.226470 -0.071027 -0.161945 0.955547 
-0.094134 0.651233 -0.117125 -0.463560 0.366657 -0.783955 
2.245051 1.331229 -0.254065 -0.090802 -0.000229 -0.986983 
-1.842185 1.884244 -1.245933 0.726964 0.003591 -0.681070 
-1.662267 1.206128 -0.634778 -0.828448 0.150928 0.517865 
-0.507691 -0.734451 0.062377 0.078270 -0.084443 -0.955150 
0.925347 0.512712 0.050418 -0.297467 0.125202 -0.944715 
0.740231 0.215565 0.177597 0.435307 -0.295493 0.842114 
1.108901 1.208288 0.054742 0.624029 -0.181119 0.728607 
2.312919 1.388867 -0.249003 -0.087252 -0.067170 -0.982641 
-0.896915 0.027212 -0.082422 0.225950 0.106531 -0.880200 
-1.793176 0.875481 -0.694900 -0.711530 0.074453 0.693067 
2.965856 1.602284 -0.143153 -0.139061 -0.104860 0.975755 
-0.623447 0.329758 0.267962 -0.463700 -0.353888 0.798707 
0.345494 -0.472218 0.047156 0.340316 -0.040972 -0.909108 
0.059220 0.768418 -0.053849 0.427308 0.403404 -0.796012 
0.256880 -0.314915 -0.055588 0.587175 -0.174169 -0.780294 
0.877584 0.702934 0.076658 -0.270973 0.147424 -0.943222 
-0.200188 -0.295477 0.304413 -0.361709 -0.094623 0.891762 
-0.897890 -0.687910 -0.151830 0.267156 -0.005758 -0.917216 
-1.462683 1.364090 -0.367996 -0.814892 -0.100454 0.556951 
1.505659 1.817686 -0.051464 -0.004375 0.194895 -0.976869 
0.952969 0.908422 0.066830 -0.247427 0.020506 -0.967489 
1.981058 1.882556 -0.100656 0.184992 -0.124720 0.941612 
0.264524 0.622870 0.506225 0.407667 -0.116700 0.865804 
1.657504 0.612125 -0.267897 -0.109007 0.112870 -0.976268 
-0.926944 0.351870 0.005162 0.345742 0.160452 -0.913239 
1.623911 -0.097131 -0.441652 0.430483 -0.244870 0.858132 
0.906686 0.014316 -0.011581 0.501845 -0.169745 0.845311 
0.071489 -0.797608 0.078562 0.120845 -0.379695 -0.901941 
0.699048 -0.812189 -0.014040 0.401833 0.003144 0.906019 
-1.559340 1.643165 -0.749712 0.815944 -0.318060 -0.454891 
-0.340505 -0.176512 0.268483 -0.511622 -0.209292 0.807177 
-1.282533 1.470193 -0.099636 0.557007 -0.192663 -0.795785 
1.364681 -0.225740 -0.309788 0.467482 -0.179512 0.857294 
-0.352224 0.293418 0.110274 -0.536572 0.159190 -0.819412 
2.435082 0.732234 -0.254729 0.017981 0.008733 -0.995548 
0.338002 -0.941442 0.158902 0.228836 -0.017047 0.960387 
2.230361 2.089989 -0.131049 0.051440 0.093470 0.982444 
1.735864 0.619337 -0.221202 -0.022638 -0.111695 0.960666 
-1.152379 0.415544 -0.140866 0.476355 0.066808 -0.858112 
-1.686649 1.009918 -0.604020 -0.743470 0.036981 0.658941 
-1.735438 0.304661 -0.500886 -0.607552 -0.013969 0.775744 
1.728726 1.842587 -0.050767 0.291664 -0.113436 0.908863 
-1.977968 0.806072 -0.947457 0.778779 -0.433200 -0.429330 
0.332890 0.275740 0.384435 0.220535 -0.290833 0.926935 
-1.594951 0.543197 -0.423144 -0.671984 0.045895 0.714215 
0.005572 0.207134 0.410054 0.028462 -0.279062 0.955369 
-1.454494 -0.105860 -0.411082 -0.524240 -0.229796 0.817284 
2.428329 0.455715 -0.233601 0.051276 0.038679 0.996141 
2.852757 1.355924 -0.194807 0.129905 0.121224 -0.979317 
0.051196 0.088746 -0.240585 0.528827 -0.018619 -0.833440 
0.436976 0.604108 0.329306 0.265310 0.630090 -0.648121 
1.446707 -0.011443 -0.323456 -0.422067 0.199686 -0.881050 
-0.958065 -0.761392 -0.140466 -0.347022 0.137126 0.884647 
-0.230729 -0.333286 -0.075895 -0.588802 -0.173594 -0.783358 
0.819635 0.187121 0.118282 0.450218 -0.264300 0.844426 
-0.454747 0.136837 0.289462 -0.393036 -0.328519 0.846876 
-1.465886 1.243055 -0.259929 -0.817960 -0.025319 0.539058 
-1.669396 1.218369 -0.744458 0.749335 -0.039111 -0.647405 
0.083303 0.447226 0.497851 0.082369 -0.310468 0.945162 
-0.912425 -0.460709 -0.106855 -0.478534 -0.080942 0.858889 
-0.806013 -0.563033 -0.053804 -0.465786 -0.045896 0.869338 
-0.062421 0.780663 -0.049562 -0.433834 0.407235 -0.791289 
-2.085675 0.453183 -0.877453 0.734048 -0.277819 -0.604498 
-0.415448 -1.160576 0.137268 -0.580615 0.268348 0.736373 
0.458983 -0.540934 0.085656 0.500778 -0.065246 0.854196 
0.131233 1.232848 0.198843 0.740541 0.516659 -0.401257 
-0.427395 -1.293851 0.168104 -0.473333 0.180483 0.652029 
-1.876705 2.265069 -1.349316 0.698234 -0.090112 -0.708786 
-2.277860 1.734646 -1.637270 0.685038 -0.124472 -0.717152 
1.344533 1.443886 -0.076348 -0.165421 -0.077803 -0.972178 
-1.933013 1.378474 -1.205904 0.749435 -0.302589 -0.577242 
-1.231406 0.405537 -0.168297 -0.634395 -0.091604 0.740709 
-1.773206 0.658580 -0.557046 0.709403 -0.164385 -0.679388 
-2.130212 0.861663 -1.189699 -0.771676 0.333503 0.508902 
-1.329399 0.247116 -0.248398 -0.585412 -0.091781 0.788978 
1.838710 1.169517 -0.178328 0.346382 0.058538 0.926331 
0.362507 0.155177 0.097649 0.472352 0.117156 -0.870773 
-1.914813 1.466299 -1.214347 0.731225 -0.351420 -0.569042 
1.635248 1.112273 -0.164143 0.024144 -0.320271 0.902527 
-0.254246 0.867896 0.440594 -0.732944 0.160834 0.613479 
1.441658 1.024491 -0.124446 0.342799 -0.152994 0.883017 
-1.591190 1.635893 -0.812373 0.822471 -0.322682 -0.449074 
-1.169978 1.415301 0.037863 -0.862898 -0.162622 0.468575 
-0.650955 0.030166 0.132189 -0.497569 -0.245589 0.817157 
1.550760 0.902965 -0.203568 -0.139640 0.051101 -0.986520 
-2.210047 0.642060 -1.174417 0.763831 -0.323980 -0.555756 
-1.962306 2.031853 -1.386294 0.706054 -0.084942 -0.697478 
-2.207437 2.030905 -1.615101 0.667535 -0.078774 -0.739915 
0.246670 0.352426 -0.115424 0.720938 0.091128 -0.669310 
0.582524 0.714396 0.327726 0.120717 -0.020435 0.898462 
-1.680455 1.488115 -0.889497 -0.833705 0.246848 0.490516 
-0.745756 0.193355 0.147734 -0.463911 -0.295625 0.822743 
0.003544 -0.966684 0.238701 0.608529 0.054643 0.775663 
2.676549 1.891905 -0.151595 -0.103716 -0.263704 0.948865 
1.146896 1.191458 -0.012406 -0.157733 -0.015008 -0.982053 
1.734092 1.355577 -0.160138 -0.039189 0.203139 -0.952458 
0.167247 -0.472117 0.300549 0.239511 -0.168439 0.949328 
0.023572 1.397962 0.170714 0.535573 0.694541 -0.454894 
-1.626528 1.946671 -0.950844 -0.811407 0.211382 0.514841 
1.548289 0.745486 -0.194831 0.238756 -0.108169 0.944636 
0.984387 0.782514 0.091355 0.686475 -0.127744 0.707002 
0.364511 -0.436747 0.145117 0.564481 -0.123702 0.814878 
-2.002568 1.977372 -1.409383 -0.695976 0.196069 0.669300 
-0.041501 -0.779656 0.079082 -0.225994 -0.385397 -0.884724 
0.194353 -0.911534 0.188121 0.140422 -0.043542 0.980712 
-0.065751 0.305057 -0.245511 -0.591683 0.085589 -0.784991 
-0.176269 0.888445 0.058270 -0.608408 0.393856 -0.672109 
-2.128079 2.034677 -1.540575 0.677839 -0.062986 -0.729854 
1.391590 0.328919 -0.202288 -0.264538 0.161538 -0.937765 
0.025440 1.160828 0.102301 0.399690 0.241364 -0.872774 
1.778891 1.131578 -0.220719 -0.019638 0.191958 -0.974955 
0.639297 -0.799424 0.027741 0.400079 0.013222 0.908577 
0.583906 0.549570 0.174363 0.063884 0.435823 -0.624793 
0.033060 -0.376908 -0.154573 0.376633 -0.342766 -0.847803 
0.006678 0.176713 -0.277024 0.512098 0.008613 -0.843088 
0.007833 -0.588597 -0.016274 0.567040 -0.378480 -0.687619 
0.997681 -0.357575 -0.102128 0.443402 -0.097301 0.878842 
0.090159 1.005855 0.548879 0.181594 -0.040622 0.976488 
2.608912 1.955245 -0.153232 -0.095603 -0.303787 0.938112 
1.882385 0.803237 -0.234712 -0.187205 -0.109740 -0.958476 
0.033531 0.256396 -0.274493 0.556197 0.058100 -0.822809 
1.225931 1.294772 -0.002685 0.532616 -0.206738 0.777712 
-1.922395 0.933146 -0.952272 0.720689 -0.178049 -0.658955 
-0.275336 -0.309231 -0.012143 -0.542373 -0.111970 -0.819414 
-0.532642 0.144255 0.255973 -0.443725 -0.328768 0.820777 
1.488161 1.705691 -0.055744 -0.002662 -0.141234 -0.974618 
-1.773655 0.419900 -0.530009 -0.643596 0.035472 0.742940 
2.043609 1.596933 -0.198003 -0.204734 -0.083930 -0.967702 
1.105515 1.495403 0.013304 -0.108246 -0.065138 -0.988109 
-0.097776 -0.118598 0.343206 -0.154962 -0.123179 0.973213 
0.993811 1.166569 0.144546 0.369279 -0.008840 0.894168 
0.238254 1.083773 0.315129 0.893076 0.412554 -0.024636 
0.075653 -0.503517 -0.056582 0.225449 -0.513521 -0.819067 
0.469472 -0.923581 0.096445 0.394720 0.048056 0.914355 
-0.567205 -0.055604 0.004355 -0.175209 0.074548 -0.878918 
-0.165564 1.128418 0.474947 -0.855904 0.217503 -0.275985 
0.735137 0.572096 0.233827 0.134297 0.168506 0.937942 
-1.329654 1.230178 -0.168945 0.565852 -0.149078 -0.790496 
2.310967 1.581825 -0.224648 -0.129146 -0.189179 -0.970717 
-0.986163 0.980913 0.048557 0.382229 0.016527 -0.916614 
2.196129 1.096078 -0.246645 0.197343 0.039997 0.946135 
1.299839 0.462172 -0.135977 -0.292124 0.115646 -0.940443 
-1.431068 -0.204917 -0.431726 0.468254 0.214626 -0.847488 
0.770037 -0.460249 -0.000882 -0.223261 -0.007048 -0.946195 
-1.839373 0.319417 -0.574428 -0.636525 0.042657 0.748055 
-0.345925 0.767731 0.388534 -0.807514 0.388533 0.367629 
1.711038 1.118599 -0.204666 -0.347014 -0.081904 -0.930455 
0.072334 -0.179822 -0.177671 0.471022 -0.183162 -0.833577 
-0.975794 1.148273 0.051966 0.704059 0.165761 -0.654265 
-1.235831 -0.492729 -0.324495 0.397409 0.058164 -0.866683 
-0.847583 1.038170 0.192957 -0.476968 -0.035929 0.857272 
-2.260881 1.805998 -1.631849 -0.689223 0.113553 0.714334 
-0.701840 -0.739993 -0.036555 0.205489 -0.043759 -0.944299 
0.217853 1.050342 0.450138 0.439952 0.808304 0.005148 
2.134491 0.781040 -0.232659 0.344443 0.198096 0.881482 
-0.430346 -0.393814 0.084742 -0.579030 -0.111719 0.806219 
0.939958 -0.255510 -0.040868 0.447384 -0.096232 0.878821 
-0.006491 0.927232 -0.002153 -0.348595 0.465337 -0.810145 
-1.462470 1.963503 -0.728510 0.823814 -0.158149 -0.537607 
1.905835 1.893202 -0.087415 0.218458 -0.118079 0.936095 
0.276650 0.982944 0.274448 0.906955 0.363025 -0.112312 
-1.505533 1.461212 -0.550431 0.777910 -0.136099 -0.563902 
-0.541614 -0.368835 0.054681 -0.558222 -0.102885 0.818147 
0.922657 0.345433 0.009096 -0.234638 0.145981 -0.921442 
-1.041032 0.625003 -0.034870 0.414401 0.065423 -0.897962 
2.298264 1.477409 -0.239696 -0.106668 -0.111892 -0.977835 
0.166597 0.695561 -0.065158 0.494103 0.414389 -0.719055 
-0.232707 -0.038388 -0.104778 -0.660782 -0.072231 -0.723447 
-2.100615 1.817595 -1.476610 -0.693227 0.212016 0.670622 
-1.856632 1.380693 -1.113844 0.775808 -0.270342 -0.562570 
1.306157 1.885056 0.021831 -0.249847 0.688999 -0.659629 
0.564799 -0.439298 0.060560 0.496352 -0.080444 0.855577 
-2.013620 0.863843 -1.022152 -0.777093 0.455951 0.343437 
0.256450 0.960951 0.192912 0.795340 0.327018 -0.408844 
-1.692706 1.074364 -0.658133 -0.736338 -0.002560 0.669863 
-0.176374 -0.824644 0.206198 -0.159725 -0.105564 0.972160 
0.401192 -0.489295 0.106572 0.531685 -0.094134 0.836917 
2.472018 1.452612 -0.240407 -0.066761 -0.176465 -0.976170 
-1.946561 1.241500 -1.151358 -0.777671 0.309489 0.504743 
0.067927 0.195770 -0.244519 0.569217 0.031586 -0.809882 
-0.105242 0.904098 0.033226 -0.507113 0.422811 -0.725483 
0.466645 -1.090778 0.113333 -0.177324 -0.189059 -0.960608 
-1.268601 1.877156 -0.279760 0.841911 -0.106732 -0.520762 
1.929142 0.195941 -0.186814 -0.320017 -0.067785 0.932188 
-0.112550 0.139463 -0.206948 -0.602081 0.006065 -0.779953 
-1.333857 1.840859 -0.291251 -0.898220 0.261991 0.283330 
1.561394 0.291402 -0.289075 0.214587 -0.219640 0.935996 
0.934275 0.234515 -0.032759 -0.177093 0.151547 -0.901831 
2.378672 1.932984 -0.169414 0.010737 -0.172704 0.977133 
0.069698 -0.948193 0.133514 0.118014 -0.399176 -0.889656 
1.132251 0.535659 -0.019271 0.548456 -0.146353 0.797216 
2.793014 1.628047 -0.170355 0.166607 0.229690 -0.954241 
-1.540887 0.871254 -0.356442 -0.765513 0.071795 0.620659 
0.007001 -1.008243 0.143793 0.546817 -0.325969 -0.751732 
-0.232628 1.224631 0.609139 0.642715 0.488306 0.572304 
-0.467350 -0.954592 0.091521 -0.421551 0.062439 0.902793 
2.608084 1.881304 -0.165363 -0.080474 -0.232077 0.960771 
0.344833 -0.402268 0.037693 0.384447 -0.025222 -0.899869 
-2.095570 1.602088 -1.429392 -0.728255 0.097033 0.667258 
-1.491705 1.995726 -0.806377 0.834092 -0.164473 -0.522553 
0.406710 -0.826656 0.090737 0.034479 -0.117091 -0.961923 
2.064299 0.760389 -0.215976 0.298737 0.146124 0.920718 
0.309471 -0.332979 0.031213 0.464947 -0.028499 -0.880646 
-0.898356 0.928035 0.072968 0.712176 0.146586 -0.678575 
0.141309 -0.970246 0.134290 -0.106511 -0.400241 -0.903911 
-1.729397 1.380335 -0.915617 -0.813726 0.311487 0.456425 
1.239500 0.264631 -0.110577 0.433195 -0.171852 0.875086 
-1.400688 1.869941 -0.431505 -0.875787 0.241509 0.338180 
0.175009 1.058730 0.393261 0.429898 0.819164 0.262821 
-1.534710 1.268184 -0.587376 0.795996 -0.105888 -0.581580 
1.032784 -0.406528 -0.150634 -0.288658 0.057496 -0.920609 
-0.488273 -0.498899 0.072573 -0.536955 -0.071591 0.831645 
-1.617077 2.123490 -1.019046 -0.806632 0.173326 0.558117 
-1.794297 1.861225 -1.188745 -0.715447 0.346430 0.595411 
-1.617739 0.358229 -0.442501 0.586550 -0.009553 -0.786467 
3.029812 1.840331 -0.088910 -0.175513 -0.230239 0.951015 
-1.460995 0.884144 -0.322443 0.613706 -0.113598 -0.748605 
2.009808 0.805218 -0.217762 -0.060678 -0.111119 0.952276 
-1.652445 -0.090274 -0.520700 0.504693 0.169854 -0.841133 
0.079612 1.305973 0.306161 0.454947 0.779476 0.398666 
1.704588 1.719211 -0.120178 -0.108911 0.128237 -0.983418 
-2.258283 1.574438 -1.586625 0.699220 -0.159378 -0.693829 
0.925347 0.843931 0.076236 -0.253883 0.040537 -0.964606 
-0.201055 1.158304 0.340456 -0.565835 0.047281 0.722152 
-2.197983 0.711140 -1.197662 -0.775403 0.313614 0.542943 
0.702724 -0.066747 0.070222 0.501942 -0.184183 0.837579 
-1.882577 0.661566 -0.712273 0.741079 -0.311274 -0.551306 
1.673710 0.368033 -0.328533 -0.096279 0.193476 -0.964810 
0.286195 -1.242095 0.171572 -0.472259 -0.263730 -0.820407 
0.203340 -0.306667 0.302027 0.365763 -0.089775 0.892124 
0.278459 -0.378572 0.266692 0.564381 -0.128420 0.794729 
2.572895 1.546476 -0.217021 0.147635 0.287371 -0.942353 
2.692336 1.087736 -0.243887 0.046128 0.011635 -0.991370 
1.231016 -0.039687 -0.179646 0.473521 -0.172179 0.858643 
-0.571079 -0.083625 0.129775 -0.518778 -0.214294 0.813241 
-1.776206 2.170683 -1.235787 -0.754159 0.031198 0.642733 
2.643636 1.258155 -0.230945 -0.082974 -0.161284 0.973349 
-1.038942 0.898486 0.055376 -0.796738 -0.143546 0.579392 
2.500657 0.760869 -0.260078 0.011137 0.000921 -0.997467 
0.575156 -1.088742 0.084123 -0.240101 -0.227379 -0.942009 
