-0.613535 0.637336 0.370907 0.562533 0.288625 0.749731 
1.471603 -0.851948 1.566736 0.664389 -0.572467 -0.463038 
1.253816 -0.721863 0.928558 0.722653 -0.272047 -0.611023 
-0.000283 -0.033254 -0.369421 -0.411989 -0.157730 -0.860667 
-0.958385 0.580867 0.661467 0.670004 0.222092 0.689534 
1.283317 -0.892805 1.293200 -0.738504 0.558440 0.374748 
-0.299790 -1.193509 0.160153 -0.284868 -0.196654 -0.897168 
0.344205 0.332017 -0.164064 0.747936 0.005986 -0.647214 
0.872481 -0.838216 0.548824 0.655646 0.011810 -0.750847 
-0.807475 -0.047923 0.551109 0.663469 -0.063918 0.736504 
1.664523 0.412209 1.189305 -0.661783 -0.171570 0.662351 
-0.786085 0.458377 0.522474 0.603810 0.258816 0.732541 
-2.197737 0.368251 1.455992 0.394747 -0.066392 0.878758 
-3.011226 0.041177 2.428202 -0.885004 -0.251846 -0.382994 
-1.269408 -0.243815 0.940347 -0.633505 -0.219696 -0.728604 
-0.233215 -1.208598 0.129659 -0.353954 -0.174780 -0.826299 
1.121172 0.032689 0.774575 -0.593990 -0.060026 0.767055 
-2.070516 -0.176383 1.415093 -0.598898 -0.234624 -0.747725 
0.336611 -0.387634 -0.110581 0.685592 -0.173714 -0.690074 
0.150755 0.269961 0.292796 0.192470 -0.264563 0.942026 
0.483752 0.064036 0.240815 -0.407574 -0.184568 0.857347 
2.316340 0.064114 2.324203 -0.875939 0.412008 0.187507 
-1.785669 -0.162403 1.271590 -0.206323 -0.234372 -0.922970 
2.199179 -0.201689 2.617637 0.926326 -0.349496 0.013511 
0.958518 0.231411 0.660011 -0.543716 -0.181224 0.808378 
1.426250 0.165877 1.002042 -0.603872 -0.060646 0.738255 
0.672743 0.083961 0.432936 -0.569169 -0.153406 0.795748 
1.798167 0.428382 1.327442 -0.614407 -0.194975 0.704261 
-0.009046 0.439280 -0.372521 -0.452902 0.232914 -0.849588 
1.709939 0.112627 1.186432 0.633313 -0.235751 -0.728792 
0.655547 -0.441384 0.392564 -0.461822 0.002487 0.835308 
-0.827820 0.266008 0.584314 0.580506 -0.152914 0.797255 
0.342355 -0.294949 0.111041 0.438680 -0.124836 0.815739 
-2.674707 -0.255921 2.029468 0.765302 0.280301 0.547659 
1.476969 -0.944476 1.708779 -0.691888 0.576175 0.426447 
-0.084813 0.742489 -0.194998 -0.435138 0.394142 -0.792890 
-0.724891 -0.378305 0.474330 0.602042 0.019716 0.757218 
-1.061491 -0.376420 0.787679 -0.701847 -0.167818 -0.676366 
2.142889 -0.216055 1.990572 -0.891309 0.285825 0.242253 
0.339780 0.026561 0.141073 0.097732 -0.216349 0.962931 
-2.124119 0.339954 1.422760 0.374189 -0.079268 0.887366 
2.231442 -0.125369 2.361029 -0.949125 0.261053 0.044798 
2.147683 -0.308366 2.574852 0.877094 -0.452722 -0.069183 
0.487129 0.462458 0.041898 0.855003 0.146695 -0.476305 
-2.717176 -0.192579 2.034253 -0.638535 -0.440297 -0.602078 
0.487737 -0.231375 0.168315 -0.244274 -0.087790 0.913299 
-0.639956 0.205395 0.415408 0.558984 -0.195377 0.797142 
0.576858 -0.476484 0.293787 -0.345414 -0.001970 0.879368 
-0.515989 -1.063789 0.212237 -0.483628 0.199507 -0.837227 
-2.839871 0.525600 1.872732 -0.780022 0.293206 -0.483677 
-0.324108 -0.572582 -0.053094 -0.631196 -0.183453 -0.730332 
0.161381 1.109484 0.273443 0.774914 0.390094 -0.111909 
0.572652 -0.826556 0.317826 0.550776 -0.117980 -0.805785 
0.649779 0.078868 0.279913 0.762338 -0.083108 -0.630250 
2.207302 0.400669 1.915092 -0.836662 0.066516 0.440043 
0.677401 -0.340586 0.383424 -0.455752 -0.017774 0.832561 
-0.327342 0.272990 -0.207200 -0.751378 -0.018272 -0.652683 
1.493569 -0.097561 1.043447 -0.659340 0.089871 0.699820 
2.030237 -0.515209 2.274830 0.839298 -0.484359 -0.187369 
0.540735 0.255866 0.129040 0.811981 -0.065096 -0.573579 
-0.205176 0.767568 0.347660 -0.360347 0.194260 0.885708 
0.258281 0.769307 0.335772 0.492878 0.263591 0.823809 
0.324323 0.381306 -0.213314 0.697352 0.049360 -0.705729 
1.014606 0.304622 0.704132 -0.517869 -0.207851 0.819598 
0.293489 -0.851875 0.031883 0.481790 -0.244057 -0.832487 
-0.347292 0.234624 -0.150589 -0.773719 -0.050507 -0.616049 
0.367458 0.266451 -0.106635 0.811613 -0.049623 -0.574581 
-0.089355 -0.977125 0.034198 -0.153802 -0.314151 -0.929214 
2.052428 0.196316 1.626150 -0.772982 0.027521 0.609352 
0.956967 0.358008 0.574483 0.714699 -0.078342 -0.678976 
1.250983 0.437576 0.881805 -0.517179 -0.229581 0.802678 
1.145610 -0.623587 0.799591 -0.710034 0.137967 0.684006 
-2.084059 -0.646595 1.677198 -0.554027 -0.448495 -0.695871 
0.330538 0.696391 -0.113688 0.558577 0.562240 -0.578599 
1.391647 0.243087 0.979011 -0.583472 -0.106685 0.753003 
-1.090498 0.531206 0.814083 0.662637 0.174036 0.700620 
0.460131 0.133232 0.040933 0.813157 -0.071951 -0.569466 
-0.074310 -0.409341 -0.253287 -0.368229 -0.385582 -0.835730 
-1.886161 -0.506057 1.484453 -0.598940 -0.420229 -0.675187 
-1.060228 0.331168 0.701193 -0.716930 -0.231424 -0.652815 
-1.535198 0.107265 1.146767 -0.579120 -0.304058 -0.754164 
-2.545374 0.196187 1.644770 0.602347 0.095042 0.759088 
1.996890 -0.032817 1.574574 -0.767141 0.156174 0.600584 
0.165456 0.863637 -0.104497 0.572334 0.378246 -0.709177 
1.395791 -0.015120 0.939295 0.697696 -0.256764 -0.668396 
2.084198 -0.410575 2.255865 0.828798 -0.491874 -0.213449 
2.283029 0.363856 2.089482 -0.896554 0.124638 0.290543 
-1.976370 0.506563 1.365734 0.321928 -0.217907 0.876582 
0.990118 0.447385 0.623395 0.522253 0.345144 -0.766170 
1.560243 0.522822 1.056240 0.665053 -0.272344 -0.694630 
1.063521 0.011845 0.731723 -0.598019 -0.065867 0.769287 
0.265220 0.594712 -0.210655 0.547174 0.310275 -0.757856 
0.827575 -0.564270 0.514183 0.659502 -0.012401 -0.747132 
1.363011 0.605803 0.885245 0.584822 0.049346 -0.782651 
0.448269 -0.740055 0.198989 0.538083 -0.179155 -0.804141 
1.306135 -0.367350 0.903349 -0.699413 0.150997 0.688163 
-1.707387 0.811866 1.291461 0.452820 -0.014613 0.848652 
-0.079385 1.221834 0.285378 0.206376 0.778546 0.576053 
0.527146 -0.384171 0.185397 -0.223591 -0.031820 0.919135 
-0.178332 1.037377 0.352049 -0.433990 -0.038124 0.840622 
-0.102628 1.046176 0.386442 -0.170929 0.005574 0.979595 
0.105396 -0.935755 0.018576 0.136678 -0.334142 -0.925769 
1.223364 0.567904 0.890009 -0.590187 0.000117 0.786641 
-1.699811 0.887810 1.236343 0.293618 0.193465 -0.867565 
2.118346 -0.366661 2.608191 0.886894 -0.445398 -0.043200 
-0.123327 0.569849 -0.267193 -0.455485 0.306092 -0.804605 
2.222977 -0.136335 2.442232 -0.922662 0.365001 0.079133 
0.308429 -0.466507 -0.115625 0.598959 -0.226615 -0.748989 
0.557379 0.491603 0.369379 -0.559444 0.331239 0.750249 
1.604072 0.749177 1.180567 -0.598180 0.015201 0.792662 
-2.829537 0.054933 2.036767 -0.841661 -0.197249 -0.486555 
0.196001 -0.646389 0.134286 0.219852 -0.136680 0.932388 
-1.101829 -0.850903 1.033318 0.745493 0.281955 0.586281 
-0.635010 -0.267983 0.334760 0.435827 -0.030959 0.821112 
2.092827 -0.410367 2.522774 0.875088 -0.455117 -0.079248 
1.498464 0.479859 1.064374 -0.580234 -0.220311 0.748369 
1.177331 0.011093 0.815063 -0.601937 -0.035151 0.757949 
-0.951698 0.115473 0.619687 -0.726704 -0.166143 -0.660025 
0.332134 -0.484085 0.064212 0.264039 -0.083787 0.914326 
-2.894241 0.351777 1.954358 0.845496 0.033896 0.505067 
2.047958 -0.420282 1.980125 -0.845983 0.388939 0.292833 
2.281921 0.146026 3.012226 -0.961620 0.221280 -0.128464 
0.591573 -0.350862 0.264435 -0.316972 -0.029249 0.883537 
2.097551 0.512088 1.797467 -0.784324 0.041494 0.482880 
-1.726922 -0.843949 1.643988 0.436851 0.458786 0.753298 
-1.216843 -0.042282 0.912882 0.585217 0.036185 0.774378 
-1.109129 -0.775593 0.959613 -0.755408 -0.254751 -0.594613 
-0.153254 -0.195181 -0.271088 -0.490554 -0.193071 -0.828435 
-2.266681 -0.366637 1.620553 0.517507 0.337427 0.778662 
-2.691436 0.109731 1.772467 -0.837068 -0.071900 -0.531330 
-1.121036 0.119919 0.822266 0.575494 -0.069681 0.782179 
-0.846138 -0.128009 0.542222 -0.736548 -0.095891 -0.667897 
2.022016 -0.524978 2.176885 0.822979 -0.497394 -0.235084 
0.186131 0.752063 0.354924 0.300147 0.173159 0.909781 
-1.692332 0.520970 1.255029 0.555470 -0.216836 0.777608 
0.024527 1.263480 0.225527 0.045394 0.844454 0.515952 
0.174965 -0.048539 -0.284907 0.539274 -0.118216 -0.809485 
0.253243 -0.433902 0.160625 0.470021 -0.113638 0.859176 
0.107479 0.144254 -0.353788 0.541232 -0.021634 -0.821851 
1.693412 -0.664264 1.660841 -0.588880 0.492058 0.569442 
-0.178162 0.622887 -0.234074 -0.471261 0.368737 -0.782388 
-0.226714 -1.038292 0.085643 -0.033702 -0.295292 -0.952297 
0.279659 -1.353579 0.208809 0.902169 0.060245 0.324127 
0.009911 1.002277 0.403243 0.153453 0.113358 0.975668 
-0.652053 -0.487980 0.381769 -0.647878 -0.124544 -0.731281 
0.016040 -0.194968 0.220561 0.112896 -0.024903 0.987436 
-0.651803 -0.991756 0.345513 -0.595386 0.130922 -0.762731 
-0.405610 0.612008 -0.067162 -0.692236 0.342484 -0.586574 
-1.994690 0.803125 1.378759 0.208396 0.515632 0.798138 
0.667499 0.336616 0.487049 -0.573975 0.000589 0.808707 
0.100316 -0.849813 -0.011468 0.105300 -0.363777 -0.915869 
2.381030 0.326025 2.705615 0.973122 -0.038192 0.102487 
-2.693896 0.025476 1.820020 -0.535691 -0.475132 -0.686170 
1.433004 -0.632414 1.194211 0.701505 -0.457483 -0.503833 
0.025380 0.443717 0.351625 0.043309 -0.302978 0.948019 
-0.135037 -1.031337 0.062249 -0.102435 -0.304305 -0.944746 
-2.404345 0.417233 1.532868 -0.651634 0.089247 -0.744306 
2.200370 -0.172979 2.179506 -0.931494 0.261943 0.114583 
-0.503922 -0.061508 0.102070 -0.792490 -0.087731 -0.597807 
-0.061695 0.963199 -0.111922 -0.418649 0.353605 -0.816732 
1.067769 0.459477 0.652756 0.602210 0.082217 -0.776993 
-2.847096 0.125585 2.017391 0.766383 0.252543 0.566244 
1.664446 -0.830701 1.827913 -0.739024 0.547400 0.381352 
2.301298 0.339725 1.940997 0.929332 0.094494 -0.327263 
-0.482823 0.154078 0.071217 -0.824040 -0.075061 -0.556803 
-1.887105 0.154069 1.331530 0.233118 0.002491 0.938357 
-0.467202 -0.227522 0.152775 0.234602 -0.092662 0.911384 
-0.405278 -0.297429 -0.023130 -0.769744 -0.110139 -0.626592 
1.715180 -0.208460 1.211928 0.621701 -0.230556 -0.735225 
1.750297 0.108036 1.266021 -0.840094 -0.036451 0.437098 
0.053531 -0.183726 -0.313847 0.408517 -0.237817 -0.848354 
0.230914 0.778714 -0.122296 0.545004 0.491713 -0.668630 
-0.976141 0.285846 0.631500 -0.723285 -0.205277 -0.655290 
1.907190 0.439566 1.452980 -0.682316 -0.176791 0.646798 
-0.349614 0.616756 0.283398 -0.420234 0.000677 0.812425 
-1.394494 0.419565 1.047100 0.519693 -0.174155 0.806482 
2.084128 -0.191739 1.712794 0.833879 -0.309586 -0.451944 
0.944566 -0.502910 0.648052 -0.686164 0.054453 0.717754 
1.175214 -0.056711 0.775948 0.693071 -0.179372 -0.690078 
-0.644160 -0.340289 0.308848 -0.723286 -0.100857 -0.675067 
0.734310 0.271608 0.349893 0.776897 -0.024176 -0.624896 
0.551675 -0.022393 0.158176 0.772222 -0.071314 -0.620230 
0.090139 1.280522 0.176518 0.268244 0.874732 0.382282 
0.115239 0.330391 -0.346872 0.565945 0.094395 -0.793922 
0.393837 0.401261 0.268424 -0.361374 -0.114614 0.863187 
-0.060807 -0.643329 -0.080714 -0.153930 -0.414571 -0.887775 
2.283750 0.270955 1.901201 0.900507 -0.012842 -0.401580 
-2.053060 0.659508 1.446194 0.318321 -0.015297 0.886029 
-1.633890 -0.018601 1.205905 -0.458811 -0.273115 -0.815296 
1.050480 -0.148106 0.717379 -0.642914 0.003889 0.744113 
1.721658 -0.125090 1.204347 0.620660 -0.213630 -0.744191 
-0.123768 -0.917666 0.017336 -0.073743 -0.343193 -0.931517 
-0.249526 1.022656 0.270331 -0.829216 0.123953 0.440122 
0.045472 -0.093306 -0.337834 0.427786 -0.177612 -0.852303 
2.041157 0.415417 1.621417 -0.733119 -0.081266 0.605470 
-0.047530 0.501189 -0.335693 -0.461734 0.277360 -0.833908 
1.034481 -0.039175 0.670845 0.689201 -0.137251 -0.703366 
0.777972 0.319344 0.395561 0.774854 0.028016 -0.618839 
-0.486773 0.635802 0.165026 -0.783554 0.504520 -0.328379 
-0.273148 0.107637 -0.245698 -0.657081 -0.069237 -0.728441 
-1.155432 0.537071 0.748657 -0.525274 0.213556 -0.795982 
-2.458812 -0.363855 1.794715 -0.530744 -0.473509 -0.701086 
-2.021822 0.433953 1.382353 0.339057 -0.164475 0.882582 
0.409413 0.211889 0.209543 -0.343222 -0.250531 0.868945 
1.721392 -0.785374 1.850682 -0.741953 0.534978 0.381764 
-3.090074 0.127447 2.586260 -0.918226 -0.212967 -0.330933 
-2.973262 0.060692 2.309177 -0.866792 -0.251794 -0.420747 
-1.006769 0.387319 0.643431 -0.729527 -0.186680 -0.647664 
1.962325 -0.630058 2.026835 -0.809140 0.493867 0.308083 
1.431439 -0.683003 1.247510 0.684606 -0.510712 -0.483169 
1.802729 -0.335694 1.454160 -0.449046 0.361848 0.795940 
0.832485 -0.886197 0.511993 0.639296 0.029531 -0.765666 
-0.083701 0.811988 -0.169346 -0.449718 0.402477 -0.786156 
1.636357 -0.528883 1.389288 -0.868535 0.425121 0.208208 
0.005689 0.115148 0.242129 0.057542 -0.191473 0.976595 
0.048383 -0.253417 -0.299818 0.384879 -0.289994 -0.847079 
-0.755101 0.283253 0.551567 0.581704 -0.052230 0.805263 
0.324300 0.439650 0.268254 0.064181 -0.185494 0.978247 
0.333963 0.028448 -0.130168 0.707486 -0.135667 -0.654553 
-1.013788 -0.250238 0.734017 0.671924 0.077835 0.724114 
2.232275 -0.111326 2.194761 -0.947840 0.229911 0.090083 
-0.245945 -0.486889 0.152166 -0.446185 -0.120401 0.880195 
2.168897 -0.243672 2.182539 0.804576 -0.509795 -0.276712 
2.112327 0.573779 1.688247 0.913906 -0.017273 -0.398144 
-2.111937 0.419320 1.406389 -0.419898 -0.290301 -0.833176 
0.263969 -0.416694 -0.177582 0.505599 -0.296506 -0.808630 
1.715949 0.590171 1.177146 0.639399 -0.267028 -0.717851 
-1.748531 0.829365 1.230403 -0.386994 0.120211 -0.900901 
-0.171146 0.328939 0.313343 -0.212418 -0.284117 0.934202 
-0.250606 -0.056490 0.181714 -0.348688 -0.183165 0.874557 
-1.782959 0.108632 1.278320 0.665748 -0.033052 0.720546 
-1.329611 0.359044 0.995182 0.523885 -0.150263 0.806935 
-0.235112 -0.371348 0.173105 -0.446588 -0.074933 0.857643 
-0.693549 -0.628267 0.433649 0.568581 -0.001207 0.767447 
2.085433 0.400819 1.676796 -0.750994 -0.046624 0.592036 
2.361378 0.283660 2.765110 0.973261 -0.189156 0.066964 
-2.868662 0.012844 2.137768 -0.849865 -0.226682 -0.460346 
-1.287661 0.107769 0.973002 0.541591 -0.016739 0.800098 
1.812723 -0.625777 1.768073 0.802128 -0.504022 -0.303795 
0.344317 0.740716 0.254211 0.754500 0.355130 0.453490 
0.251667 0.971972 0.288144 0.790035 0.084921 0.567332 
-0.140137 1.263121 0.163695 -0.568573 0.789129 0.059471 
1.132649 0.204763 0.739022 0.686559 -0.208811 -0.690931 
1.099746 -0.702074 0.770191 -0.713500 0.135019 0.682366 
-0.974681 -0.049560 0.652692 -0.715315 -0.147086 -0.673755 
-1.225498 0.245401 0.860604 -0.672503 -0.275408 -0.681529 
-1.391052 -0.719747 1.370047 -0.532143 -0.472591 -0.676813 
-0.197851 -1.274616 0.140652 0.177439 -0.222278 -0.927339 
1.308698 -0.739991 1.112435 0.729553 -0.443730 -0.472971 
1.838483 -0.202562 1.444663 -0.556508 0.267127 0.754537 
0.770271 0.034315 0.430760 0.726767 -0.098121 -0.672545 
-1.277331 -0.079913 0.968543 0.578756 0.071791 0.777295 
2.241327 0.115296 1.942088 -0.885075 0.155892 0.360571 
-2.778708 -0.363433 2.265406 0.776352 0.362858 0.507460 
1.307986 0.396240 0.867308 0.679182 -0.258275 -0.686517 
1.588615 0.535088 1.132076 -0.597653 -0.238372 0.732014 
-0.577718 0.123198 0.361349 0.564000 -0.173032 0.787846 
-1.378065 -0.135672 1.061074 0.566653 0.127756 0.782989 
1.897034 0.800225 1.453817 -0.582974 0.473122 0.589326 
-1.985429 0.094411 1.343676 -0.571412 -0.081817 -0.789770 
-0.054419 0.080554 0.226701 -0.108272 -0.175475 0.976371 
-1.000390 -0.464246 0.762274 -0.733373 -0.166302 -0.645431 
0.071506 0.388607 0.335016 0.094184 -0.308759 0.939632 
0.351615 0.113308 -0.108121 0.753486 -0.109184 -0.614921 
-0.369489 0.282052 0.222462 0.133578 -0.243875 0.913119 
0.322406 0.180907 -0.194828 0.725212 -0.056734 -0.665862 
0.390127 0.609361 0.217936 0.296229 0.272736 0.805386 
-0.674540 0.444146 0.343035 -0.701643 0.397453 -0.547772 
1.539597 -0.739168 1.527389 -0.784649 0.499990 0.310290 
0.182489 0.343315 0.314817 0.208251 -0.292075 0.932962 
-0.326058 0.062726 0.167910 -0.213712 -0.235923 0.920885 
-1.391492 0.067142 1.024849 -0.618997 -0.288986 -0.724489 
0.314191 -0.286403 -0.129346 0.627459 -0.217655 -0.717978 
-1.374469 -0.222138 1.059885 0.584290 0.168408 0.772076 
-1.555135 0.647212 1.108441 -0.591793 -0.317773 -0.736725 
-0.236930 0.193963 -0.280465 -0.651783 -0.025489 -0.738393 
-2.371685 -0.298766 1.672162 -0.521926 -0.396028 -0.746641 
1.612037 0.271589 1.141320 -0.640900 -0.093503 0.703852 
-0.407225 0.062019 0.162626 0.293655 -0.201922 0.892817 
0.101817 0.446582 -0.318834 0.524541 0.215421 -0.795716 
-2.442828 0.112586 1.569001 -0.389044 -0.347705 -0.842335 
-1.338395 -0.770036 1.375636 -0.568007 -0.484603 -0.650830 
-0.181389 1.197863 0.130829 -0.745368 0.606143 -0.168082 
0.078026 0.756809 -0.188258 0.432378 0.387352 -0.800965 
0.416435 -1.119175 0.165793 -0.214624 -0.140874 0.856958 
1.640752 0.127818 1.123450 0.678892 -0.267645 -0.681503 
0.428211 -0.312441 -0.001205 0.748866 -0.112127 -0.649745 
2.172742 -0.253637 2.531910 -0.921097 0.356161 0.035052 
-0.520714 0.599236 0.222085 -0.798409 0.439031 -0.370853 
-1.950933 0.029641 1.327296 -0.635118 -0.077059 -0.748170 
0.117897 -0.644500 0.150064 0.189368 -0.153238 0.957716 
-1.140404 -0.856200 1.115942 -0.707444 -0.355327 -0.587160 
-2.010688 0.724270 1.407220 0.266100 -0.026859 0.931033 
-0.391093 -0.391013 0.024883 0.039127 -0.063344 0.987457 
-0.486300 -0.877186 0.256898 0.334713 0.031195 0.885692 
-0.953443 0.508005 0.660857 0.656182 0.305037 0.676285 
0.662990 -0.815640 0.393764 -0.466139 -0.014131 0.839324 
-2.103424 -0.697358 1.724503 0.415317 0.437112 0.760632 
0.388443 -0.046799 0.124967 -0.143217 -0.172068 0.932097 
-2.595068 -0.092734 1.775755 -0.507518 -0.486555 -0.709792 
-1.492080 0.147628 1.104769 -0.592870 -0.300676 -0.743147 
1.897322 -0.388764 1.608642 0.846275 -0.412575 -0.313931 
-0.614756 -0.265361 0.249926 -0.753862 -0.093333 -0.648591 
2.247403 0.455061 1.860130 0.913187 0.024785 -0.391998 
1.684016 0.645441 1.210169 -0.632659 -0.293865 0.681137 
-2.626845 -0.293991 1.989994 0.741047 0.292099 0.567950 
-0.686490 -0.831946 0.407989 -0.665402 -0.052175 -0.718172 
1.478930 0.749765 1.033879 0.221546 0.611879 -0.666471 
-0.842950 0.414028 0.537431 -0.580577 0.353831 -0.716121 
-0.076886 0.888916 -0.132867 -0.466992 0.388466 -0.772811 
0.555753 0.014913 0.308818 -0.466051 -0.153936 0.833477 
0.450078 -0.166713 0.142901 -0.235860 -0.116471 0.918159 
0.998122 -0.114594 0.680032 -0.631715 -0.025427 0.754815 
1.032289 0.376138 0.718922 -0.500684 -0.232962 0.828013 
0.051609 0.703788 -0.230754 0.322706 0.520003 -0.779612 
0.591262 0.261297 0.185701 0.803735 -0.050617 -0.586601 
0.066252 -0.016307 -0.347410 0.465577 -0.112291 -0.851361 
-1.418850 -0.307706 1.083431 -0.594039 -0.261515 -0.753491 
-0.099285 0.455234 0.358739 -0.149258 -0.284474 0.942666 
0.225875 0.256359 0.261449 0.182895 -0.274194 0.942823 
1.951879 -0.166575 1.558942 -0.696294 0.265199 0.622088 
-1.366710 -0.480944 1.091305 -0.635139 -0.275006 -0.707911 
0.491622 -0.109296 0.080790 0.769375 -0.086836 -0.623968 
-1.357455 0.455417 0.954853 -0.641993 -0.294069 -0.701413 
-2.361687 -0.361713 1.706310 0.594258 0.314971 0.708524 
1.868714 0.444452 1.382152 0.802524 -0.227575 -0.503832 
-1.806066 -0.950500 1.745619 0.424146 0.486071 0.760274 
-2.434558 -0.112879 1.646658 0.644806 0.213519 0.693735 
1.523542 -0.256136 1.039216 0.705903 -0.257937 -0.659116 
-2.329044 -0.649041 1.837584 -0.569321 -0.450499 -0.682096 
-2.099711 -0.534397 1.621170 0.273148 0.395531 0.813916 
-1.197233 -0.503177 0.948825 -0.685592 -0.230208 -0.672223 
-0.501373 -0.554928 0.219683 0.276946 0.005842 0.899951 
-0.568833 -0.288533 0.190312 -0.755135 -0.098076 -0.646630 
-1.073238 -0.296208 0.797550 0.667697 0.108291 0.721278 
1.399665 0.141802 0.940074 0.689530 -0.259282 -0.675601 
1.368303 -0.601594 1.030304 -0.725388 0.284379 0.595477 
-0.370356 -0.857053 0.127220 -0.527536 -0.194486 -0.811188 
2.134015 -0.149308 1.863870 -0.873375 0.266496 0.334981 
-0.064018 -0.826140 0.136818 -0.213199 -0.084162 0.949504 
-1.618583 -0.090859 1.203211 -0.467819 -0.273094 -0.812088 
-0.766326 -0.148736 0.514408 0.678339 -0.030384 0.721970 
2.306601 0.208257 2.961342 0.955996 -0.137977 0.154365 
0.612857 0.080693 0.384419 -0.554910 -0.163864 0.800795 
-1.522751 0.174183 1.169320 0.537209 -0.018217 0.793321 
2.140843 0.636317 1.743385 0.919764 -0.011409 -0.389573 
-1.826295 -0.103678 1.304335 0.717420 0.079488 0.680395 
0.108270 -0.312224 0.210309 0.200553 0.007850 0.977087 
-1.260366 -0.609437 1.046861 0.689148 0.238740 0.667665 
0.080339 0.861735 -0.145529 0.493783 0.354690 -0.775115 
-2.323000 -0.421473 1.700951 0.564965 0.343966 0.727891 
0.269144 -0.202661 0.163823 0.508947 -0.146848 0.799169 
1.303051 -0.469297 0.905862 -0.707537 0.164993 0.679762 
1.482749 0.504606 0.997918 0.668328 -0.268304 -0.693092 
-0.324120 0.090330 -0.170255 -0.708912 -0.099345 -0.668735 
0.082013 1.038582 0.390706 0.170921 0.033455 0.979025 
-0.455888 0.602939 0.004385 -0.765984 0.369486 -0.460098 
-0.077314 -0.302132 -0.276772 -0.400094 -0.308136 -0.838559 
-1.589296 -0.298311 1.207324 -0.477352 -0.283891 -0.806343 
2.058084 0.341471 1.639616 -0.751161 -0.036292 0.602652 
-0.150078 0.297924 -0.337574 -0.600787 0.050654 -0.777123 
-0.379251 -0.228866 -0.058167 -0.781648 -0.107465 -0.610999 
0.338565 0.723252 -0.043487 0.696599 0.535499 -0.427924 
0.280968 -0.249842 -0.190679 0.563974 -0.226059 -0.775193 
-0.290783 0.584049 0.321655 -0.329061 -0.163893 0.882426 
0.582615 -0.132470 0.197657 0.749353 -0.075693 -0.648651 
-2.443609 0.353064 1.550374 -0.673554 0.138233 -0.722231 
0.626350 0.540287 0.380791 -0.538014 0.384473 0.741020 
0.329026 0.265535 -0.199307 0.754610 -0.022365 -0.647281 
1.611501 0.435996 1.145865 -0.617839 -0.182070 0.718127 
-2.670486 -0.205724 1.976375 -0.610766 -0.449847 -0.626114 
-2.193960 0.016576 1.453667 0.429729 0.125905 0.885873 
-0.173795 -0.528905 -0.128275 -0.143038 -0.492446 -0.835043 
0.915198 0.448730 0.580148 0.531886 0.362171 -0.750340 
-0.323321 0.455120 0.272410 -0.061189 -0.182973 0.979075 
-1.894074 -0.037349 1.281602 -0.611603 -0.109697 -0.774515 
-2.848859 0.337689 1.885900 0.791953 0.092165 0.576823 
1.080885 -0.237205 0.709356 0.694486 -0.119485 -0.701361 
2.215203 -0.169919 2.545731 0.935308 -0.314913 0.007571 
0.067017 0.086076 -0.370688 0.495046 -0.039093 -0.854292 
-0.105991 0.014201 0.220975 -0.157859 -0.152518 0.971032 
-1.230302 0.315934 0.857727 -0.673734 -0.278472 -0.679351 
-0.586790 -0.977119 0.314511 0.468831 -0.068914 0.817132 
0.010583 -0.973058 0.027636 0.494280 -0.254112 -0.807160 
0.018221 -0.118998 0.222055 0.105176 -0.065918 0.985768 
1.393668 -0.427088 0.953969 0.709407 -0.220513 -0.665060 
-1.483415 -0.951830 1.577299 0.495070 0.506272 0.694802 
0.000302 -0.609739 -0.119948 0.753096 -0.294858 -0.580747 
-1.656682 -0.284476 1.261641 0.641738 0.230333 0.713937 
0.313181 -0.060446 -0.158784 0.655862 -0.161748 -0.700438 
0.572049 -0.964985 0.313793 -0.380831 -0.015352 0.877713 
1.971031 0.182860 1.507670 0.805782 -0.074720 -0.563785 
0.828000 -0.087535 0.507487 0.702290 -0.078514 -0.704131 
-1.631215 0.263477 1.198899 -0.522303 -0.301976 -0.782401 
-1.293597 -0.154672 0.985055 0.589592 0.112532 0.770253 
-2.044243 -0.583938 1.615165 -0.576185 -0.436331 -0.686119 
-0.023454 -0.247196 -0.310916 -0.371861 -0.297162 -0.849843 
2.006588 0.370519 1.575731 -0.728393 -0.082184 0.617868 
-1.070610 -0.212044 0.754273 -0.682906 -0.156372 -0.699997 
-1.542299 -0.589923 1.372563 0.647997 0.403569 0.629978 
-1.228446 -0.702528 1.094405 0.689722 0.285618 0.642334 
-2.385227 0.456389 1.593487 0.483640 0.048715 0.811902 
-2.576638 0.543373 1.618249 -0.593048 0.003070 -0.804117 
0.622559 0.320113 0.214701 0.806756 0.014865 -0.572702 
-1.951125 -0.859006 1.755248 -0.467095 -0.487305 -0.731865 
-1.439786 0.689086 1.100588 0.643364 0.180781 0.709808 
0.529890 0.416247 0.399748 -0.585794 0.089641 0.795054 
0.516458 -0.294951 0.183981 -0.242575 -0.061284 0.912384 
-0.849976 -0.617411 0.552890 -0.747348 -0.019007 -0.659491 
-2.159382 0.513483 1.457627 0.321174 0.102443 0.908888 
1.437785 0.557148 1.022243 -0.552558 -0.269767 0.769229 
-1.650676 -0.152942 1.234797 0.625452 0.135545 0.745571 
1.708846 0.043406 1.226548 -0.802670 0.005340 0.496976 
-1.707366 1.057034 1.252071 0.297184 0.289956 -0.755282 
-2.932876 -0.027068 2.282458 -0.852207 -0.278607 -0.434137 
-1.916276 -0.259701 1.404163 0.079809 0.278849 0.930973 
-0.077486 -0.231829 0.214947 -0.163693 -0.026931 0.980339 
-0.546512 0.642617 0.314920 -0.756333 0.472284 -0.382315 
-2.287177 -0.166495 1.537158 0.527305 0.264157 0.795219 
-0.321864 -0.283406 -0.119630 -0.661337 -0.196585 -0.695059 
1.917832 -0.420167 1.703885 -0.648941 0.407098 0.560233 
0.401142 0.311706 -0.048495 0.829316 -0.015775 -0.539895 
-0.388098 0.606115 0.219563 -0.291788 0.257407 0.809765 
2.135683 -0.266151 2.040444 -0.893388 0.305327 0.210631 
1.723539 -0.041442 1.203469 0.621184 -0.218739 -0.742835 
1.843386 -0.439570 1.600834 -0.523210 0.418938 0.677357 
2.016555 -0.451805 1.923889 -0.825239 0.410889 0.346508 
-1.813932 0.502778 1.301671 0.246749 -0.250422 0.892058 
-0.401839 0.688599 0.198931 -0.483936 0.474423 0.651771 
0.257260 1.029923 0.089335 0.888708 0.373436 -0.213284 
0.034880 -0.331228 -0.287199 0.352487 -0.352194 -0.846864 
-0.459954 -0.574504 0.139426 -0.648146 -0.145437 -0.724683 
-2.474367 -0.044123 1.634093 -0.497986 -0.388545 -0.764497 
1.460055 -0.453478 1.005000 0.712043 -0.241793 -0.657840 
0.955668 -0.423702 0.653454 -0.681537 0.048680 0.722232 
1.222619 -0.098929 0.812079 0.695132 -0.187582 -0.686051 
-1.640429 0.570655 1.239633 0.518372 -0.227749 0.797706 
-0.095208 0.303577 0.304341 -0.117323 -0.294588 0.940408 
-0.359553 0.173327 -0.106594 -0.779688 -0.087550 -0.595559 
1.781297 -0.275761 1.419589 -0.616610 0.296408 0.650650 
1.444996 0.311841 0.972014 0.679400 -0.263823 -0.683856 
1.496098 -0.455458 1.072437 0.714282 -0.296327 -0.616649 
2.310650 0.082938 2.144010 -0.941576 0.239062 0.146350 
1.747250 -0.632704 1.696439 -0.603593 0.484175 0.555034 
0.745371 0.214479 0.392011 0.746762 -0.140607 -0.644547 
1.739445 0.454290 1.202564 0.621178 -0.246902 -0.738018 
-2.555196 -0.152169 1.778862 0.743809 0.200658 0.597425 
0.423838 -0.821538 0.212887 -0.235780 0.054720 0.936200 
1.420924 -0.517613 0.988266 0.714581 -0.245372 -0.651308 
1.562624 0.769831 1.101569 -0.598289 0.649070 0.399830 
0.130342 0.231967 -0.351892 0.582271 0.011875 -0.795534 
0.508486 0.253470 0.303554 -0.501287 -0.241569 0.826022 
-0.379156 -0.234535 0.066667 0.043200 -0.117502 0.970237 
-2.526228 -0.418386 1.938517 -0.605063 -0.445068 -0.641015 
1.027274 0.391601 0.646632 0.700384 -0.196395 -0.680016 
0.102222 1.192461 0.325893 -0.302235 0.595034 0.707387 
-0.359712 0.776747 0.161602 -0.886865 0.404139 0.096558 
-1.709518 0.762129 1.212422 -0.734056 -0.187755 -0.647536 
-0.109590 0.129334 0.237707 -0.138362 -0.216106 0.961672 
-2.101067 -0.233780 1.464864 0.294115 0.291024 0.868251 
1.274824 -0.663061 0.894523 -0.721543 0.184537 0.666278 
1.840400 0.141016 1.289859 0.876540 -0.127018 -0.456485 
-1.091095 0.498511 0.694355 -0.563161 0.186576 -0.798166 
-0.525693 -0.319236 0.134449 -0.755107 -0.103119 -0.646371 
0.829963 0.277104 0.460568 0.758123 -0.010046 -0.650925 
-2.972469 0.381354 2.133140 0.740872 0.330319 0.528350 
1.754980 -0.018166 1.268967 -0.875074 0.026385 0.399435 
-0.811432 -0.367632 0.516396 -0.726368 -0.064163 -0.678006 
0.228014 -0.360969 0.175019 0.431013 -0.057569 0.863317 
1.228902 -0.456890 0.851861 -0.701769 0.139773 0.689057 
1.439190 -0.796411 1.431249 -0.767858 0.521867 0.334038 
0.245669 0.964515 0.021729 0.763353 0.289433 -0.487463 
0.337275 -0.702967 0.020038 0.592939 -0.184631 -0.758576 
-0.113798 -0.599978 0.157411 -0.232353 -0.171091 0.957214 
-2.926952 0.190725 2.112188 -0.836686 -0.218777 -0.489928 
-1.586326 0.506498 1.205537 0.513804 -0.193585 0.802052 
1.233380 -0.352133 0.829744 0.702497 -0.167807 -0.683204 
1.174141 -0.422480 0.810808 -0.695448 0.117441 0.698086 
1.164583 -0.849883 0.933211 0.729088 -0.326426 -0.555863 
-2.637222 0.453083 1.718707 0.591257 0.130258 0.759329 
1.660962 0.780452 1.223095 -0.686682 0.114933 0.690187 
-1.798541 -0.619144 1.532019 0.098717 0.405786 0.874357 
-0.316723 -0.692074 -0.015084 -0.583096 -0.196358 -0.766260 
1.863151 -0.688427 1.927161 -0.766048 0.509488 0.361971 
-0.449746 -0.475483 0.083412 -0.699814 -0.129731 -0.686006 
-0.435572 -0.049231 0.161038 0.294478 -0.158072 0.895430 
-2.760200 0.027493 1.948532 0.660969 0.400583 0.610781 
-0.353798 0.091030 -0.100137 -0.754035 -0.120905 -0.611135 
-1.838938 -0.317906 1.404997 0.377017 0.295098 0.838457 
-2.245312 -0.030685 1.485107 0.461791 0.181092 0.859638 
0.668426 -0.060962 0.308104 0.745143 -0.057722 -0.653632 
1.135142 0.106026 0.787005 -0.573666 -0.089876 0.777810 
-0.296408 -0.627429 0.099687 -0.282057 -0.075470 0.909173 
-1.659095 0.320069 1.242602 0.564237 -0.106081 0.774774 
-0.252478 0.775803 -0.116634 -0.560830 0.508457 -0.647181 
0.805455 -0.402788 0.524164 -0.624974 -0.027487 0.768630 
2.327717 0.190602 2.814184 0.963344 -0.228704 0.081857 
-0.511010 0.414321 0.075161 -0.846894 0.099114 -0.496382 
1.309186 -0.665329 0.969823 0.721227 -0.286805 -0.604588 
1.658853 -0.463062 1.345381 -0.864784 0.385308 0.245704 
-2.640766 0.376201 1.749535 0.642163 0.132666 0.704160 
-0.232629 -1.097302 0.141943 0.177240 0.165419 0.963017 
-0.556866 0.523797 0.146881 -0.819140 0.288113 -0.466301 
-2.236856 0.554852 1.536772 0.418292 0.026030 0.832934 
2.212784 0.542464 1.821289 0.908634 -0.018996 -0.415086 
-1.062723 0.416724 0.698736 -0.715900 -0.249092 -0.650591 
-2.066587 0.114923 1.391743 0.353163 0.027292 0.921717 
0.316652 -0.777101 0.024955 0.557797 -0.201265 -0.781846 
-1.803659 0.757590 1.258517 -0.476487 -0.221523 -0.839584 
1.409482 -0.589406 1.119921 -0.729468 0.362961 0.536180 
2.064335 -0.458097 2.412837 -0.864867 0.452772 0.136826 
-1.792490 -0.398899 1.384209 0.719394 0.343469 0.597800 
-1.616577 -0.782571 1.534444 -0.377504 -0.493554 -0.759102 
-1.135525 0.610401 0.803846 0.665248 0.333063 0.624383 
0.526890 0.531824 0.080706 0.856880 0.220415 -0.460519 
-0.240905 -0.396657 -0.189719 -0.505715 -0.290261 -0.806557 
-2.310150 -0.301606 1.613907 -0.521599 -0.354050 -0.767975 
-0.311821 -0.206329 -0.129518 -0.631588 -0.220645 -0.708643 
-2.863552 0.282270 1.932335 -0.793492 -0.199791 -0.568004 
0.256548 -0.337485 -0.193809 0.521678 -0.259158 -0.802618 
-0.019532 0.287681 -0.414911 -0.498934 0.074341 -0.855604 
1.324001 0.490651 0.936890 -0.530125 -0.248700 0.790148 
-1.388486 0.142400 1.014432 -0.622423 -0.290326 -0.720798 
0.565344 -1.034506 0.267431 -0.451144 -0.182319 0.857466 
2.082700 -0.355626 1.979376 0.802230 -0.473666 -0.345945 
0.229677 1.103681 0.113670 0.879431 0.414153 -0.155086 
-1.248890 -0.873351 1.352704 0.618682 0.474610 0.614085 
0.511148 0.632550 0.274195 0.773857 0.526829 -0.336708 
-0.117945 0.556697 0.382001 -0.205061 -0.253458 0.941475 
-1.241946 -0.432595 0.981643 0.657016 0.193811 0.710551 
2.083089 0.473253 1.630448 0.793484 -0.195228 -0.552130 
-0.367363 -0.615712 0.022413 -0.648522 -0.155427 -0.721319 
0.410471 0.162043 -0.022808 0.826625 -0.076741 -0.552827 
0.120407 1.232947 0.010253 0.706502 0.466694 -0.501748 
1.641426 0.199870 1.165312 -0.681546 -0.059058 0.654906 
-0.740131 0.135018 0.399675 -0.758359 -0.125935 -0.634186 
2.004259 -0.122310 1.602558 -0.771610 0.241708 0.563378 
-1.207471 -0.665704 1.010739 -0.709926 -0.262962 -0.637280 
-2.775464 0.110016 1.910090 0.682943 0.338897 0.620332 
-0.744569 -0.925238 0.448163 0.636896 -0.075873 0.724109 
-2.668112 0.322037 1.709772 -0.690281 -0.045063 -0.694277 
-0.251819 0.876702 -0.028551 -0.713075 0.371578 -0.559230 
-0.172981 -1.170461 0.123456 0.547777 -0.012343 0.594477 
1.403846 -0.923718 1.555214 0.686851 -0.587118 -0.420365 
-1.243024 -0.126783 0.906611 -0.646632 -0.227598 -0.715272 
0.288443 0.784370 -0.048685 0.652948 0.492444 -0.526993 
-1.837095 -0.255507 1.371008 0.582061 0.226265 0.721913 
-0.561632 -0.908303 0.313155 0.420813 0.004629 0.838328 
-1.638274 0.182511 1.202676 -0.494137 -0.290792 -0.796420 
-2.612788 -0.125941 1.836923 0.773167 0.193630 0.570242 
-2.179654 -0.451919 1.618942 0.391432 0.367397 0.798123 
1.646182 -0.724709 1.658908 0.765340 -0.529329 -0.338953 
0.226094 0.883150 -0.064849 0.653325 0.367958 -0.655501 
0.324338 -0.637564 -0.026018 0.606210 -0.190519 -0.747741 
-0.189007 1.020819 -0.044645 -0.627031 0.266560 -0.729826 
-0.126780 1.128656 0.191093 -0.833756 0.017840 0.522481 
0.674835 -0.663091 0.412234 -0.486714 -0.006531 0.829373 
-1.802006 0.650041 1.296135 0.262871 -0.354687 0.870531 
0.331734 0.825189 0.129695 0.874001 0.410325 -0.046427 
-1.942731 -0.522064 1.537390 0.111141 0.387843 0.866975 
0.842142 -0.130401 0.564652 -0.636508 -0.053532 0.763961 
0.879060 0.305998 0.503950 0.732432 -0.005771 -0.672490 
-0.333946 -0.064420 0.141571 -0.249522 -0.194553 0.902502 
1.607006 -0.343678 1.126359 0.688562 -0.283834 -0.660977 
-0.353327 0.702986 0.258457 -0.723510 0.346892 0.476388 
-0.722659 0.481675 0.468813 0.581521 0.317496 0.730610 
-0.526330 -0.644316 0.286566 0.361140 0.033185 0.872335 
0.277386 -0.709091 -0.041515 0.422861 -0.286690 -0.839533 
-0.503763 0.553326 0.051071 -0.842897 0.245916 -0.464059 
1.375515 0.661900 0.933575 0.287890 0.525228 -0.715237 
0.979243 -0.010658 0.629159 0.687231 -0.124280 -0.708315 
-0.160584 0.968214 0.365968 -0.315289 -0.003578 0.922080 
1.921121 0.659118 1.533724 -0.681147 -0.031446 0.647787 
-0.409090 -0.834524 0.186294 0.232331 0.048042 0.936942 
1.933196 -0.321786 1.594410 0.847837 -0.379433 -0.346007 
-2.825776 -0.329546 2.315191 0.793391 0.361551 0.486926 
0.231966 1.086404 0.200585 0.867771 0.466259 0.083025 
0.009355 -0.838351 0.147944 0.488551 -0.067231 0.859949 
0.561722 0.096212 0.336699 -0.519474 -0.179130 0.814793 
-1.961079 -0.061413 1.334464 -0.678942 -0.101419 -0.717354 
1.023895 -0.867399 0.700406 0.699980 -0.120284 -0.693303 
0.306275 0.890937 0.159467 0.908221 0.295776 0.060501 
-1.433261 -0.849719 1.482668 0.571469 0.490409 0.644467 
-1.680361 -0.458586 1.362242 0.681053 0.356656 0.625598 
-1.725563 -0.394974 1.345546 0.686834 0.330365 0.634798 
2.236398 -0.120410 2.283394 0.813579 -0.501677 -0.245477 
0.232906 -0.890088 0.030874 0.099196 -0.353586 -0.924282 
0.191393 0.119563 0.217866 0.174918 -0.218144 0.959252 
-2.112109 -0.774982 1.777883 -0.506263 -0.472934 -0.716440 
0.450571 0.649480 0.221780 -0.028362 0.492404 0.731295 
0.057502 0.276542 0.292363 0.061440 -0.297101 0.945446 
2.054382 -0.460835 2.186936 -0.857495 0.422554 0.205405 
-2.589610 -0.199099 1.852035 -0.548980 -0.472249 -0.677892 
0.482510 -0.398987 0.127320 -0.155411 -0.035551 0.944659 
-0.801288 -0.213886 0.538577 0.689196 0.000501 0.713465 
-1.564737 0.728733 1.196407 0.590549 -0.022548 0.776499 
-1.070926 -0.145190 0.783236 0.638474 0.043679 0.743891 
-0.845329 -0.248830 0.586989 0.710267 0.022840 0.700514 
0.266628 0.318529 0.261740 0.143539 -0.251141 0.953136 
1.422106 -0.972629 1.662363 0.681297 -0.599594 -0.418785 
-2.950265 0.270893 2.126865 0.887521 0.050423 0.428339 
-1.193813 0.163112 0.887122 0.550513 -0.069497 0.796400 
1.892212 -0.326369 1.528308 0.855510 -0.386789 -0.321053 
-1.759445 0.167130 1.237031 -0.299418 -0.233432 -0.886256 
0.190650 -0.959346 0.068545 0.035163 -0.333867 -0.940564 
0.085150 -0.241356 0.213793 0.173422 -0.022372 0.978931 
0.485640 -0.750476 0.268800 -0.304508 0.045163 0.907376 
-0.770757 0.381497 0.513491 0.584603 0.365682 0.716052 
1.705147 -0.604422 1.583038 0.803954 -0.493891 -0.302889 
1.198378 -0.700098 0.835453 0.718722 -0.199347 -0.664097 
0.779055 0.630607 0.497821 0.617430 0.127951 -0.749514 
0.403416 0.062850 0.161694 -0.261158 -0.202871 0.899898 
0.296327 0.011720 -0.216821 0.647175 -0.116137 -0.727497 
-0.152097 0.216202 -0.336203 -0.594298 0.000426 -0.785433 
0.735317 -0.068345 0.392124 0.728537 -0.062944 -0.673296 
-0.028135 0.005850 0.224234 -0.097025 -0.134958 0.982247 
1.888049 0.264212 1.402536 0.844760 -0.156051 -0.453330 
-2.426011 -0.202930 1.684808 0.640943 0.246339 0.685781 
1.262225 0.708886 0.870247 -0.612513 0.307674 0.636110 
-0.477074 0.360811 0.321746 0.543213 -0.081375 0.808093 
-1.546276 -0.711225 1.447905 -0.399991 -0.490587 -0.738767 
1.306053 0.221430 0.915657 -0.562643 -0.106106 0.771181 
-0.143816 -0.295166 0.208488 -0.224809 -0.013387 0.972404 
2.113878 0.584742 1.794298 -0.774344 0.056091 0.528855 
0.515123 -0.274686 0.110572 0.739154 -0.096697 -0.661584 
0.339491 -1.165365 0.168807 0.124360 0.050872 0.791940 
-1.772811 -0.776975 1.619591 0.225331 0.442573 0.829133 
1.088271 0.526535 0.699980 0.473492 0.323199 -0.810513 
0.488802 0.076899 0.077634 0.799143 -0.072358 -0.586853 
2.291488 0.046974 2.076311 0.777072 -0.488001 -0.377628 
-1.353598 -0.038280 1.001598 -0.625339 -0.278167 -0.722210 
1.760651 -0.164245 1.301226 -0.907020 0.127772 0.325442 
-1.194225 -0.767833 1.110040 0.696769 0.309006 0.622358 
0.729991 -0.024466 0.477008 -0.600783 -0.106232 0.780653 
0.150741 -0.716075 0.137340 0.086792 -0.111825 0.956511 
-0.511408 -0.140392 0.113055 -0.780968 -0.092383 -0.612780 
-2.726093 -0.415826 2.230334 0.747380 0.381824 0.529983 
1.629389 0.011489 1.151926 -0.709749 0.038907 0.633039 
-0.027169 0.180493 0.261421 -0.054651 -0.238072 0.963294 
0.448431 -0.456507 0.066681 0.688876 -0.129355 -0.698387 
0.902340 0.634058 0.590907 0.580974 0.126323 -0.797969 
2.402067 0.307184 2.280880 -0.964163 0.153551 0.164081 
-0.931668 0.029656 0.652980 0.636191 -0.080827 0.747855 
-1.328961 -0.699354 1.289082 0.608946 0.399384 0.664884 
-0.298611 -0.349385 0.146649 -0.620582 -0.106555 0.750602 
-2.989288 0.275756 2.202421 -0.866374 -0.183161 -0.451213 
-1.652318 0.458814 1.200491 -0.529994 -0.311380 -0.776322 
-0.332088 -0.103816 -0.109122 -0.685797 -0.183483 -0.663974 
-0.557125 -0.367241 0.233273 0.295694 -0.024061 0.879606 
0.405028 -0.772905 0.151383 0.534292 -0.189593 -0.804038 
0.493922 -0.211623 0.083487 0.752881 -0.094685 -0.644531 
-2.385407 -0.455272 1.771767 -0.534522 -0.455058 -0.709291 
0.334800 0.773394 0.023947 0.781569 0.478498 -0.337063 
-1.207661 -0.277741 0.910196 0.633106 0.147064 0.744736 
0.140042 0.671865 0.383385 0.133018 0.170039 0.967658 
2.380536 0.366694 2.186125 0.948246 -0.131682 -0.231730 
1.626712 -0.577027 1.443492 -0.848309 0.442009 0.232262 
-0.245857 1.058272 0.082201 -0.879788 0.383756 -0.232913 
0.979501 0.656499 0.652773 -0.622158 0.083703 0.776195 
0.381641 -0.338464 -0.061112 0.753160 -0.120858 -0.644537 
-2.128780 0.736896 1.414072 -0.548108 0.055570 -0.831005 
2.092588 -0.221568 1.834615 -0.850905 0.305803 0.374339 
0.739720 -0.173177 0.399435 0.714675 -0.056508 -0.691405 
0.073685 0.547711 0.383926 0.136433 -0.264605 0.949465 
0.226193 -0.715977 0.120118 0.187118 -0.076863 0.906768 
2.329665 0.097876 2.395560 -0.911653 0.337191 0.136861 
1.678977 -0.533328 1.472853 -0.863118 0.425801 0.212802 
2.228122 0.242937 1.852190 -0.826403 0.118917 0.548455 
-0.339491 0.010600 -0.114393 -0.715803 -0.147102 -0.643200 
0.738383 0.550307 0.469424 -0.583583 0.225393 0.756180 
-0.369771 -0.041497 -0.071418 -0.789486 -0.108724 -0.589496 
-0.829142 -0.722080 0.524020 -0.740936 0.004936 -0.666542 
0.603181 0.337794 0.427383 -0.555276 -0.047625 0.813693 
2.296701 0.007264 2.440249 0.968614 -0.204621 0.028019 
1.061998 -0.817938 0.742131 -0.714035 0.126525 0.682870 
2.263869 -0.044631 2.134165 -0.963248 0.184427 0.086682 
-0.954334 -0.867993 0.747878 0.766499 0.084192 0.616670 
-2.739798 -0.341862 2.191857 0.768134 0.342579 0.522882 
-0.464860 -0.938881 0.228892 -0.547149 -0.151645 -0.799262 
-2.292682 -0.241165 1.563611 -0.516625 -0.322774 -0.786734 
1.822696 0.021354 1.291130 0.557635 -0.179043 -0.807951 
1.963251 -0.429935 1.789528 -0.734496 0.408881 0.471954 
-0.065825 0.153515 -0.380706 -0.514472 -0.009507 -0.844518 
-1.129013 0.683323 0.789247 0.630866 0.173259 0.713953 
1.772934 -0.735731 1.860553 -0.735491 0.520788 0.393429 
-2.910987 0.002251 2.221781 -0.845415 -0.262855 -0.452126 
0.534983 -0.142879 0.136424 0.756292 -0.083327 -0.640148 
1.496196 -0.394965 1.026213 0.709930 -0.244766 -0.658524 
-0.203104 -1.368684 0.187105 0.733345 -0.446177 0.322582 
-0.139893 0.487506 -0.298526 -0.523944 0.218239 -0.808056 
-0.880696 0.471714 0.601354 0.631669 0.292154 0.700253 
2.009737 0.214980 1.557242 0.781256 -0.118794 -0.585655 
0.714805 -0.862469 0.423993 0.598981 -0.036877 -0.784034 
0.194933 1.258662 0.321180 0.847084 -0.466251 -0.197614 
1.653593 -0.132629 1.172912 -0.773490 0.106530 0.555988 
-1.565274 0.014872 1.210413 0.552382 0.074045 0.784447 
1.551365 0.085754 1.091293 -0.649895 -0.001324 0.702064 
-0.304439 0.763028 0.298921 -0.642596 0.312101 0.644872 
-2.447914 -0.463082 1.859993 -0.569028 -0.456574 -0.673517 
1.156355 0.225075 0.806110 -0.540626 -0.138724 0.795414 
-0.487000 -0.620719 0.197857 -0.618997 -0.151972 -0.747212 
1.742977 1.089931 1.245761 0.587664 0.255137 -0.608004 
0.010181 1.085693 0.382729 0.085496 0.310976 0.917217 
-0.889942 0.187054 0.621147 0.598971 -0.151665 0.776083 
-0.833149 0.616678 0.549197 -0.598913 0.119340 -0.783939 
-1.203695 -0.872749 1.262539 -0.648798 -0.440521 -0.599139 
-0.389763 0.717990 0.127219 -0.681560 0.717420 -0.089691 
-2.487927 -0.551130 1.991176 0.638541 0.409744 0.629846 
0.663548 0.263807 0.269862 0.789014 -0.042612 -0.606861 
-1.666846 0.396178 1.245823 0.558103 -0.146712 0.777410 
-0.100506 0.086199 -0.349606 -0.523390 -0.044870 -0.832964 
0.564551 -0.205474 0.174261 0.741133 -0.084107 -0.658961 
-0.833142 0.529023 0.540971 -0.593334 0.217738 -0.753824 
0.383635 0.670748 -0.065703 0.650020 0.530218 -0.477766 
-0.080559 1.306603 0.131479 -0.435988 0.811583 0.353769 
-0.746663 -0.459909 0.462933 -0.692671 -0.082951 -0.700865 
-0.343810 -0.952726 0.128581 -0.485840 -0.210959 -0.841240 
-0.551317 0.286817 0.354373 0.518869 -0.205059 0.823709 
2.035809 -0.487853 2.032300 0.796462 -0.516423 -0.312987 
0.814646 0.313398 0.576954 -0.575746 0.044810 0.791782 
0.264838 0.873419 -0.005999 0.749161 0.369842 -0.500603 
-3.030667 0.128833 2.420500 -0.890785 -0.221849 -0.383953 
-0.249512 -0.315820 -0.199877 -0.533452 -0.244791 -0.798198 
1.876680 0.359584 1.414263 -0.676511 -0.147067 0.665053 
0.395785 0.452297 -0.100120 0.751023 0.115308 -0.617603 
-0.734258 0.170122 0.494015 0.591118 -0.164707 0.782380 
0.824890 0.017355 0.498996 0.710881 -0.105790 -0.691353 
1.795120 -0.127787 1.382027 -0.847729 0.157287 0.460579 
-2.294674 0.534303 1.574270 0.457143 0.045709 0.804978 
1.717156 -0.407107 1.368497 -0.881976 0.363394 0.225955 
-0.400663 -0.545487 0.072949 0.090746 -0.021990 0.973897 
2.294394 0.018729 2.627772 0.952564 -0.276384 0.037194 
0.323819 0.584693 0.308928 0.370663 -0.144826 0.860724 
0.155330 -0.252193 0.207007 0.240198 -0.037541 0.961699 
-2.936657 0.339376 2.020287 -0.838285 -0.171737 -0.511545 
1.616382 0.350203 1.101027 0.672256 -0.272731 -0.687170 
2.099304 -0.358198 2.056632 -0.878218 0.349494 0.215881 
0.669399 0.419339 0.263001 0.796808 0.150325 -0.551931 
-0.170459 0.397643 0.335108 -0.215118 -0.282861 0.933268 
1.090584 0.534879 0.782704 -0.655317 0.211043 0.705415 
-2.396070 0.531132 1.527648 -0.591640 -0.020596 -0.802863 
-2.582202 0.348375 1.688907 0.588021 0.092896 0.758060 
2.042723 -0.045082 1.633075 -0.802836 0.175460 0.551466 
-0.492113 -0.385229 0.146995 0.186023 -0.036371 0.924771 
2.342208 0.121285 2.202353 -0.873914 0.398734 0.245517 
0.591090 -0.058137 0.208735 0.759509 -0.068542 -0.635959 
0.333912 -0.862401 0.089669 0.509186 -0.212986 -0.817105 
-0.293923 -0.151485 0.161855 -0.452894 -0.168826 0.821666 
-1.086908 0.187199 0.789760 0.570182 -0.111973 0.786109 
0.426325 0.678890 0.002917 0.711079 0.610774 -0.321104 
1.048313 -0.439044 0.720918 -0.688730 0.080167 0.710632 
1.916678 0.592137 1.444835 0.756842 -0.387987 -0.507002 
-0.190692 -0.452538 -0.179709 -0.404220 -0.386612 -0.811937 
-0.929357 -0.114904 0.654344 0.664835 -0.011792 0.730068 
-0.942967 -0.452883 0.707851 -0.747310 -0.147658 -0.637617 
-1.956798 -0.386551 1.446344 -0.609754 -0.384243 -0.687325 
1.377228 0.526048 0.976946 -0.540021 -0.260865 0.780732 
-0.120964 1.001403 -0.075588 -0.509207 0.302418 -0.783541 
-2.161964 -0.181644 1.473061 0.393933 0.269054 0.853449 
-2.775548 -0.161618 2.109310 0.713260 0.391273 0.562395 
-0.160180 -0.844341 0.005615 -0.005749 -0.367786 -0.927288 
1.736828 0.320192 1.255839 -0.774227 -0.140855 0.510516 
-2.101264 0.602405 1.447327 0.325630 -0.020986 0.900598 
-2.150403 -0.641772 1.706686 -0.558793 -0.448187 -0.694361 
1.476293 -0.324773 1.005424 0.706158 -0.231525 -0.664499 
0.006947 0.787339 -0.210369 0.386917 0.356196 -0.848473 
2.169370 -0.267499 2.639451 0.914941 -0.385609 0.002768 
1.475747 -0.555402 1.169685 0.701125 -0.408171 -0.544960 
1.922468 0.296000 1.466067 -0.711196 -0.100540 0.646858 
0.319266 -1.082019 0.138950 -0.020670 0.063943 0.906687 
-1.375310 -0.653692 1.322478 0.585775 0.409093 0.683746 
-2.808303 0.289517 1.844218 -0.756278 -0.197908 -0.619313 
1.719890 -0.452196 1.459559 -0.746440 0.420434 0.449275 
1.861443 -0.494714 1.667485 0.839590 -0.462245 -0.275517 
1.074027 0.309894 0.748350 -0.513914 -0.199529 0.817556 
-1.880435 0.723791 1.302159 -0.613927 -0.073636 -0.781143 
1.857184 -0.110074 1.342927 0.872746 -0.179674 -0.429569 
-0.361117 0.615107 -0.129599 -0.631285 0.328495 -0.676517 
0.290545 0.315358 -0.253974 0.708525 0.028808 -0.694676 
-0.688571 -0.752603 0.411114 -0.665408 -0.064438 -0.718486 
-0.543826 -0.225619 0.156694 -0.766166 -0.095702 -0.632172 
-1.719576 0.962812 1.241786 -0.412286 0.122570 -0.787327 
0.046039 0.620310 0.398284 0.047987 0.211862 0.973555 
-0.526173 0.127369 0.127731 -0.813735 -0.078123 -0.569838 
2.126045 0.367829 1.726743 -0.770604 -0.005752 0.580378 
1.546532 0.007520 1.052910 0.692022 -0.264632 -0.670728 
-0.558501 -1.028399 0.261975 -0.531526 0.133161 -0.805806 
2.268675 -0.024561 2.807783 -0.946054 0.304978 -0.075684 
-0.920483 -0.690156 0.687357 -0.760451 -0.103374 -0.626610 
0.564603 0.181601 0.170122 0.792753 -0.091491 -0.592327 
-0.009243 0.671272 -0.269306 -0.317708 0.476115 -0.816158 
-0.059142 0.599479 0.397814 -0.130819 -0.253546 0.952722 
-0.921368 -0.873047 0.683618 -0.763861 -0.070279 -0.623845 
-0.305127 0.720940 -0.117793 -0.594012 0.559950 -0.564871 
-1.975691 0.203163 1.360157 0.305233 -0.035189 0.919230 
0.155406 0.590014 0.381504 0.234712 -0.232141 0.942012 
-0.984130 -0.307180 0.696816 -0.711612 -0.132812 -0.678048 
2.207054 0.084460 1.876429 -0.861589 0.178784 0.423198 
0.284978 -0.598135 -0.084884 0.510702 -0.268255 -0.808693 
0.197362 0.574010 -0.239374 0.506925 0.296445 -0.780047 
1.325318 -0.680099 1.042072 0.724314 -0.357263 -0.547246 
-2.018515 0.664393 1.366685 -0.647747 -0.011992 -0.755329 
0.283948 -0.323752 0.152629 0.576269 -0.103398 0.771903 
1.580533 0.440586 1.072698 0.668679 -0.272213 -0.691018 
0.930637 -0.372347 0.609696 0.697320 -0.087376 -0.707229 
-0.485292 -0.720121 0.236764 -0.569830 -0.168165 -0.783635 
0.063792 0.194559 -0.387939 0.522198 0.008645 -0.840628 
0.713376 0.370390 0.314946 0.795435 0.073855 -0.579543 
0.111549 0.487894 0.365928 0.174538 -0.273352 0.941736 
0.091691 -1.056000 0.061687 0.209404 -0.286957 -0.933327 
1.824524 0.009457 1.372330 -0.663327 0.112565 0.717590 
-0.819664 0.349637 0.555900 0.595279 0.390446 0.700998 
1.803334 -0.677214 1.829946 -0.700760 0.502423 0.438620 
-2.123216 -0.306993 1.510399 0.311109 0.320597 0.847111 
0.334075 0.361226 0.238624 0.075808 -0.201298 0.974420 
-0.253927 -0.947688 0.049405 -0.099331 -0.327600 -0.935590 
-0.024154 -0.908790 0.019712 -0.306356 -0.308419 -0.896382 
