-0.409053 0.023071 0.107812 0.442847 -0.153285 0.820133 
0.610388 -0.603068 0.598762 0.867768 -0.044977 -0.447063 
-1.693192 0.307217 2.905704 -0.959750 -0.254326 -0.048165 
0.827525 -0.266440 1.064393 0.929341 -0.183729 -0.287855 
1.017043 -0.246349 1.871340 -0.886304 0.353831 0.041594 
-0.949328 0.671645 1.246811 -0.907795 0.063656 -0.396118 
-1.334861 0.126499 2.034375 0.792208 0.100317 0.600332 
0.888331 -0.526515 1.276391 0.942886 -0.264130 -0.193454 
0.523400 -0.012930 0.405824 -0.759200 -0.095608 0.566311 
0.149550 0.705125 -0.250909 0.405259 0.444537 -0.780584 
0.366448 -0.348193 -0.118924 0.776550 -0.196802 -0.572309 
1.175411 0.463936 2.472313 -0.938770 0.070014 -0.001623 
-1.192301 -0.129393 1.953762 0.605069 0.291907 0.700703 
-1.523907 -0.086376 2.745847 -0.812493 -0.507435 -0.235161 
-1.292201 0.819456 1.927953 -0.878078 0.048277 -0.448058 
0.632754 -0.800081 1.597352 0.768429 -0.628014 0.059340 
0.933013 0.049640 1.356039 -0.897379 0.051726 0.315563 
-1.514561 0.102674 2.327013 -0.771263 -0.390668 -0.480593 
0.212317 0.384732 -0.312467 0.589376 0.097678 -0.779462 
0.809154 -0.679795 1.186772 -0.948662 0.238212 0.168455 
-1.622315 0.254458 3.271841 0.962138 0.189188 -0.116846 
0.882545 -0.503452 1.791090 0.783139 -0.570871 -0.173295 
-0.247185 -1.031503 0.083911 -0.446640 -0.273501 -0.818778 
-0.245089 0.245302 0.210810 -0.247611 -0.228283 0.940417 
0.733761 -0.100263 0.834513 0.929029 -0.139358 -0.322008 
-0.234275 0.982740 0.283684 -0.747609 -0.021093 0.639645 
-0.778111 -0.331113 1.198735 0.913389 0.210057 0.311237 
-0.701093 -0.308735 0.952216 0.931936 0.138315 0.299494 
0.328177 -0.598605 -0.055984 0.700784 -0.223428 -0.646212 
-0.151637 0.078299 0.200807 -0.235065 -0.167884 0.956751 
-1.429018 -0.286961 3.154877 -0.901242 -0.431783 0.006453 
-0.102303 -0.592516 -0.137856 -0.043782 -0.435985 -0.896810 
1.025866 0.244239 1.571765 -0.907270 -0.035523 0.261750 
0.958641 0.233843 1.417935 -0.889924 -0.044633 0.328569 
-0.774065 0.588433 1.088261 0.934758 0.142629 0.321337 
-0.531305 -0.102640 0.277286 -0.906867 -0.111701 -0.391812 
-1.603579 0.236075 2.503028 0.874253 0.240857 0.349384 
0.868303 -0.565666 2.469159 0.807057 -0.572516 0.139617 
0.725167 -0.843551 0.954787 -0.951140 0.134451 0.228373 
-0.587487 0.638772 0.513785 -0.901614 0.185912 -0.308091 
-0.615100 -0.181638 0.633234 0.926546 0.027558 0.345282 
0.590059 0.156721 0.407491 0.922927 -0.131680 -0.351148 
0.648495 0.638257 0.657194 0.907064 0.092079 -0.405400 
0.536953 -0.915227 0.497535 0.785276 -0.055588 -0.545615 
1.136605 -0.046552 1.830836 0.934584 -0.210324 -0.149325 
1.220889 0.237542 2.437507 -0.978499 0.169536 0.079928 
0.740543 -0.751705 1.006919 0.955290 -0.213961 -0.187503 
-0.687642 -0.649098 1.486816 0.868900 0.401100 0.214304 
0.676478 -0.532745 0.744953 0.927729 -0.072885 -0.339742 
0.901822 -0.501050 2.250767 -0.775849 0.533950 0.112129 
-0.607772 0.297225 0.378346 -0.942375 -0.027818 -0.312665 
-0.316562 0.362344 -0.270071 -0.653070 0.039084 -0.750489 
-0.814787 0.375382 1.028056 -0.926707 -0.289638 -0.230473 
-0.465236 0.667204 0.060098 -0.787317 0.560992 -0.208764 
0.241246 0.873500 -0.100993 0.646376 0.442212 -0.601576 
-1.128192 -0.412922 2.075120 0.499373 0.433493 0.688980 
-1.095867 -0.174585 1.888108 0.768096 0.290393 0.526533 
-1.576616 0.557405 2.452001 0.856197 0.151318 0.404047 
1.046916 -0.255994 2.426584 -0.883900 0.397791 -0.110600 
0.498670 0.192852 0.119006 0.902908 -0.100057 -0.412020 
0.398033 0.243751 -0.142239 0.813302 -0.073538 -0.546229 
0.306767 -0.910425 0.167796 0.587257 -0.240189 -0.742445 
-0.558290 -0.131145 0.362634 -0.915792 -0.109943 -0.372035 
0.185199 1.189647 0.181276 0.740795 -0.097732 0.521649 
-0.875143 0.078991 1.299780 -0.896772 -0.315062 -0.298048 
-0.656837 -0.878868 0.721602 -0.953798 0.018657 -0.285535 
-1.734166 0.592189 2.789021 -0.925795 0.273453 -0.020696 
1.119294 -0.016028 1.751741 0.877021 -0.209843 -0.418823 
0.447976 0.508949 -0.082005 0.796410 0.166290 -0.502669 
-0.006666 -0.787209 -0.071580 -0.571220 -0.232257 -0.750781 
0.508138 0.207890 0.385162 -0.768823 -0.183109 0.576291 
-1.359023 0.762826 2.089369 0.774884 0.086614 0.599409 
0.511573 0.090788 0.173871 0.903105 -0.082346 -0.419258 
-1.405306 -0.328691 3.047535 -0.885935 -0.444426 -0.042739 
-1.202462 -0.352500 2.104732 -0.845197 -0.433049 -0.294854 
-1.357255 -0.333765 2.420949 0.849114 0.381833 0.300786 
1.068800 0.341499 1.587260 0.912792 -0.284771 -0.280748 
0.614941 0.002994 0.506782 0.924602 -0.106445 -0.358275 
-0.705020 -0.183032 0.819266 -0.934356 -0.150983 -0.306246 
1.158477 0.076713 2.664243 -0.892778 0.185662 -0.353826 
-0.633352 0.248938 0.498907 -0.942029 -0.107972 -0.303890 
0.462076 -0.418515 0.192885 -0.437974 0.019016 0.795813 
0.737878 -0.456150 0.916160 0.939673 -0.162295 -0.269662 
0.218600 -0.850253 0.104329 -0.023923 0.041383 0.891573 
-0.889037 0.259435 1.279433 -0.898074 -0.316635 -0.291384 
0.007829 1.428157 0.048552 0.100194 0.937624 0.207886 
0.369392 0.760585 0.034701 0.846699 0.487744 -0.139710 
-0.971489 -0.735645 2.231748 0.696513 0.515495 0.450267 
0.855821 -0.458218 2.646188 0.798810 -0.545327 0.211809 
-0.089504 -0.914023 -0.039595 -0.238246 -0.246901 -0.915239 
-1.697853 0.307997 2.822949 -0.957556 -0.260319 -0.091678 
1.188729 0.477217 2.849133 -0.927734 0.136930 -0.239376 
-0.704539 0.026672 0.761655 -0.943233 -0.166128 -0.270083 
0.210843 -0.042833 -0.292224 0.536915 -0.142756 -0.808180 
-0.585807 0.261389 0.618302 0.884647 -0.104723 0.447055 
0.747145 0.090390 3.355528 -0.758060 0.308166 -0.569744 
-0.903460 -0.412235 1.694532 -0.750524 -0.439708 -0.431404 
-0.135780 0.007787 -0.344538 -0.508842 -0.106015 -0.834999 
0.282221 0.798272 -0.105927 0.627848 0.521766 -0.535571 
0.087624 -0.164571 0.194255 0.161401 -0.067424 0.978909 
-0.050757 1.364515 0.016918 -0.616933 0.667501 -0.330847 
-0.304769 -0.121903 -0.216871 -0.587501 -0.194564 -0.758972 
-1.201678 -0.467073 2.235605 -0.832240 -0.472063 -0.281108 
-0.501628 -0.948123 0.445725 -0.786978 -0.046763 -0.503895 
0.897740 0.101971 1.278489 -0.885158 0.011170 0.348259 
0.960179 -0.419325 2.459739 0.838241 -0.518978 0.112851 
0.442286 -0.136270 0.149204 -0.485832 -0.081685 0.792981 
0.772409 -0.182870 0.988009 -0.920405 0.081278 0.332688 
0.784342 -0.641496 1.365940 -0.883156 0.388882 0.070981 
-1.205310 0.439137 1.836877 -0.838672 -0.244699 -0.424241 
0.894739 -0.513966 2.512220 0.809823 -0.567139 0.146174 
0.701422 -0.712354 1.472439 -0.814199 0.543539 -0.054032 
0.136242 -1.407553 0.194620 -0.503547 -0.797815 -0.211071 
-0.745721 0.250862 0.838827 -0.939803 -0.221116 -0.242186 
-0.447572 0.175421 -0.036437 -0.888941 -0.095428 -0.444805 
0.935147 0.656028 1.203501 0.835825 0.201953 -0.455918 
-1.117976 -0.157823 1.817967 -0.587960 -0.334787 -0.713642 
1.101487 -0.137550 1.945824 0.925219 -0.259791 0.183803 
-0.480955 -0.168932 0.256957 0.574475 -0.049647 0.691084 
0.642932 -0.619803 0.662228 -0.892045 -0.037535 0.424109 
0.649904 -0.542220 0.677877 -0.912905 -0.029793 0.402532 
-0.651133 -0.721576 0.694112 0.949667 -0.039073 0.304091 
-0.383337 -0.699040 0.188704 0.401895 0.049337 0.829265 
0.161790 0.314655 0.281527 0.279254 -0.235605 0.929925 
0.745855 0.031951 0.934681 -0.888985 -0.037501 0.397722 
0.453887 0.039785 0.017557 0.880157 -0.107290 -0.456212 
-0.232467 1.049744 0.229761 -0.820656 0.445360 0.281862 
0.858168 0.317234 1.092993 0.932264 -0.266827 -0.242608 
-0.947514 -0.409433 1.786132 0.885713 0.405242 0.180603 
-1.069940 0.164473 1.663882 -0.739966 -0.291136 -0.545471 
0.357258 -0.072390 -0.140796 0.688373 -0.199565 -0.631535 
-0.106475 0.986590 0.361582 -0.198981 -0.084834 0.970779 
-1.396574 0.695733 2.083354 -0.924951 -0.072920 -0.368473 
-0.953861 0.515498 1.379042 -0.884746 -0.333013 -0.313583 
-1.406354 -0.184427 2.357884 0.862685 0.324253 0.318960 
-0.713694 -0.546442 1.147299 -0.932016 -0.256687 -0.195655 
0.767511 -0.724184 1.225124 0.909410 -0.336982 -0.107953 
0.443407 0.162348 0.214548 -0.645067 -0.186215 0.700029 
0.008942 0.305331 -0.442261 0.475660 0.076549 -0.868815 
1.047436 0.670932 1.683248 -0.841016 -0.145283 0.444319 
-1.141662 0.430773 1.706480 -0.897993 -0.192808 -0.333766 
-0.076970 0.639488 -0.310525 -0.393103 0.358808 -0.836976 
-1.702850 0.335306 2.713957 0.952613 0.208819 0.186341 
-0.437940 -0.986496 0.327602 0.564161 -0.048440 0.690212 
1.140747 0.448089 3.006821 -0.864206 0.031019 -0.462012 
-0.660845 -0.873371 1.913349 0.749937 0.562348 0.320897 
-0.942374 0.051573 1.570143 0.864305 0.121064 0.401441 
-0.841650 -0.666810 1.936135 -0.667053 -0.542392 -0.470850 
-0.336166 -0.333813 0.108479 -0.591735 -0.118760 0.760894 
1.108873 0.241827 1.702121 0.888134 -0.236817 -0.376745 
0.801987 -0.596348 1.587489 0.804082 -0.547306 -0.058668 
1.209816 0.500850 2.239350 0.993990 -0.086347 0.030666 
-0.664818 -0.666554 1.572205 0.840532 0.459553 0.226846 
-0.004243 0.081370 0.210900 -0.071574 -0.157432 0.984027 
0.632632 0.159261 0.539086 0.932761 -0.150968 -0.319601 
0.108401 0.528616 0.338730 0.228029 -0.229350 0.938708 
-0.038695 -0.667375 -0.080387 -0.221980 -0.344301 -0.906170 
-0.936819 0.759348 1.349649 0.723170 0.609955 0.030996 
-0.238472 0.947502 -0.045407 -0.726044 0.359983 -0.533893 
-0.952433 0.366200 1.424553 -0.880282 -0.334869 -0.326162 
-0.876558 0.578555 1.119414 -0.929200 -0.207754 -0.254767 
0.831980 0.000434 3.178973 0.774024 -0.326121 0.527623 
-0.858521 0.448092 1.129872 -0.914586 -0.304156 -0.252810 
0.424143 -0.062312 -0.045679 0.862776 -0.128785 -0.481961 
0.233693 1.097402 0.095693 0.878005 0.421967 -0.122763 
-0.492719 0.619581 0.015430 -0.826410 0.427945 -0.283553 
-0.491471 -0.268227 0.268590 0.551652 -0.009293 0.691657 
0.955207 0.501473 1.308023 0.923558 -0.278198 -0.261357 
0.816178 -0.586635 2.147178 -0.764363 0.559159 0.126862 
0.822573 0.663367 1.045839 0.742839 0.361374 -0.477661 
-0.106002 0.371514 -0.371115 -0.524784 0.114460 -0.822783 
-0.737241 -0.491436 1.201221 0.928621 0.229986 0.234623 
0.695328 0.311959 0.632313 0.946688 0.004205 -0.295483 
-0.145307 0.626632 -0.289555 -0.445532 0.332551 -0.815642 
-0.202012 -0.968964 0.052019 -0.187032 -0.328012 -0.921971 
-0.240813 -0.612334 0.101400 -0.332535 -0.130589 0.878459 
0.533777 0.313049 0.160536 0.921335 -0.019455 -0.360788 
1.168381 0.257274 2.853449 -0.896638 0.294260 -0.280002 
-0.012743 1.290097 0.180686 -0.144897 0.813717 0.559179 
-0.864597 -0.395288 1.628404 0.867628 0.370346 0.296016 
0.012319 -0.564226 0.174010 0.334654 -0.166022 0.909795 
0.176422 -1.102358 0.148505 -0.174238 0.243274 0.942941 
-1.023308 0.408588 1.647235 0.869868 -0.090011 0.403641 
0.146246 0.792069 -0.197112 0.488420 0.448546 -0.731515 
0.226086 0.804056 -0.161787 0.545055 0.503881 -0.661545 
-1.536590 -0.049893 2.942278 0.878192 0.438348 0.105246 
-0.850267 0.327679 1.263748 0.854969 -0.083059 0.445336 
0.325178 0.601146 -0.230900 0.581445 0.273358 -0.756136 
-0.782825 -0.215782 1.146320 0.906527 0.168711 0.351871 
0.951325 -0.435964 2.252886 -0.788456 0.506717 0.127872 
0.677721 -0.400486 0.762156 0.936314 -0.114405 -0.310284 
0.859541 -0.548435 1.347919 -0.922140 0.302481 0.146664 
-0.456434 -0.219544 0.178554 0.482964 -0.045288 0.769203 
-0.734421 -0.768410 1.899153 0.783448 0.530402 0.274785 
1.032781 -0.316808 1.923336 0.863424 -0.444671 0.207738 
1.046759 -0.306741 2.026281 0.870119 -0.449334 0.162474 
-1.555549 -0.006256 3.076995 -0.943295 -0.304948 0.055860 
-0.057265 1.176288 -0.062458 -0.469211 0.312855 -0.811597 
-0.311672 0.041809 -0.241809 -0.621523 -0.123181 -0.752902 
-0.847765 0.107659 1.207166 -0.906255 -0.298960 -0.282623 
0.879755 0.162926 1.239804 -0.876408 -0.028914 0.370599 
-0.227493 0.900751 0.288087 -0.673788 0.057541 0.718847 
-0.471277 0.158822 0.036360 -0.897216 -0.092916 -0.427058 
1.107045 -0.209057 2.324088 0.908880 -0.393823 0.036721 
-1.399029 -0.083312 2.159782 -0.836349 -0.298833 -0.451416 
-0.619477 0.345986 0.694459 0.888520 0.110249 0.388830 
-0.599277 0.009345 0.598590 0.894045 -0.064487 0.401327 
-0.947456 0.317183 1.528190 0.853508 -0.034372 0.430462 
-0.210826 -0.183160 -0.270557 -0.511389 -0.202619 -0.816476 
0.490198 -0.272837 0.194916 0.869368 -0.130855 -0.463395 
0.573713 -0.087514 0.533551 -0.849655 -0.051151 0.471421 
0.915385 -0.453250 1.653716 0.830068 -0.487382 -0.163305 
-0.270427 0.965323 0.032112 -0.848760 0.352645 -0.303698 
-0.122765 -0.493863 -0.192697 -0.230277 -0.517303 -0.820629 
-0.864127 -0.472047 1.709254 -0.739399 -0.468549 -0.414511 
0.833734 -0.605788 1.312551 0.910527 -0.337375 -0.128605 
1.150014 -0.009716 2.568863 0.867542 -0.474166 0.075507 
-0.880099 -0.597068 1.905653 -0.653373 -0.532536 -0.496546 
-1.198404 0.864726 1.805167 -0.831081 0.212976 -0.407389 
-1.054474 0.807873 1.531348 -0.777389 0.255824 -0.428036 
1.078044 0.662909 1.584794 0.913509 -0.293881 -0.279947 
1.101575 0.125814 1.855062 -0.905941 0.083075 0.354382 
1.041929 -0.168442 2.654444 0.819991 -0.556059 0.129592 
0.593261 -0.949946 0.534652 0.797663 0.125957 -0.528108 
0.446034 -0.384783 0.108151 -0.365363 0.007004 0.859409 
-0.909344 -0.040805 1.500381 0.868666 0.161467 0.395754 
-0.902262 -0.815031 2.225897 0.716780 0.533917 0.425232 
0.773953 -0.393669 0.979785 0.936248 -0.173269 -0.273178 
-0.623329 0.054647 0.656911 0.914182 -0.078608 0.380000 
0.464299 0.509688 0.332989 -0.807956 0.334538 0.468807 
-0.052865 -0.354212 -0.296371 -0.341045 -0.374327 -0.845388 
1.034356 -0.301053 2.096744 -0.793232 0.444577 0.279940 
-0.374273 0.294144 -0.190163 -0.761478 -0.032967 -0.619169 
-0.123680 1.257807 0.048174 -0.732930 0.582327 -0.179637 
0.897264 -0.167525 2.911809 0.790727 -0.509678 0.287670 
1.171070 0.201683 2.073878 0.981534 -0.054936 -0.149054 
-0.588289 -0.794685 1.539386 -0.830495 -0.505476 -0.170464 
1.192305 0.207039 2.237574 -0.980368 0.085137 0.156034 
0.358451 0.501903 -0.209423 0.660352 0.155020 -0.701692 
0.972287 0.681676 1.289287 0.889223 0.083500 -0.413335 
-0.023629 0.778201 -0.259456 -0.401401 0.377825 -0.829501 
-1.116068 0.638860 1.666735 -0.946354 -0.194916 -0.231026 
0.745704 0.554004 0.999262 -0.915958 0.185503 0.296745 
-0.523278 -0.399777 0.392511 -0.853219 -0.143841 -0.437807 
-0.310499 0.105158 0.137054 -0.249620 -0.203090 0.936185 
-1.609217 0.083304 2.644033 -0.780271 -0.535416 -0.313342 
-0.128661 -1.206316 0.072333 0.792433 0.049536 0.484044 
-0.651205 -0.786789 0.745638 0.951705 -0.016517 0.277095 
-0.800701 0.632733 0.986761 -0.781680 0.327480 -0.483671 
0.498548 0.619665 0.112618 0.865553 0.412132 -0.195114 
0.635762 -0.775187 1.997956 -0.752628 0.616334 0.094007 
0.674447 -0.609534 0.776175 -0.928184 0.035239 0.336906 
0.543225 0.538291 0.260791 0.889156 0.365475 -0.210280 
-1.124154 0.738314 1.749102 0.666174 -0.338810 0.631733 
-0.716059 0.219979 0.764985 -0.940652 -0.202519 -0.258248 
0.659057 0.409984 0.741873 -0.877832 0.328959 0.322516 
-0.850616 -0.001659 1.331835 0.869307 0.111003 0.406811 
-1.281864 -0.548520 2.561063 0.825689 0.478144 0.272496 
-0.702063 -0.406719 1.030954 0.934760 0.172126 0.259708 
0.997542 -0.333164 1.730410 -0.883095 0.361854 -0.121536 
-1.440230 0.524939 2.217137 0.794649 0.064246 0.529772 
0.169805 -1.034048 0.113430 -0.422200 0.128669 0.857746 
-0.869458 -0.269818 1.378795 -0.884409 -0.290138 -0.351568 
-0.216430 -0.874881 0.007077 -0.103316 -0.371908 -0.914789 
-0.939832 0.671777 1.433300 0.839374 -0.248176 0.471237 
-0.414978 -0.520495 0.141208 -0.787839 -0.176158 -0.540741 
-0.388501 0.360359 -0.165815 -0.762304 0.010825 -0.605306 
1.173400 0.544212 2.889690 -0.901773 0.054264 -0.289497 
-1.602925 0.079094 2.836959 -0.969278 -0.216287 0.025373 
0.146852 0.744974 0.320187 0.201462 0.046010 0.960630 
0.824003 0.223400 1.116455 -0.861785 -0.084056 0.414861 
0.859065 -0.402158 2.704043 -0.811225 0.486777 -0.253937 
1.174187 0.527040 2.609361 -0.933276 0.128101 -0.078447 
-0.544706 -0.253601 0.354949 -0.904252 -0.126507 -0.388034 
-0.458090 -0.108614 0.203389 0.544294 -0.083099 0.733650 
0.945492 -0.258111 1.335113 0.930283 -0.261502 -0.235303 
-0.171351 -0.004709 0.189899 -0.281986 -0.149359 0.933500 
0.549278 0.435293 0.137427 0.931365 0.104222 -0.312503 
-0.778446 -0.564426 1.690439 -0.757845 -0.497068 -0.349304 
-1.593670 0.488678 2.355148 -0.919622 -0.018603 -0.379275 
-0.108094 -0.179971 0.192792 -0.182598 -0.064982 0.975881 
0.949118 -0.023791 1.327256 0.931064 -0.286705 -0.223370 
1.016084 0.312398 3.118044 -0.825474 0.121719 -0.510588 
-1.485409 0.345257 2.236116 0.823511 0.074210 0.532716 
0.059206 0.761814 0.330978 0.098476 -0.052813 0.989573 
-0.770744 0.434408 0.877545 -0.937589 -0.257442 -0.224231 
-0.529762 -0.336493 0.357199 -0.880499 -0.137462 -0.413709 
-0.681810 0.284475 0.797393 0.881313 -0.158529 0.431439 
1.077386 0.181571 1.803519 -0.946849 0.041415 0.116666 
1.209822 0.509296 2.761373 -0.955891 0.174619 -0.124101 
0.203225 0.627284 0.325424 0.416000 -0.195859 0.865530 
-0.644217 -0.846836 0.917071 0.957940 0.091233 0.187168 
0.624519 -0.922108 0.598174 -0.833071 -0.116370 0.491703 
-0.200236 -0.524129 -0.148419 -0.108714 -0.468646 -0.836607 
1.040835 -0.230544 2.507992 -0.871912 0.373831 -0.185533 
0.610187 -0.408354 0.596579 0.879366 -0.075226 -0.425172 
0.746690 -0.683455 2.291101 0.784634 -0.606887 0.085017 
-1.026779 0.649537 1.640309 0.849024 -0.213746 0.443697 
-0.430867 -0.701514 0.334898 -0.725197 -0.180027 -0.581238 
-0.217604 0.305521 0.247202 -0.260918 -0.237271 0.934276 
1.016847 -0.300901 1.544269 0.914413 -0.323063 -0.222382 
-0.633434 -0.822249 1.086678 0.963815 0.215341 0.098140 
-1.331503 0.812465 2.003952 -0.838665 0.262466 -0.369744 
-0.127427 1.163240 -0.047198 -0.547414 0.374986 -0.738633 
-0.256240 0.834472 -0.102200 -0.629558 0.490620 -0.560735 
-1.053559 0.571775 1.610764 -0.833617 -0.346109 -0.402924 
-0.088132 0.897058 0.356921 -0.234836 -0.068492 0.961294 
0.636380 0.360884 0.455969 0.923816 0.140869 -0.293488 
0.789759 0.342623 0.932772 0.932537 -0.230107 -0.266497 
1.130886 -0.073902 2.091261 -0.919049 0.278952 0.178626 
-0.392692 -0.586928 0.105802 0.330511 0.029404 0.886673 
0.273616 -0.410523 -0.199995 0.486339 -0.316344 -0.811921 
0.310453 -0.476963 0.091907 0.495942 -0.115160 0.816641 
1.181335 0.089411 2.494405 -0.933869 0.216748 -0.118644 
-1.622559 0.699874 2.430515 0.819811 0.267257 0.476655 
-0.607445 0.391835 0.326986 -0.946444 0.068878 -0.282633 
-0.936953 -0.101623 1.535805 -0.869999 -0.337231 -0.357851 
-1.202194 0.670765 1.854341 0.698595 -0.258488 0.608987 
-0.927840 0.475480 1.318217 -0.892174 -0.325471 -0.298964 
0.213047 0.433778 0.277826 0.232030 -0.224937 0.940985 
-0.326738 -0.342366 -0.151534 -0.649020 -0.248325 -0.675597 
0.534286 0.232601 0.223673 0.912123 -0.125043 -0.379430 
-0.862632 0.301174 1.190367 -0.908338 -0.307711 -0.269059 
-1.028124 0.277531 1.658195 0.884602 -0.025439 0.376587 
0.692909 0.374144 0.682545 0.856475 0.311858 -0.372903 
0.196924 1.050651 -0.049641 0.657985 0.347276 -0.644314 
0.832620 0.063213 3.231077 0.771146 -0.315429 0.544002 
0.952773 -0.094574 1.396614 -0.912670 0.139502 0.278240 
-0.189837 -0.464095 -0.195088 -0.351077 -0.428210 -0.814598 
0.132974 -0.063371 0.196025 0.212112 -0.111271 0.966256 
-0.454653 -0.019919 0.034401 -0.881606 -0.116497 -0.447914 
1.110984 0.882234 1.753496 0.912077 0.255314 0.002654 
-0.196106 -0.116072 -0.289514 -0.517336 -0.170765 -0.817921 
0.296978 0.844201 -0.011731 0.783658 0.448801 -0.349812 
0.752924 -0.471784 0.986663 -0.943424 0.139709 0.263913 
0.639351 0.347461 0.545581 0.855458 0.360745 -0.341048 
-1.523381 0.058775 2.383293 -0.786848 -0.421544 -0.425088 
1.194134 0.749390 2.260094 0.993490 0.062713 0.032899 
-1.082532 -0.428363 2.000088 -0.841154 -0.465801 -0.260715 
0.170235 1.120350 -0.037004 0.604424 0.401831 -0.642881 
-0.461443 0.413986 0.401214 0.846683 0.172500 0.471181 
-1.716505 0.371184 2.861916 0.974079 0.137738 0.045103 
-0.329282 0.833112 0.164882 -0.873984 0.352218 0.270082 
0.330840 0.723635 -0.128884 0.522567 0.645166 -0.477702 
0.079301 0.336762 -0.394959 0.515121 0.089402 -0.835588 
-0.474301 -0.166060 0.128877 -0.881645 -0.129586 -0.439053 
0.515702 0.592468 0.189426 0.899303 0.365048 -0.165213 
0.134253 -0.717329 -0.066273 0.108243 -0.394754 -0.902739 
-1.560154 0.007711 2.998468 0.889814 0.412633 0.068437 
-0.460369 0.261088 0.268941 0.711221 -0.216364 0.646020 
-0.299512 0.157795 -0.268131 -0.637655 -0.070032 -0.752748 
0.553467 0.192425 0.288921 0.915469 -0.124014 -0.372023 
1.234164 0.418549 2.430722 0.973604 0.119011 0.167690 
1.213581 0.536787 2.317381 0.984191 0.044605 0.124835 
0.568756 0.381579 0.221762 0.934674 0.052833 -0.315154 
-0.954585 0.132077 1.508425 -0.871806 -0.339155 -0.348968 
-0.502057 -0.994500 0.390886 -0.735053 0.119592 -0.556342 
0.283205 0.751635 0.277166 0.590762 0.217784 0.755426 
-1.720717 0.518282 2.764537 0.950351 0.076262 0.130329 
-0.617190 -0.828481 0.633954 0.882519 -0.044415 0.370185 
0.075475 -1.005910 -0.017027 0.342619 -0.183299 -0.908180 
-0.179688 -0.197233 0.178910 -0.299306 -0.081414 0.929831 
-0.381512 0.087214 0.122111 0.240796 -0.180536 0.856130 
-1.012731 -0.450233 1.928884 -0.600202 -0.507086 -0.608306 
0.963210 0.422191 1.432854 -0.877165 -0.149863 0.356613 
-0.347690 0.026715 -0.179349 -0.687097 -0.147411 -0.662162 
0.213404 0.037589 -0.302550 0.557658 -0.107739 -0.800170 
-0.591979 -0.367426 0.605972 0.871321 0.039830 0.389081 
-0.218471 -0.388888 -0.225579 -0.462409 -0.320709 -0.817023 
0.419535 0.012621 -0.076263 0.866727 -0.121778 -0.477935 
0.068432 -0.516674 -0.177505 0.104206 -0.630819 -0.761252 
1.029275 0.758419 1.433208 0.791690 0.262684 -0.460009 
1.088383 0.499879 1.773679 -0.865171 -0.197946 0.344031 
0.524954 -0.832933 0.479695 0.779856 -0.077920 -0.546613 
-0.225974 0.496640 0.278146 -0.215083 -0.210067 0.947635 
-1.090427 1.054624 1.677530 -0.979262 -0.017483 0.058843 
0.840303 -0.537617 1.618415 -0.840612 0.467843 -0.121301 
-0.462084 -0.571048 0.343095 -0.773320 -0.170271 -0.528943 
0.686129 0.273951 0.804859 -0.864074 -0.173673 0.457489 
0.472536 -0.352141 0.169380 0.853945 -0.145229 -0.482895 
-1.539944 0.064661 2.457584 0.926897 0.197321 0.205260 
0.357793 0.215911 -0.203244 0.732924 -0.066517 -0.646150 
-0.750361 -0.913991 2.120919 0.711357 0.554896 0.423189 
0.694041 -0.277762 0.765935 0.930389 -0.105874 -0.335218 
1.082477 0.956761 1.701104 0.882323 0.277757 0.323602 
-1.197714 0.195471 1.834950 -0.910407 -0.169328 -0.319587 
0.583173 -0.840833 2.040520 0.754723 -0.652344 0.011767 
0.835141 0.717939 1.091347 0.747589 0.326641 -0.450945 
1.004467 0.814999 1.492738 0.418351 0.708011 -0.510019 
0.940284 0.170124 1.294259 0.929002 -0.281888 -0.236761 
-0.573986 0.339040 0.574506 0.858671 0.244199 0.391787 
-0.576901 0.404868 0.232741 -0.937850 0.079062 -0.300523 
0.099125 -0.574719 0.144317 0.220485 -0.177469 0.957425 
1.005483 -0.355336 1.844350 0.800531 -0.525757 -0.276810 
-1.705078 0.380468 3.002262 0.981951 0.071251 -0.070408 
-0.830264 0.031054 1.264287 0.871704 0.077855 0.408410 
0.809269 -0.652151 1.255782 -0.927741 0.286767 0.139675 
0.128805 1.051816 -0.082288 0.499164 0.368369 -0.761234 
0.288663 0.673111 -0.223430 0.526116 0.387141 -0.746375 
0.442359 0.289887 -0.074208 0.882444 -0.052953 -0.446930 
0.007719 -0.647646 0.163747 0.471758 -0.166540 0.863860 
0.692151 0.632355 0.769956 -0.922622 0.139727 0.331207 
-0.502528 -0.823829 0.457178 0.683729 0.006653 0.564373 
0.473493 -0.020887 0.088552 0.882246 -0.107698 -0.450542 
-0.064260 0.940622 -0.162990 -0.442860 0.448371 -0.757968 
-0.052703 0.796535 0.341958 -0.117443 -0.128581 0.979191 
1.019194 -0.249181 2.582016 0.828092 -0.541374 0.120207 
-1.696641 0.460372 2.657712 0.923924 0.194107 0.271515 
-1.464567 -0.184652 2.542350 -0.791001 -0.517346 -0.321267 
-0.292363 -0.982747 0.125212 0.303722 0.072339 0.932120 
0.368660 -0.337435 0.049201 0.172664 -0.066010 0.877275 
-1.744283 0.520967 2.971612 0.834536 0.481201 0.149299 
-0.604083 0.134505 0.454114 -0.930153 -0.138662 -0.329875 
-1.526803 0.271556 2.278186 -0.725741 -0.327185 -0.589020 
0.974081 -0.390771 1.789349 0.806665 -0.519510 -0.239767 
-0.547225 -0.388249 0.461702 -0.861355 -0.137897 -0.419898 
1.011121 -0.295445 2.517839 0.839823 -0.518801 0.109015 
-1.643871 0.606101 2.438632 -0.919545 -0.032786 -0.389911 
-1.011422 -0.171359 1.634145 -0.763268 -0.291072 -0.516396 
0.278572 -0.298996 0.136430 0.536827 -0.105273 0.800945 
0.617660 0.429508 0.548685 0.853548 0.374940 -0.315016 
-0.161900 1.064691 0.223528 -0.540658 0.759937 0.159824 
-1.039181 0.051579 1.642566 -0.763273 -0.298082 -0.513128 
-0.645674 0.345169 0.604379 -0.837427 0.406794 -0.356634 
0.980345 -0.389084 2.207512 -0.793350 0.484659 0.169716 
0.982420 0.459044 3.216134 -0.790010 0.429328 -0.355544 
0.120677 0.012189 0.199749 0.200059 -0.139490 0.965499 
-0.133766 -0.385372 -0.258331 -0.396025 -0.358107 -0.831003 
-0.145426 1.138409 0.248067 -0.918400 0.052099 -0.036641 
-0.061332 1.109935 -0.090479 -0.386945 0.362731 -0.835933 
0.913824 0.444494 1.323003 -0.863801 -0.177788 0.393959 
0.895811 -0.109038 2.975294 -0.813654 0.332292 -0.445909 
-0.682485 -0.619328 1.116940 -0.941682 -0.255696 -0.157625 
0.052314 1.353994 0.076465 0.604693 0.703946 0.247744 
-0.992280 -0.353537 1.763778 -0.689678 -0.443682 -0.526772 
-0.283323 -0.043974 -0.247642 -0.584253 -0.154998 -0.774684 
-1.046139 -0.031457 1.657088 -0.739132 -0.284601 -0.549554 
-0.214918 -0.805294 0.090524 0.100876 -0.041640 0.849365 
1.227456 0.530392 2.392168 0.988494 0.025545 0.102829 
-0.733409 0.048333 0.959735 0.895636 -0.007879 0.390206 
-1.113731 -0.100835 1.863193 0.829316 0.217692 0.459282 
1.015087 0.015809 1.540413 -0.920486 0.093228 0.242034 
-0.272975 0.949043 0.227969 -0.857375 0.139440 0.444556 
-0.922814 -0.743381 2.170526 0.659911 0.514899 0.493864 
-0.954395 0.652089 1.335206 -0.889089 -0.331074 -0.301534 
0.845120 -0.175393 2.995012 0.780644 -0.494339 0.341234 
0.575816 0.257622 0.317879 0.928744 -0.083745 -0.346067 
-0.684718 -0.675186 1.187168 0.947499 0.248093 0.145273 
1.003731 0.529331 1.526121 -0.878910 -0.197975 0.346720 
-0.920993 0.615479 1.394267 0.842007 -0.222990 0.467589 
-0.699293 0.175868 0.837621 0.893076 -0.101275 0.406448 
1.097872 -0.205040 2.220209 -0.882031 0.388078 0.097747 
-1.370291 -0.024351 2.105853 -0.840947 -0.230355 -0.465136 
-0.504508 -0.752681 0.461916 0.692196 0.017076 0.557334 
0.167994 -0.494087 0.150369 0.247397 -0.155557 0.953946 
0.128010 1.265003 0.111693 0.661228 0.689279 0.051150 
-0.231773 0.165598 -0.310223 -0.599560 -0.054494 -0.781618 
-0.127448 0.299886 -0.377976 -0.552171 0.041707 -0.817621 
-0.613058 0.126903 0.633619 0.901111 -0.115215 0.402428 
-1.667339 0.233268 2.807474 0.926331 0.306768 0.141250 
0.165780 0.185974 0.229832 0.251900 -0.201125 0.945436 
1.106169 -0.169026 2.110109 -0.864688 0.362649 0.212934 
0.408928 -0.326490 -0.029476 0.838371 -0.163923 -0.513850 
1.152111 0.029132 1.815717 0.946877 -0.162891 -0.156835 
-1.491712 -0.143113 2.602110 -0.792070 -0.524300 -0.300902 
0.468208 0.420017 -0.044921 0.867145 0.079438 -0.426739 
-1.574495 0.644897 2.392637 0.830445 0.143732 0.496471 
1.087506 0.190142 2.934156 -0.860387 0.343923 -0.324974 
0.465452 -0.563754 0.390278 -0.602350 0.044498 0.659888 
-0.436025 -0.633785 0.312892 -0.743545 -0.180718 -0.564490 
-0.406788 0.706208 0.084791 -0.606559 0.780058 -0.018378 
1.052822 0.424753 1.648044 -0.907943 -0.149815 0.193541 
0.064420 -0.378771 0.194625 0.109425 -0.049507 0.990145 
0.490963 -0.882208 0.431910 0.747428 -0.097545 -0.581442 
1.165261 0.395123 2.788221 -0.916979 0.160419 -0.255690 
-0.779104 -0.271828 1.099947 -0.910935 -0.219436 -0.322007 
0.713933 -0.744923 0.927328 -0.950307 0.129829 0.239050 
-0.383563 -0.971175 0.270166 0.466726 0.035485 0.773722 
-1.214607 -0.508233 2.316731 0.695933 0.463607 0.459589 
0.303280 0.576265 0.255483 0.371076 -0.179552 0.862804 
-1.089810 0.403304 1.757961 0.744988 0.016406 0.612562 
-1.525503 -0.073971 3.084401 -0.934338 -0.332013 0.042281 
-0.489671 0.632185 0.118852 -0.851159 0.451030 -0.179323 
-1.607446 0.101325 2.715491 0.844943 0.473425 0.222641 
-0.227847 1.112893 0.131900 -0.885800 0.438565 -0.039071 
-0.255522 0.074445 -0.282201 -0.593682 -0.098446 -0.778025 
-0.009717 -0.175712 0.200313 -0.093890 -0.041290 0.990463 
-0.905715 0.521769 1.239828 -0.901149 -0.317819 -0.279227 
-1.167156 -0.531677 2.260572 -0.820061 -0.491139 -0.284339 
-0.995839 0.286132 1.574771 -0.863029 -0.349715 -0.363905 
-0.143009 1.058555 0.363337 -0.071365 -0.072375 0.950162 
-1.548220 -0.030077 2.798599 0.959874 0.239969 0.019883 
0.931288 0.057403 3.067188 -0.802853 0.407045 -0.393432 
1.133636 0.550661 2.430922 -0.907807 0.074060 -0.021750 
1.211865 0.157450 2.482930 0.894662 -0.402520 -0.098348 
0.762212 -0.551160 1.022694 -0.948608 0.159668 0.238918 
-1.017714 0.490646 1.637606 0.859336 -0.129391 0.422606 
0.804308 0.233373 0.974101 0.931978 -0.226632 -0.267155 
-0.586999 0.083341 0.407785 -0.927164 -0.122856 -0.343518 
0.831699 0.262999 1.035338 0.932468 -0.248469 -0.252573 
0.043849 0.017588 0.203899 0.116385 -0.134574 0.979881 
1.245913 0.683423 2.664619 0.976136 0.190243 0.089568 
0.514978 0.122007 0.399953 -0.779448 -0.147961 0.562872 
0.613764 -0.251775 0.555505 0.909387 -0.087098 -0.393864 
-1.248773 -0.584977 2.452591 -0.811137 -0.504712 -0.294491 
1.148892 0.826078 1.945602 0.988284 0.065787 -0.014334 
-0.523138 0.576783 0.205171 -0.895784 0.366404 -0.178317 
0.586608 -0.096356 0.435265 0.914400 -0.078774 -0.393576 
1.191330 0.156064 2.636383 0.859046 -0.478161 -0.004419 
-0.543239 -0.799818 0.513728 -0.837930 -0.071160 -0.441952 
1.030072 0.717408 1.589707 -0.871340 -0.296307 0.359881 
-1.326046 -0.468303 2.691997 -0.835355 -0.486196 -0.205461 
0.577415 -0.192637 0.522212 -0.804145 -0.012867 0.494579 
1.141939 0.077121 2.763668 0.826289 -0.546715 0.122819 
0.416218 -0.098703 0.082803 -0.438402 -0.104340 0.842470 
-0.571088 -0.455000 0.571672 0.828853 0.035100 0.429036 
0.304093 -0.207169 0.129537 0.523988 -0.141516 0.802766 
0.505120 -0.406380 0.363886 -0.603934 0.024722 0.655432 
0.325416 0.238707 -0.262259 0.675078 -0.039969 -0.729050 
0.001684 0.233647 -0.458566 0.478042 0.014638 -0.875723 
0.855683 0.206361 1.187074 -0.867501 -0.060963 0.394190 
0.613262 0.185202 0.475307 0.928998 -0.148566 -0.329490 
0.846780 -0.246856 1.153573 -0.930286 0.155367 0.286672 
-1.631323 0.316590 2.509895 0.884529 0.172029 0.376756 
-0.520890 -0.635971 0.471661 -0.815527 -0.121895 -0.468778 
0.865910 -0.519392 1.430170 0.887149 -0.389030 -0.107718 
1.176962 0.255651 2.162548 -0.964965 0.030759 0.180202 
-0.189064 0.098550 -0.325965 -0.559887 -0.076038 -0.805135 
-0.953504 0.441732 1.402520 -0.882423 -0.334039 -0.320043 
1.105740 0.004687 1.888554 -0.916856 0.178078 0.348170 
0.444766 -0.307719 0.120582 -0.402449 -0.020536 0.839055 
0.891736 0.659118 1.307652 -0.868888 -0.126258 0.441045 
0.531941 0.257407 0.447754 -0.798235 -0.186819 0.541526 
0.176891 0.875905 -0.141767 0.578980 0.422129 -0.680579 
-0.783159 0.320683 1.081801 0.857896 -0.110181 0.452015 
-0.286120 -0.668706 -0.065292 -0.573129 -0.269378 -0.757211 
-1.220802 -0.036178 1.896034 -0.936704 -0.167030 -0.274529 
-0.366843 0.547740 -0.186064 -0.660692 0.212041 -0.673725 
-0.243742 -0.477285 0.132565 -0.413521 -0.134901 0.895240 
0.731674 0.226130 3.427917 -0.758240 0.223279 -0.598294 
-1.193169 -0.413408 2.180857 0.612966 0.431855 0.573730 
0.482525 -0.757608 0.418714 0.747651 -0.123561 -0.574583 
-0.575674 -0.332194 0.505846 -0.888676 -0.127478 -0.385070 
-0.555964 0.638463 0.437851 0.847772 0.230896 0.431156 
0.337826 -0.436469 -0.132183 0.696064 -0.236137 -0.641753 
0.592992 0.586690 0.530987 -0.875551 0.195045 0.395017 
0.607429 -0.524866 0.617088 -0.849454 -0.010433 0.455081 
-1.405951 0.409048 2.108433 -0.752933 -0.329370 -0.536576 
0.900455 -0.092509 1.219330 0.930881 -0.251442 -0.244871 
0.190396 -0.889991 0.020340 0.186190 -0.362186 -0.907040 
-0.028944 0.343472 0.289575 -0.046871 -0.293528 0.947881 
-0.154266 0.920332 0.340080 -0.310035 -0.093353 0.925640 
1.214284 0.256876 2.365014 -0.984044 0.114685 0.121624 
-0.987616 0.630048 1.570978 0.840128 -0.202534 0.459830 
-0.650966 -0.646470 1.043966 -0.951130 -0.239700 -0.137005 
1.010229 -0.141085 1.525991 -0.931098 0.179925 0.216923 
-0.796496 -0.584524 1.760148 0.852452 0.481109 0.164692 
1.102492 0.609775 1.728523 0.924447 -0.327479 0.048043 
0.958434 -0.221660 2.740297 0.806143 -0.538330 0.198449 
0.415375 -0.392192 0.012511 0.831766 -0.168723 -0.518729 
1.209221 0.178254 2.393737 -0.972826 0.190736 0.075121 
-1.007566 0.712687 1.607489 0.836413 -0.242870 0.466270 
1.024636 -0.339093 2.171593 0.865477 -0.462337 0.135554 
0.926643 -0.485665 2.334140 0.825001 -0.536965 0.157934 
-0.316474 -0.262987 -0.166401 -0.591278 -0.264582 -0.720226 
0.735909 0.062321 0.828026 0.930118 -0.160397 -0.310091 
-1.543845 -0.024331 3.168383 -0.935210 -0.333313 0.070685 
0.456379 0.022912 0.222462 -0.605452 -0.132511 0.711927 
0.938835 -0.420219 1.872339 -0.838119 0.446333 -0.283306 
-0.910145 -0.105930 1.460878 -0.878875 -0.328890 -0.339431 
0.687741 0.544563 0.774410 -0.905534 0.264778 0.288090 
-0.536559 -0.090482 0.428141 0.763354 -0.046858 0.524171 
1.128584 0.495152 1.714667 0.986939 -0.120281 0.080002 
1.001289 0.086350 1.509597 -0.910890 0.052089 0.275105 
-0.070629 1.094732 0.349250 0.109643 0.220226 0.925954 
-0.636616 0.166992 0.551691 -0.937036 -0.158097 -0.305355 
-0.433586 -0.104754 0.134935 0.480771 -0.097738 0.796383 
1.160484 0.146012 2.011795 0.978482 -0.063638 -0.040085 
-0.902184 -0.184317 1.511141 0.874585 0.243523 0.380695 
-0.002206 -0.318696 0.196539 0.100589 0.030083 0.994276 
-0.715230 -0.264784 0.895551 -0.929662 -0.166993 -0.303972 
-1.324577 0.649075 1.986574 -0.943086 -0.019503 -0.315422 
-0.052708 -0.687411 0.134511 -0.275990 -0.182704 0.913544 
1.142323 0.494365 2.550659 -0.909268 0.102158 -0.104790 
-1.480366 0.477859 2.258978 0.811384 0.071415 0.521181 
0.418760 0.150187 0.142637 -0.573639 -0.190849 0.761146 
0.355881 -1.022809 0.205144 0.593040 -0.073784 -0.736317 
-0.891963 -0.253743 1.447903 -0.878738 -0.311259 -0.352962 
0.556148 0.520496 0.168253 0.913522 0.271731 -0.274314 
0.234554 0.310634 -0.315581 0.620304 0.026951 -0.768278 
0.528083 0.572864 0.064811 0.904562 0.288100 -0.264881 
-0.562113 0.046728 0.334839 -0.922114 -0.106058 -0.362538 
-1.352183 0.712556 2.019722 -0.926035 -0.079908 -0.364383 
-0.363749 0.617621 -0.172515 -0.637275 0.295499 -0.666469 
0.746560 -0.333356 0.900579 0.933151 -0.146680 -0.300096 
0.831702 -0.474397 1.133455 0.940322 -0.221458 -0.229176 
-0.197532 -0.808548 -0.023995 -0.175896 -0.378434 -0.906328 
0.391466 -0.580501 0.091180 -0.312834 0.033986 0.904692 
-0.980863 -0.106672 1.624467 0.896698 0.188856 0.345497 
0.876734 0.220746 3.253215 -0.781636 0.185120 -0.563618 
0.341733 0.383594 0.186118 0.025466 -0.199084 0.939664 
0.243210 0.367686 0.243427 0.215051 -0.224238 0.945638 
-0.369384 0.734685 -0.029581 -0.767140 0.546939 -0.289382 
-1.354203 -0.276874 2.320267 0.834694 0.372902 0.372657 
-1.380165 -0.368220 2.816118 -0.848669 -0.475536 -0.156388 
0.881112 -0.261924 2.830325 0.792808 -0.520394 0.265972 
1.150770 0.462179 1.980128 0.940071 -0.243213 -0.108123 
1.109819 0.796438 1.642367 0.985800 -0.108841 0.120123 
-1.617340 0.120532 2.904386 -0.962683 -0.240942 0.018757 
0.561430 0.301802 0.244719 0.928948 -0.027565 -0.344694 
-1.355122 0.425524 2.060362 0.772319 -0.043222 0.573228 
-1.345641 0.317539 2.029270 -0.789526 -0.200406 -0.542911 
0.390662 0.688051 -0.097565 0.650198 0.549225 -0.456532 
-1.320132 0.649712 2.061611 0.737986 0.029516 0.594534 
-0.409255 -1.087643 0.176604 0.523551 -0.282400 0.775701 
0.680099 -0.745031 1.613484 0.771945 -0.616469 0.022032 
1.209612 0.252996 2.655503 0.919652 0.022843 0.328992 
-0.706513 -0.108874 0.804317 -0.937026 -0.157811 -0.293765 
0.869248 -0.012205 3.110894 0.786510 -0.310774 0.512043 
0.849993 -0.325386 2.808713 -0.806774 0.451409 -0.315352 
0.568700 -0.172199 0.400483 0.902883 -0.093353 -0.410348 
-0.532065 0.566342 0.127612 -0.916341 0.292780 -0.225780 
1.060234 -0.036426 2.763155 -0.856519 0.251711 -0.400966 
-0.677728 -0.037807 0.796397 0.918087 -0.007172 0.361819 
-1.627572 0.153107 2.971312 -0.952691 -0.276277 0.000850 
-0.566976 -0.961699 0.501696 0.793996 -0.157587 0.477869 
-0.116878 -0.656252 -0.101035 -0.029475 -0.410555 -0.908840 
0.260254 0.207094 0.187875 0.237788 -0.221481 0.944774 
-0.710959 -0.195349 0.919416 0.923595 0.101137 0.339783 
1.058048 0.058839 1.582783 0.913140 -0.278293 -0.277816 
0.381030 0.145976 -0.149119 0.766350 -0.110344 -0.583687 
-0.650162 -0.595311 0.772386 -0.952159 -0.086382 -0.251249 
0.008474 1.099638 -0.108400 0.306688 0.344303 -0.883214 
0.681997 0.453668 0.822989 -0.899118 0.251649 0.326974 
-1.168458 0.670324 1.780280 -0.808819 -0.370485 -0.413776 
-1.156100 -0.014614 1.858953 0.670852 0.197353 0.688554 
0.938048 -0.436472 1.362950 0.937958 -0.278587 -0.199379 
-0.828690 0.513809 1.166518 0.847891 -0.202965 0.469216 
-0.444001 -0.174712 0.043529 -0.869530 -0.136221 -0.463056 
1.099549 0.450434 3.076462 -0.832397 -0.010869 -0.534592 
0.882621 0.157133 3.217361 -0.793126 0.247723 -0.527796 
-0.337235 0.577318 0.228544 -0.369710 -0.105924 0.843727 
0.236786 0.160901 -0.306625 0.601024 -0.057571 -0.779301 
-0.747210 0.068094 0.889764 -0.932937 -0.206986 -0.270844 
0.980604 -0.137194 1.457769 -0.922410 0.172254 0.252222 
0.428050 0.399422 -0.105705 0.811342 0.053910 -0.518120 
1.091604 0.115420 1.754694 -0.958023 -0.011794 -0.075733 
-0.466330 -0.291483 0.138179 -0.872115 -0.145445 -0.450807 
0.342271 -1.070244 0.138333 0.540293 0.068193 -0.783392 
-1.601862 0.411194 2.528496 0.893084 0.155671 0.311210 
-0.500788 0.171251 0.124135 -0.905733 -0.099922 -0.404589 
0.585443 -0.834070 1.927470 -0.768909 0.627949 -0.028182 
1.199669 0.073150 2.420857 0.907794 -0.385159 -0.061904 
-0.244168 1.228406 0.441712 -0.770937 -0.365662 -0.519469 
0.542124 0.386102 0.502544 -0.839407 0.355662 0.393847 
0.840634 -0.522872 1.933192 -0.767576 0.535895 0.257049 
1.150215 0.008691 2.106959 -0.949107 0.196807 0.165355 
-0.330872 -0.060762 0.118609 -0.349076 -0.169215 0.877489 
-0.612555 -0.189755 0.534593 -0.933672 -0.106553 -0.332321 
0.809395 -0.617977 1.124200 0.947988 -0.232452 -0.198188 
-0.191456 0.886471 -0.128164 -0.608433 0.413919 -0.662327 
0.568797 -0.325414 0.537552 -0.784204 0.022373 0.501605 
0.612096 -0.105541 0.625780 -0.900713 -0.033403 0.410899 
-1.526908 -0.021310 2.488617 -0.794829 -0.480001 -0.354087 
0.455243 0.680569 -0.016654 0.744018 0.611233 -0.269584 
0.819156 -0.046919 1.028171 0.930302 -0.202731 -0.279173 
0.917105 0.227665 1.236427 0.929706 -0.277350 -0.239559 
0.083934 0.683845 0.338109 0.094045 0.079686 0.986033 
-0.016029 -0.450481 0.188418 -0.144671 -0.150458 0.967398 
-0.567865 0.320106 0.252092 -0.931405 -0.008527 -0.334165 
-0.399169 -0.902252 0.294745 -0.693368 -0.164688 -0.621915 
0.611710 -0.262360 0.637378 -0.891091 0.017911 0.410188 
0.652795 0.552138 0.684298 -0.906376 0.195352 0.330541 
-0.574872 -0.060121 0.538820 0.870756 -0.038688 0.424075 
1.221051 0.427657 2.751768 0.952503 -0.110535 0.202011 
1.158054 0.520563 2.022254 0.921186 -0.319745 -0.111941 
-0.231359 0.299188 -0.320534 -0.618460 0.016073 -0.772302 
-0.983006 0.087560 1.618181 0.879563 0.089378 0.378301 
1.045904 -0.188096 1.740248 -0.929124 0.215312 -0.119980 
-0.145395 -1.127184 0.065512 0.687862 0.060525 0.657389 
-0.539848 0.543753 0.057042 -0.928594 0.217128 -0.288464 
0.296121 -0.191536 -0.216598 0.554649 -0.224433 -0.779092 
0.031448 0.456117 -0.390284 0.461591 0.214512 -0.849328 
-0.228464 -1.366502 0.206582 -0.771067 -0.048164 0.520749 
-0.089086 1.306231 0.091045 -0.650646 0.677360 0.206890 
1.175598 0.740515 2.330235 -0.962299 0.132042 0.085214 
-1.649786 0.578345 2.519046 0.872647 0.177595 0.418063 
0.470422 -0.519825 0.333991 0.777052 -0.156183 -0.542724 
-1.112468 -0.573172 2.242708 0.654390 0.477752 0.502276 
-1.088608 0.437629 1.658533 -0.761387 -0.309368 -0.510233 
0.011757 -1.089304 0.038354 0.577024 -0.157174 0.758395 
-0.379500 0.077835 -0.138464 -0.753312 -0.139400 -0.586401 
-0.132222 1.096791 -0.071971 -0.493067 0.389504 -0.766621 
-0.708335 -0.669374 1.264102 -0.929003 -0.302487 -0.151134 
-0.663756 0.309869 0.541181 -0.950862 0.020832 -0.274222 
-0.117502 -0.302939 -0.284496 -0.408050 -0.307946 -0.836722 
-0.191977 -1.160448 0.119619 -0.467970 -0.246800 -0.748502 
0.008381 -0.987050 0.062837 0.551181 -0.103092 0.811119 
-1.638161 0.168731 2.728792 0.872392 0.413718 0.202811 
-0.409353 -0.779843 0.305036 -0.703601 -0.181289 -0.608495 
-1.398384 0.624563 2.211674 0.782227 0.078159 0.494416 
-0.299242 0.224082 0.168114 -0.209850 -0.216556 0.951816 
-0.264190 -0.339982 0.140783 -0.503843 -0.083360 0.821827 
0.891686 0.283012 1.173500 0.930582 -0.272511 -0.242072 
-0.666703 -0.243433 0.799320 0.938486 0.087651 0.316857 
-0.318219 0.526307 -0.248641 -0.600375 0.186043 -0.766073 
0.699921 0.382443 0.838831 -0.850321 -0.214971 0.474936 
0.741677 -0.820742 1.030352 -0.964854 0.193635 0.174735 
-0.028234 0.097670 -0.415502 -0.458344 -0.068987 -0.866187 
-0.761226 0.000351 1.052462 0.892655 0.039130 0.387410 
0.852034 0.342533 1.182316 -0.856626 -0.139196 0.419203 
-0.762586 -0.523703 1.278132 -0.917491 -0.287749 -0.220229 
0.376852 0.066358 -0.138597 0.746417 -0.145094 -0.589814 
1.069631 0.585832 1.570044 0.915092 -0.293992 -0.273943 
0.414142 0.699898 0.041373 0.543623 0.825867 -0.056482 
0.618033 -0.674260 0.624010 -0.846047 -0.032494 0.464016 
0.123945 0.276518 -0.385939 0.555368 0.021292 -0.819551 
1.007034 0.016419 2.910691 -0.826288 0.464998 -0.290069 
0.997869 0.362196 1.416591 0.922714 -0.287151 -0.253816 
-1.638267 0.244696 2.577856 -0.970535 -0.091384 -0.119299 
0.048262 -0.764923 0.115392 0.201573 -0.171266 0.907673 
0.111219 0.944288 0.356942 0.222692 -0.093141 0.964724 
0.980564 -0.331310 1.488003 -0.933493 0.282677 0.197696 
-1.497180 -0.140477 3.062862 -0.927377 -0.351783 0.022999 
0.338320 0.427934 -0.249209 0.652915 0.075311 -0.746929 
-0.381901 -0.329175 0.020252 0.072605 -0.046282 0.951476 
0.831910 -0.312570 1.129397 -0.935573 0.163067 0.275238 
-0.685763 -0.449917 0.972817 -0.939574 -0.203596 -0.223539 
1.125236 0.262575 2.936425 -0.888650 0.259353 -0.345507 
0.852653 -0.522799 1.859486 -0.821651 0.490798 -0.224254 
-0.492278 0.550063 -0.009021 -0.853271 0.221648 -0.394194 
0.654853 -0.779850 1.508861 0.773465 -0.619293 0.073572 
1.225983 0.604182 2.406388 0.996359 -0.018851 0.073102 
-1.426945 0.750988 2.124348 -0.899334 -0.004105 -0.431528 
-0.530244 0.624514 0.370741 -0.881160 0.370646 -0.167685 
-0.137896 -0.090586 -0.328440 -0.488629 -0.149411 -0.841269 
0.209170 1.244892 0.350285 -0.459717 0.757221 0.343176 
0.888179 -0.327636 2.737448 -0.817222 0.442115 -0.290969 
0.669165 0.184772 3.485922 0.733337 -0.273401 0.619429 
0.284250 -0.067776 0.142136 0.398933 -0.165641 0.865440 
0.636510 0.286034 0.465205 0.950279 -0.034855 -0.296489 
-0.745522 -0.315718 1.035828 -0.921102 -0.207224 -0.294306 
-0.514350 0.486596 0.021297 -0.911704 0.155876 -0.334033 
-0.460833 -0.478470 0.255773 -0.811734 -0.163195 -0.500066 
0.741253 -0.168774 0.856659 0.928661 -0.136092 -0.323170 
-0.804746 0.004571 1.187840 0.880818 0.071416 0.397825 
0.380096 -0.699426 0.191647 -0.388810 0.052295 0.842892 
-0.092796 0.767012 -0.232247 -0.447710 0.412484 -0.777163 
0.903283 -0.291492 1.282462 -0.936122 0.205720 0.252518 
0.515605 0.340590 0.094197 0.917236 0.005974 -0.365209 
-0.613357 0.397125 0.504568 -0.848783 0.412731 -0.304674 
-0.359019 0.692001 -0.136599 -0.605405 0.520341 -0.545138 
0.109040 -1.287299 0.165414 -0.613672 -0.561360 -0.503148 
0.657804 -0.814545 1.354956 -0.830110 0.505138 -0.039083 
-0.632368 -0.712011 1.016177 0.960953 0.188858 0.135063 
-0.564963 -0.218976 0.484951 0.773370 0.013389 0.486378 
0.243321 0.535720 0.272438 0.194256 -0.197900 0.953913 
-1.139732 0.616729 1.743474 -0.839017 -0.348648 -0.365847 
-0.703341 0.491494 0.848785 0.900916 0.308015 0.277768 
1.030652 -0.272246 1.630430 0.888190 -0.341956 -0.262640 
-0.187559 1.024962 -0.073076 -0.622048 0.349467 -0.696426 
0.000828 -1.042783 -0.026533 0.631900 -0.120849 -0.763198 
-0.153295 -0.417173 0.176966 -0.218026 -0.136570 0.963503 
-1.097078 0.709429 1.643249 -0.892101 -0.235246 -0.293029 
-0.131517 1.121360 0.173066 -0.795566 0.010518 0.579788 
-1.547804 -0.007098 3.245841 0.931426 0.347489 -0.071809 
0.569263 0.078413 0.354322 0.916101 -0.104131 -0.379252 
1.050162 0.225742 1.639531 -0.923515 -0.042227 0.145777 
0.196612 -0.385584 -0.235777 0.435818 -0.331248 -0.825398 
-1.640541 0.422637 2.610335 0.914480 0.186131 0.255009 
-0.890776 -0.478150 1.780187 0.873212 0.435783 0.171321 
0.059688 1.306375 -0.009480 0.576640 0.356950 -0.658301 
0.441550 -1.044424 0.270039 -0.560834 -0.198387 0.739495 
1.043533 0.877911 1.684197 -0.976229 0.133656 0.063439 
-0.753081 0.564352 1.023912 0.907452 0.198053 0.279407 
0.605591 -0.743995 0.602607 -0.817397 -0.034882 0.490345 
-1.432089 0.311909 2.164068 0.808537 0.060088 0.554464 
0.665985 -0.670044 0.720636 -0.915311 -0.018226 0.383435 
0.666808 -0.747906 1.769760 -0.787106 0.587092 -0.104375 
-0.857534 -0.390433 1.509740 -0.873865 -0.347578 -0.313756 
-0.424700 0.087158 -0.079788 -0.875585 -0.109804 -0.466535 
1.188124 0.002844 2.379518 0.916327 -0.375807 -0.025210 
0.720439 0.294306 3.464364 -0.767380 0.233815 -0.589948 
0.286593 0.937837 0.195938 0.902976 0.259015 0.310529 
-0.574289 0.567404 0.468692 -0.878120 0.318810 -0.254906 
-1.199659 0.576901 1.850749 0.706215 -0.211850 0.617226 
0.437675 -0.994344 0.322403 0.666732 -0.016873 -0.661846 
1.081253 0.808510 1.838754 -0.892633 -0.069052 0.366045 
0.205844 -0.489115 -0.171801 0.269534 -0.450865 -0.817981 
0.364679 0.652665 0.210122 0.472970 0.125488 0.752447 
-0.834247 0.546415 0.972182 -0.897785 0.057618 -0.401932 
-0.215256 1.050446 0.300834 -0.639179 0.727258 -0.194420 
-1.637137 0.185215 3.039778 0.953318 0.256817 0.004755 
1.147925 0.108604 1.797757 0.951702 -0.156818 -0.126116 
0.774492 -0.622050 1.046480 0.948321 -0.212284 -0.210266 
0.646765 -0.117176 0.706974 -0.910058 -0.023236 0.399250 
-1.187456 -0.320672 2.042216 -0.851266 -0.424594 -0.289924 
0.662697 -0.890691 0.673025 -0.887865 -0.083883 0.439475 
-0.441537 -0.560054 0.275159 0.506461 0.043626 0.728619 
1.073969 0.418026 1.721738 -0.899966 -0.104689 0.162089 
0.516979 -0.185318 0.351661 -0.652413 -0.037358 0.633451 
0.214704 0.730965 -0.210792 0.512297 0.512579 -0.665017 
-1.627294 0.447062 2.403006 -0.921373 0.000104 -0.373954 
0.443492 -0.900843 0.364686 0.705175 -0.132707 -0.624396 
0.728650 0.172791 0.900179 -0.868387 -0.115255 0.440277 
-0.730537 0.356972 0.781211 -0.939601 -0.223955 -0.246789 
-0.074365 1.292646 0.007911 -0.660820 0.474111 -0.525745 
-0.626142 -0.757145 1.434707 0.875947 0.410432 0.162207 
0.363927 -0.251706 0.057314 0.129719 -0.086386 0.904907 
1.075724 0.788368 1.523093 0.883917 0.124666 -0.427869 
-0.643114 -0.752603 1.332181 0.908590 0.346473 0.141000 
0.067794 -0.090950 0.198229 0.140547 -0.094611 0.979775 
-0.735265 0.191080 0.948085 0.882230 -0.080689 0.417244 
-1.705705 0.530842 2.695131 0.928648 0.115942 0.220740 
1.130196 0.583290 2.367063 -0.908034 0.059601 0.025434 
0.983036 0.029796 1.403105 0.928167 -0.290873 -0.229149 
0.397759 0.478961 0.285141 -0.825792 0.252111 0.496231 
