-0.350570 2.996614 -0.581899 0.792208 -0.343320 -0.501024 
-0.257457 -0.528337 0.303662 -0.524806 -0.229979 0.797289 
0.397652 0.147801 0.114097 0.242759 0.137152 -0.936273 
-0.219300 2.340887 0.351282 0.879017 -0.413323 -0.085415 
0.291246 0.838073 0.212753 0.788666 0.395377 -0.389283 
-0.000480 -0.967121 0.109040 -0.647578 -0.147030 -0.743503 
1.446334 1.097468 -0.491581 0.507524 -0.456055 0.728574 
-0.689435 -0.384362 -0.176913 -0.713825 -0.088040 0.656661 
-0.644303 2.797399 -0.881819 -0.773717 0.402300 0.486161 
-1.099540 1.710242 -0.350848 0.696004 -0.444907 -0.490060 
1.128516 0.455779 -0.250766 0.705705 -0.149819 0.682713 
-1.193031 0.586742 -0.721115 0.771125 0.307744 -0.493316 
-0.436207 2.758498 -0.534099 0.828026 -0.322505 -0.451581 
-0.461429 2.680259 -0.514763 0.836153 -0.321269 -0.437362 
1.934101 2.540146 1.013082 -0.085534 0.775612 -0.622890 
-0.372125 2.245739 0.280551 -0.699549 0.610167 0.303873 
2.063074 2.457528 0.895414 0.102361 -0.796379 0.587975 
-0.391351 -1.341464 0.059114 0.467670 -0.606729 -0.572198 
1.274876 1.309000 -0.070969 0.240238 -0.631665 0.664380 
-0.194567 -0.642943 0.291865 -0.306750 -0.340293 0.883943 
-0.985644 0.892508 -0.273689 0.783330 0.072089 -0.570169 
0.476430 -0.212975 0.133830 0.705738 -0.193685 0.677669 
0.114046 -1.116180 0.154620 -0.078019 -0.230253 -0.964698 
-1.181855 0.734353 -0.630455 0.808581 0.286202 -0.500405 
0.205953 1.011446 0.188990 0.654499 0.387809 -0.634552 
0.999353 2.037457 0.808106 0.395028 -0.583373 0.656195 
0.468616 -0.885392 0.038770 -0.278743 -0.021802 -0.953422 
-0.188212 -0.201537 -0.032943 -0.582807 -0.081875 -0.801674 
-0.692533 -0.190429 -0.124411 -0.749840 -0.104673 0.626237 
-1.037257 0.661148 -0.359979 -0.833872 -0.190869 0.510389 
0.675134 0.446216 0.031789 -0.179375 0.222007 -0.845261 
-1.251980 1.275480 -0.475249 0.794185 -0.013432 -0.560934 
0.382429 0.049862 0.114736 0.263132 0.113304 -0.934188 
-0.445852 -0.186218 0.028329 -0.023431 0.063624 -0.874714 
0.296028 -1.059851 0.104886 -0.380294 -0.115760 -0.906786 
-0.685297 2.022987 -0.078433 -0.646002 0.679057 0.334134 
0.811999 0.456232 -0.065158 -0.307186 0.196173 -0.802974 
-0.218503 2.469863 0.078936 0.758259 -0.530780 -0.375929 
-0.128004 1.049827 0.171400 -0.499536 0.410615 -0.737076 
-0.791138 1.044683 0.163503 -0.923889 0.009851 0.339113 
0.213120 0.087007 0.472332 0.311053 -0.261571 0.897426 
-0.461931 2.085373 0.323927 -0.648147 0.690331 0.281244 
0.600728 0.942347 0.407555 0.442952 -0.322661 0.829685 
-0.680226 1.809469 0.216802 0.814759 -0.234028 -0.477177 
1.878729 2.270678 0.694511 -0.108023 0.812754 -0.565106 
0.452898 -0.155910 0.192074 0.683971 -0.215320 0.689427 
-0.005205 1.255506 0.210788 -0.661855 0.221817 -0.691109 
-0.370640 2.344440 -0.021318 0.819319 -0.470627 -0.322784 
1.292902 0.875772 -0.343837 0.607479 -0.345063 0.691588 
-0.822893 0.738611 -0.064998 0.736976 0.263672 -0.615069 
-1.081851 1.552414 -0.182597 -0.829605 0.251664 0.478749 
-0.638723 0.606638 0.280663 -0.419793 -0.169416 0.851507 
0.378093 -1.370282 0.083746 -0.500589 -0.690650 0.318728 
-0.967981 0.789051 -0.230344 -0.846281 -0.100977 0.480143 
0.016497 0.766903 -0.020939 0.393842 0.341871 -0.847308 
1.042970 2.218919 0.892183 -0.278241 0.718794 -0.634322 
-0.666738 2.508774 -0.688094 0.654024 -0.540716 -0.504608 
1.149520 0.987329 -0.138247 -0.530862 0.381960 -0.727394 
2.017631 2.540205 1.006614 -0.077364 0.780885 -0.617544 
1.455128 2.394626 0.920231 0.222399 -0.768729 0.581760 
1.929890 1.292802 -0.221104 0.144622 -0.638849 0.726004 
-0.751909 2.551071 -0.850081 -0.743259 0.470228 0.470954 
0.157252 -1.052330 0.132130 -0.144884 -0.201805 -0.961309 
-0.482127 -0.323151 0.007727 0.148435 0.051859 -0.862298 
0.211734 -0.317636 -0.012878 0.565431 -0.127141 -0.811212 
0.690582 -0.313058 -0.035166 -0.417735 0.075766 -0.856519 
-0.723207 1.790644 0.160832 0.530314 -0.577132 -0.457853 
0.495578 -0.525788 0.063168 0.641184 -0.111360 0.747897 
-0.917310 2.259975 -0.810478 0.723632 -0.494727 -0.474626 
0.805483 1.691605 0.561037 0.572931 -0.484922 0.605722 
0.388187 0.076221 0.400734 0.570208 -0.270329 0.773895 
-0.840844 1.496284 0.172250 0.726762 -0.068296 -0.631661 
-0.775597 2.304842 -0.645839 -0.690476 0.560385 0.429922 
1.629026 2.249868 0.703473 -0.144689 0.798103 -0.575191 
-0.436206 2.456296 -0.245041 -0.682266 0.567392 0.454163 
-0.801561 -0.118486 -0.298905 0.590445 0.138628 -0.703139 
0.238932 -1.190007 0.132258 -0.358182 -0.150357 -0.893260 
1.409801 2.164173 0.681017 -0.229799 0.789683 -0.558351 
-1.476537 1.151022 -0.771331 0.803013 0.203484 -0.552623 
0.217293 -0.419006 0.013302 0.506634 -0.205442 -0.820210 
-0.444586 0.543696 0.228137 -0.248442 0.482189 -0.688071 
-0.268093 0.964723 0.472945 -0.867719 0.153408 0.387971 
-0.721018 0.612183 0.003299 0.594963 0.338255 -0.663911 
-0.412781 -1.195681 0.078421 0.557909 -0.039060 -0.825473 
0.306474 0.253365 0.486721 0.407305 -0.231270 0.863663 
-0.432560 -0.002493 0.262704 -0.731586 -0.247607 0.615075 
-0.960633 -0.154993 -0.441877 -0.611373 -0.014657 0.679335 
0.852709 0.444793 0.053614 0.710991 -0.270498 0.643230 
-0.769047 0.711694 0.140254 -0.935530 -0.158660 0.306963 
-0.290785 2.695394 -0.276132 -0.722244 0.482575 0.479422 
-0.140951 0.930955 0.600193 -0.237664 -0.185277 0.948894 
1.309088 2.136580 0.689849 -0.276745 0.772547 -0.565954 
-0.734231 -0.343547 -0.260250 0.525845 0.105791 -0.751969 
-0.437746 -0.663684 0.060268 -0.716600 -0.057788 0.680957 
0.022198 -0.784122 0.106450 0.319089 -0.226916 -0.912755 
0.846741 1.347577 0.230775 -0.378711 0.464726 -0.790220 
0.442260 1.238765 0.594798 -0.859349 -0.183932 -0.242655 
1.361419 2.043283 0.586987 0.289445 -0.711708 0.627622 
-0.151204 0.905109 0.104601 -0.586131 0.418395 -0.671731 
0.491103 1.204225 0.502510 -0.855581 -0.174132 -0.293595 
-0.187788 0.221411 0.525262 -0.284327 -0.224588 0.919718 
-1.171014 1.763010 -0.541727 0.621134 -0.580941 -0.450070 
-0.582300 1.390302 0.523027 0.811549 0.251274 -0.503762 
0.518480 1.546191 0.546545 -0.285817 0.452744 -0.838735 
-0.760732 1.847780 0.124345 -0.806624 0.452010 0.325093 
0.556122 1.113235 0.495187 0.321203 -0.339868 0.787149 
1.123962 2.204411 0.877432 0.331194 -0.635693 0.672455 
-0.706253 1.745301 0.295274 0.594192 -0.400094 -0.546873 
1.387408 0.511503 -0.517702 -0.611405 0.029223 -0.770717 
-0.530576 2.041698 0.230215 -0.774245 0.570428 0.176285 
-0.087592 0.264906 -0.122367 -0.584952 0.044814 -0.800645 
-0.167208 -1.060113 0.132752 0.163170 -0.196051 -0.959911 
-0.363958 0.669165 0.493889 -0.674450 0.372901 0.561396 
-1.002477 1.937768 -0.553486 0.679049 -0.566569 -0.464918 
0.822078 1.152409 0.204626 -0.439761 0.405849 -0.792477 
0.451540 -0.769387 0.060310 -0.214470 0.000438 -0.939103 
-1.073521 1.018942 -0.321626 -0.824936 -0.011715 0.510095 
-0.587229 0.883516 0.419094 -0.774289 -0.223740 0.585989 
-1.269818 1.629346 -0.498737 0.757405 -0.358771 -0.520625 
-0.267708 2.611793 -0.160907 -0.740954 0.498351 0.439724 
1.171404 2.215017 0.805310 -0.289497 0.683498 -0.669538 
1.472843 1.999321 0.480672 -0.242055 0.561375 -0.776363 
1.360091 2.109922 0.646926 0.277017 -0.555385 0.778885 
0.854230 -0.232990 -0.191458 -0.427961 0.022351 -0.867167 
-0.303330 2.548933 -0.146265 -0.714554 0.535084 0.434685 
2.198374 2.290129 0.675912 -0.076483 0.763255 -0.640809 
-0.808173 0.645516 0.004849 -0.893310 -0.202559 0.396900 
0.858718 0.543018 -0.043199 -0.435206 0.243277 -0.780899 
0.589559 1.573345 0.505925 -0.289713 0.464884 -0.831350 
0.167538 -0.711550 0.269034 0.217922 -0.300215 0.924871 
0.443071 0.052742 0.314829 0.622924 -0.264543 0.726649 
-0.538303 -0.919781 -0.022030 0.439422 -0.101918 -0.884088 
0.177411 -0.441554 0.372983 0.228027 -0.232610 0.936855 
0.029288 0.851928 0.009919 0.425274 0.396306 -0.806474 
-0.403670 -1.082160 0.077168 -0.027049 0.089751 -0.859359 
0.872197 -0.530316 -0.174165 0.438055 0.075440 0.885081 
-0.651671 1.564287 0.603947 -0.964121 0.149236 0.192076 
-0.491633 -0.065126 0.133679 -0.796633 -0.221089 0.549458 
0.635015 -0.174578 -0.011092 -0.208669 0.079540 -0.854798 
-0.551767 -0.584358 -0.034692 0.470027 0.030142 -0.838974 
-1.471956 1.449309 -0.735672 0.781848 -0.163385 -0.544561 
0.554519 0.615235 0.260352 -0.240195 0.477398 -0.455968 
-0.762541 0.528855 -0.121825 0.546932 0.259166 -0.669675 
0.440834 1.633253 0.732392 0.751428 -0.242838 0.594211 
0.918097 2.117209 0.893146 0.404154 -0.585067 0.676909 
0.380452 1.722425 0.766350 -0.203490 0.733193 -0.642013 
2.182272 2.219538 0.598448 -0.084257 0.764952 -0.636107 
-0.196287 2.390893 0.295901 0.855497 -0.444009 -0.167406 
-0.673101 0.035781 -0.127540 0.412690 0.119261 -0.744270 
2.066226 1.982759 0.341979 -0.129033 0.692169 -0.702545 
1.514410 1.194887 -0.188764 0.026455 0.690504 -0.635233 
1.321371 1.873779 0.440333 0.316858 -0.627703 0.709472 
-0.617872 1.816868 0.482894 -0.759633 0.606379 0.035691 
0.067835 1.269745 0.449573 0.222495 0.804860 0.534744 
-0.324766 2.418624 -0.035684 0.796260 -0.480777 -0.357276 
-0.049244 1.103101 0.161782 -0.360777 0.420705 -0.820472 
1.611292 2.076229 0.530006 0.182531 -0.807675 0.548545 
1.032715 1.148311 0.051718 0.569516 -0.348148 0.672102 
-1.332944 0.928463 -0.728603 0.808958 0.261848 -0.511702 
0.563371 0.225864 0.038683 0.023937 0.148986 -0.879486 
-0.117780 -0.635417 0.068722 -0.012060 -0.223668 -0.969537 
-0.654914 0.310973 0.086107 -0.796266 -0.299783 0.513956 
-0.715051 1.179367 0.255922 0.686178 0.193074 -0.657188 
1.520764 0.946744 -0.583824 -0.639249 0.186307 -0.721272 
-0.600699 2.364365 -0.429038 -0.779156 0.455828 0.403311 
0.109183 -0.421572 0.386895 0.074189 -0.214798 0.972395 
-0.248683 0.795799 0.525623 -0.553802 0.196265 0.780834 
1.842428 2.208523 0.629096 -0.116746 0.818548 -0.554627 
0.762345 -0.431430 -0.140028 -0.385148 -0.003188 -0.894453 
0.869567 0.139339 -0.083821 0.696954 -0.164225 0.687723 
-0.704803 0.501286 -0.078699 0.445289 0.256057 -0.705898 
-0.221287 0.875401 0.119302 -0.622473 0.461538 -0.625062 
-0.574715 1.975578 0.254970 -0.758353 0.590749 0.168644 
2.166404 2.559296 1.020676 -0.061811 0.793157 -0.604351 
0.641203 0.605847 0.328545 0.220507 -0.118588 0.925073 
0.300261 -0.180241 0.072478 0.429808 -0.015281 -0.878252 
-0.780987 0.621088 -0.059493 0.677368 0.325931 -0.632372 
0.318688 -0.330926 0.336231 0.647878 -0.233354 0.718108 
1.564816 1.763586 0.254527 0.330668 -0.477108 0.767045 
-0.504329 -0.537681 -0.001637 0.331167 0.028999 -0.861073 
-0.869672 1.876113 -0.198728 -0.879745 0.268728 0.388050 
-0.683795 1.242646 0.427316 -0.959307 0.058566 0.247533 
-0.462484 1.712070 0.929391 0.594325 -0.790892 -0.033502 
1.169612 0.321304 -0.370937 -0.559232 0.067044 -0.790500 
-0.501564 0.595974 0.234697 0.032306 0.482165 -0.428504 
-0.608287 2.283271 -0.374759 0.674999 -0.575660 -0.444682 
-0.354385 -0.244754 0.295922 -0.706907 -0.216726 0.666624 
1.347254 1.210402 -0.284513 0.402395 -0.527697 0.710699 
0.358762 -0.737032 0.088696 0.010246 -0.021877 -0.942884 
-0.323090 0.512558 0.115489 -0.642045 0.218454 -0.687787 
1.622423 2.359931 0.830523 0.177707 -0.749000 0.632972 
-0.041205 -0.500139 0.364976 -0.126014 -0.240222 0.950637 
0.294791 0.905799 0.416316 0.904362 0.246227 0.246435 
-0.028642 1.408724 0.319416 -0.510223 0.766439 0.130599 
0.274446 0.987417 0.441288 0.918399 0.307170 0.214346 
-0.582807 0.534967 0.394358 -0.435901 -0.222996 0.839892 
1.454783 1.863982 0.373618 0.298122 -0.604451 0.722620 
-0.466035 -0.029706 0.200365 -0.788474 -0.255620 0.543677 
-1.016373 0.731032 -0.321669 -0.832576 -0.138457 0.507177 
-0.688652 0.109744 -0.139666 0.407673 0.130108 -0.732477 
-0.771037 1.799901 0.045744 0.519590 -0.647623 -0.416271 
0.328619 0.612513 0.071005 0.664088 0.261025 -0.680245 
0.333695 1.648270 0.779914 -0.328184 -0.827792 0.426343 
0.293820 0.065475 0.030705 0.563050 -0.013535 -0.801201 
0.238000 -1.107553 0.140550 0.106557 -0.103411 0.885178 
0.318030 -0.441290 0.117653 0.285112 0.008595 -0.934896 
0.776265 0.807977 0.210041 0.806760 -0.054002 0.579289 
-0.508747 -0.452750 -0.006669 0.291826 0.039737 -0.854606 
2.173539 2.608644 1.086604 -0.058514 0.801090 -0.594351 
0.720074 0.513004 0.041889 -0.285621 0.256120 -0.825557 
-0.746101 1.780123 0.247495 -0.923535 0.235786 0.276273 
-0.475536 -1.336497 0.078239 -0.717245 0.026961 0.433211 
0.566774 -0.050572 0.018119 0.017606 0.080166 -0.856623 
-0.896767 1.556425 0.155408 -0.887498 0.207259 0.355525 
-1.286618 1.342329 -0.485667 -0.813957 0.037894 0.530165 
0.214940 -0.857221 0.093046 -0.205346 -0.166942 -0.950699 
-0.989667 0.452010 -0.425976 0.752097 0.228262 -0.573874 
-0.581157 1.781156 0.570227 0.617939 -0.355651 -0.671193 
-0.750927 1.460934 0.385486 -0.934725 0.142029 0.268901 
0.236994 0.057064 -0.017129 0.615979 -0.037941 -0.778878 
-0.311817 0.322281 0.058326 -0.533927 0.082909 -0.795493 
-0.809971 2.182878 -0.536587 -0.578920 0.670105 0.375757 
-0.098925 -1.157212 0.175972 -0.326962 -0.058282 0.905822 
0.549120 -0.034687 0.147225 0.703062 -0.228493 0.666836 
-0.271564 0.980816 0.296429 -0.875909 0.383717 -0.230536 
0.167383 1.701194 0.895193 -0.790375 -0.318186 -0.479704 
0.543044 -0.891340 0.008063 -0.305847 -0.054405 -0.947157 
0.186181 1.174573 0.354784 0.831934 0.522217 -0.126713 
1.472499 2.244529 0.744774 0.223975 -0.657704 0.707601 
-0.738270 1.212872 0.317321 -0.942734 0.062872 0.286837 
1.587050 1.226452 -0.179906 0.001578 0.670089 -0.660512 
-0.743490 2.013963 -0.234107 0.815036 -0.385720 -0.403347 
0.533228 0.325960 0.060319 0.063395 0.175494 -0.899008 
0.513099 0.558377 0.201430 0.156895 0.460328 -0.727764 
-0.192583 -0.935437 0.177246 -0.195691 -0.185576 0.958773 
-0.530495 1.822951 0.732650 -0.669232 0.657085 0.342976 
1.378005 1.956268 0.469812 -0.272794 0.597000 -0.744352 
-1.469055 1.523687 -0.739190 0.776356 -0.269279 -0.534513 
0.039842 0.315655 0.575197 0.083564 -0.213264 0.969991 
0.332964 -0.344153 0.112679 0.317497 0.019783 -0.924333 
0.998645 1.709907 0.474532 0.474982 -0.499468 0.693146 
-0.074238 2.869231 -0.059577 -0.775405 0.403460 0.467168 
0.972148 1.019698 0.074166 0.650720 -0.245345 0.642993 
1.727881 1.604053 0.068137 -0.140414 0.706848 -0.682749 
0.273197 -0.606152 0.264844 0.533323 -0.251678 0.788500 
0.518382 0.968687 0.460544 -0.845444 -0.044148 -0.491929 
-0.193897 -0.635739 0.079925 -0.028760 -0.156207 -0.975621 
-0.747734 0.637288 0.138699 -0.746986 -0.147121 0.552374 
-0.885660 0.361750 -0.282022 0.735466 0.186840 -0.617697 
-0.124310 3.205512 -0.344299 -0.851529 0.277539 0.435294 
1.265324 1.380497 -0.008829 0.243569 -0.656456 0.645478 
-0.306533 3.069994 -0.570999 0.784948 -0.343460 -0.514876 
1.438223 2.290539 0.798829 -0.204993 0.722067 -0.656380 
1.180127 0.882633 -0.184825 0.613284 -0.335431 0.681212 
-0.883162 0.154055 -0.345828 0.668666 0.178417 -0.643987 
-1.281861 1.431433 -0.460922 -0.811954 0.091098 0.528537 
-0.926849 0.138444 -0.402001 -0.774807 -0.191751 0.550654 
-1.089646 1.111338 -0.342873 0.791265 -0.017974 -0.559672 
0.807826 1.950646 0.819401 0.463829 -0.535678 0.658588 
-0.454644 0.330082 0.060934 -0.055877 0.201781 -0.878803 
-0.791692 1.879526 0.007308 -0.815518 0.446594 0.341797 
-0.827985 1.230447 0.160655 -0.914353 0.090380 0.344495 
2.139447 2.008608 0.362513 0.130743 -0.720202 0.678323 
-0.060007 -0.185951 0.438089 -0.099308 -0.204370 0.970845 
-0.165046 0.577993 0.591356 -0.233308 -0.101584 0.964550 
0.297742 0.929205 0.337780 0.921922 0.348697 -0.081838 
1.457398 2.348524 0.863406 0.217320 -0.730047 0.639990 
-0.618403 1.754340 0.660509 -0.679569 0.689152 0.201134 
0.580505 -0.612083 -0.001654 -0.351969 0.024052 -0.907337 
0.464627 0.372437 0.426942 0.490773 -0.236955 0.810160 
-1.281028 1.878059 -0.861541 -0.739859 0.468944 0.454185 
-1.233706 0.790577 -0.653758 -0.836049 -0.277435 0.459205 
-0.837728 1.503957 0.243472 -0.906842 0.176619 0.321924 
0.704045 0.148197 -0.035305 -0.161382 0.122939 -0.819704 
0.157844 1.059364 0.474590 0.560920 0.684393 0.233525 
-0.002030 -0.721800 0.077533 -0.673510 -0.185051 -0.700395 
1.358130 1.050923 -0.382627 0.532749 -0.426527 0.715321 
1.544743 2.372297 0.852555 -0.155672 0.732010 -0.662972 
-0.155566 -0.709993 0.270751 -0.211840 -0.299880 0.927178 
-0.767651 -0.282681 -0.296078 0.541483 0.120252 -0.733975 
-0.517321 0.623735 0.347005 0.336805 0.644926 -0.354549 
-0.684713 0.655405 0.051930 0.588118 0.450762 -0.639800 
-0.319790 -1.259861 0.092759 0.653245 -0.465844 0.274821 
-0.607811 2.670398 -0.722256 -0.798506 0.385930 0.450108 
-0.817087 1.964673 -0.218645 -0.505551 0.785982 0.311778 
0.627187 1.516177 0.450463 -0.305001 0.466580 -0.822905 
0.058044 -0.856852 0.245522 0.287875 -0.183037 0.929075 
0.696443 0.731495 0.221446 -0.893288 0.188062 -0.344725 
-0.345552 -1.131274 0.071622 0.233987 0.021656 -0.960719 
-0.632503 0.201554 -0.096764 0.259541 0.147493 -0.765084 
-1.193534 1.806879 -0.637775 0.611933 -0.609980 -0.441479 
-0.385413 -0.160617 0.074449 -0.150345 0.070395 -0.911623 
0.424823 1.512791 0.713847 0.570968 -0.153816 0.795526 
2.201308 2.173851 0.544581 -0.086557 0.761394 -0.640116 
-0.369577 2.765169 -0.433684 -0.683637 0.489192 0.514904 
1.678590 2.159183 0.603191 0.161449 -0.548534 0.813911 
1.642826 1.364027 -0.090728 -0.153879 0.571783 -0.753795 
0.141116 1.754444 0.959220 -0.354179 0.777457 -0.432429 
0.218319 -0.846037 0.201337 0.200609 -0.234602 0.947180 
-0.599253 0.450584 0.319061 -0.717223 -0.290387 0.572993 
0.447027 1.525463 0.600096 -0.286307 0.432485 -0.848873 
1.312135 1.266747 -0.114493 -0.183970 0.626994 -0.678397 
0.075434 -0.587121 0.333330 0.188475 -0.288041 0.930429 
-0.685179 2.718095 -0.881306 -0.761167 0.427652 0.483177 
1.504692 1.566712 0.112621 0.438313 -0.243675 0.843797 
-0.199936 0.205169 -0.044221 -0.652611 0.007370 -0.746161 
0.157280 -0.511296 0.349972 0.181034 -0.282060 0.934250 
0.572485 1.577808 0.581380 0.698148 -0.398712 0.493403 
-1.443303 1.330165 -0.682782 0.792951 0.018766 -0.562553 
0.586116 0.041283 0.145711 0.702765 -0.240450 0.662528 
2.233597 2.575951 1.038062 0.068738 -0.796814 0.599374 
-0.305190 0.420135 0.052814 -0.595150 0.079116 -0.759732 
-0.801335 0.784370 0.061315 -0.908184 -0.116387 0.373346 
1.294939 1.089536 -0.296573 -0.489577 0.447708 -0.732713 
1.842176 1.711164 0.127387 0.253412 -0.552594 0.755418 
-0.077149 0.718740 0.564911 -0.084040 0.019432 0.993092 
-0.292071 -0.259719 0.362412 -0.615990 -0.234006 0.724201 
-0.947596 0.264950 -0.417019 0.696731 0.206065 -0.610087 
-0.558817 1.705280 0.749219 -0.425194 -0.382735 0.749313 
-0.080318 1.009071 0.127969 -0.439782 0.451734 -0.752892 
1.588584 2.529259 1.049161 0.039839 -0.518526 0.829392 
-0.433601 -0.870332 0.061312 -0.637681 -0.032314 0.762774 
-1.073170 0.363948 -0.594088 0.713586 0.255715 -0.558403 
-0.312677 2.594531 -0.221177 0.801936 -0.400089 -0.430874 
0.933512 1.505869 0.280429 0.449228 -0.582276 0.559956 
0.642070 0.176898 0.155106 0.700822 -0.266612 0.654322 
-0.838530 0.787958 -0.003111 -0.896269 -0.106046 0.395601 
-0.291149 0.241337 0.483565 -0.449318 -0.232325 0.832492 
0.409847 0.492846 0.237999 0.404212 0.455992 -0.725205 
0.981348 1.093389 0.050839 -0.478521 0.402107 -0.759668 
0.120015 0.849561 0.593275 0.265322 -0.163237 0.945999 
0.914500 1.387541 0.184814 -0.371670 0.489541 -0.780740 
-0.659753 -0.449313 -0.170627 0.500647 0.074642 -0.788400 
-1.094541 0.615915 -0.516097 -0.835534 -0.265399 0.466193 
-1.498908 1.374924 -0.766254 -0.799349 0.067879 0.534563 
-0.807915 0.082948 -0.243581 0.654758 0.148239 -0.676404 
-0.732574 -0.269042 -0.209380 -0.728222 -0.106958 0.635598 
-1.047640 2.153875 -0.874268 0.709428 -0.520216 -0.466185 
-0.726076 1.702017 0.352483 0.657049 -0.258973 -0.612852 
1.930043 1.974404 0.350329 -0.150236 0.630598 -0.746597 
-0.680826 -0.639156 -0.166415 -0.595559 0.048422 0.758338 
-0.679301 1.158110 0.411292 -0.931156 -0.019230 0.323723 
-0.964857 0.144192 -0.470375 -0.771852 -0.208071 0.540589 
0.355063 0.478325 0.511329 0.340802 -0.133086 0.925381 
0.391694 -0.655844 0.085964 -0.012861 0.001405 -0.940294 
1.673273 2.296685 0.750886 -0.140861 0.771163 -0.613029 
-0.634778 0.525790 0.341367 -0.663016 -0.224542 0.641820 
-0.441580 -0.103024 0.034012 -0.054876 0.081358 -0.877520 
-0.733882 -0.575179 -0.210294 0.501460 -0.067874 -0.808834 
1.877298 1.908510 0.283168 0.178733 -0.710753 0.671791 
0.272736 -0.787471 0.081329 -0.133833 -0.131440 -0.968525 
-1.322978 1.218988 -0.562426 0.795407 0.061556 -0.566886 
-0.147786 -0.722154 0.079197 0.097506 -0.206695 -0.964773 
1.316832 1.579294 0.219306 0.368793 -0.491492 0.742988 
-0.621655 2.712504 -0.781096 0.702058 -0.469404 -0.509572 
-1.249092 1.784204 -0.690223 0.641094 -0.569415 -0.455206 
-0.273721 -0.560677 0.041604 -0.197754 -0.149361 -0.863044 
1.340214 0.699598 -0.424967 0.714241 -0.120484 0.683355 
-0.759179 1.948951 -0.162969 0.857527 -0.319521 -0.384023 
-0.726930 2.087789 -0.267324 -0.603334 0.682871 0.357761 
0.732855 -0.643398 -0.101188 0.489563 0.026865 0.860341 
0.479112 -0.072109 0.209206 0.690216 -0.242586 0.673360 
-0.784333 2.404577 -0.783397 0.700494 -0.516336 -0.484906 
-0.476289 -0.908153 0.012368 -0.644353 0.019364 0.761908 
0.285725 -0.519658 0.292100 0.580883 -0.228810 0.769907 
0.945007 0.789364 0.036919 0.751669 -0.133075 0.614603 
1.564445 2.496796 0.986440 -0.125804 0.746252 -0.653512 
-0.789184 0.854984 0.105392 -0.917769 -0.077093 0.356675 
-0.209785 -0.772587 0.085701 0.081750 -0.139978 -0.964600 
-0.688990 0.549726 0.224442 -0.803515 -0.235452 0.467792 
-0.821301 1.576648 0.238549 0.726485 -0.110650 -0.642603 
0.587506 -0.699002 -0.016752 0.569469 -0.048193 0.815423 
-0.579127 1.409299 0.610460 -0.294032 -0.395783 0.816802 
1.190092 0.556627 -0.316078 -0.641910 0.149083 -0.733985 
-0.300415 0.890101 0.283956 -0.886394 0.356801 -0.225694 
1.947909 2.576643 1.078000 0.092463 -0.759254 0.637401 
0.441916 0.612065 0.491453 -0.207250 -0.341531 0.878712 
0.336786 0.723397 0.207331 0.837548 0.390258 -0.316253 
-0.334312 2.952713 -0.526169 -0.764767 0.392775 0.499015 
-0.815531 0.007110 -0.249248 -0.764781 -0.143536 0.590277 
1.696754 2.387182 0.852983 0.166667 -0.771744 0.603361 
-0.634080 1.616985 0.695898 -0.740269 -0.172156 0.631406 
1.229123 2.023318 0.611748 -0.292648 0.485919 -0.817792 
-0.709842 1.687202 0.537814 -0.943743 0.201195 0.218555 
-0.116130 1.239484 0.269760 -0.669107 0.533255 -0.476705 
-1.140405 1.058723 -0.386622 -0.822931 -0.030945 0.517150 
0.039805 0.067728 0.501448 0.113800 -0.254210 0.958295 
1.094191 0.965780 -0.083533 -0.536853 0.365166 -0.730771 
0.207905 -0.756902 0.087994 -0.043852 -0.134909 -0.967039 
1.544847 1.705235 0.212139 0.370568 -0.388057 0.795271 
0.253147 -0.696576 0.080873 -0.140239 -0.184746 -0.960334 
-0.098498 2.877872 -0.143186 0.769505 -0.394331 -0.501861 
-0.424884 -0.033743 0.051333 -0.091273 0.101026 -0.890425 
0.028713 0.393768 0.588583 0.069944 -0.179603 0.977375 
-0.213283 2.528882 0.023485 0.761000 -0.508198 -0.397302 
1.494983 1.740890 0.257882 0.361706 -0.431349 0.779803 
0.417436 -0.218302 0.202984 0.667126 -0.197208 0.712253 
0.758038 -0.719776 -0.103135 -0.381439 -0.091236 -0.916669 
-0.425170 -0.354676 0.089296 -0.796068 -0.131468 0.586739 
0.449341 1.466932 0.658278 0.749151 -0.165803 0.597844 
0.782154 -0.227565 -0.106360 -0.447104 0.064583 -0.850532 
1.278613 1.162657 -0.251291 -0.464800 0.473300 -0.736368 
-1.320776 1.146272 -0.576720 0.795336 0.101609 -0.569836 
-0.212972 1.028647 0.574395 -0.594156 -0.237628 0.689952 
1.078665 1.200571 0.022277 0.524849 -0.408769 0.690159 
-0.018001 -0.941920 0.220458 -0.434100 -0.121847 0.886130 
-0.423431 0.328526 0.435623 -0.516823 -0.243100 0.799776 
-1.389200 1.197972 -0.636508 0.796560 0.113474 -0.571104 
-0.398320 2.033007 0.489883 0.777714 -0.427121 -0.447917 
-1.293818 1.828596 -0.812303 -0.756805 0.432148 0.463615 
0.293144 0.326186 0.512864 0.345718 -0.199824 0.902668 
0.457490 1.703508 0.786391 0.526966 -0.545796 0.641208 
0.255685 0.293030 -0.017863 0.648935 0.017060 -0.757435 
1.320656 0.954907 -0.358973 0.573845 -0.381678 0.702142 
0.386489 -0.191105 0.096060 0.258501 0.052689 -0.913261 
0.653853 0.240019 -0.004464 -0.095453 0.148309 -0.846191 
-0.178043 0.678295 -0.015812 -0.530659 0.252281 -0.774238 
-0.695349 2.536539 -0.750260 -0.769159 0.439083 0.450760 
-0.612619 0.959701 0.412841 -0.660949 -0.295189 0.676298 
1.823433 2.302448 0.737827 -0.118394 0.784596 -0.600762 
-0.617137 1.703268 0.564957 0.650751 -0.178259 -0.667432 
-0.399836 -0.520724 0.113098 -0.742596 -0.118380 0.645405 
1.435686 1.504464 0.070822 -0.261864 0.466351 -0.821322 
1.001333 1.593749 0.348961 0.248693 -0.811505 0.405218 
0.192056 0.884303 0.111086 0.604896 0.441997 -0.647835 
-0.303386 -0.547219 0.248280 -0.677843 -0.213869 0.700322 
-0.619257 1.083183 0.446167 -0.520388 -0.353595 0.746232 
0.590336 0.104854 0.176509 0.698775 -0.263222 0.657556 
0.800767 0.370418 0.073952 0.709083 -0.266298 0.646643 
-0.890132 0.579933 -0.162907 -0.858797 -0.214392 0.459799 
-0.361919 2.868182 -0.504151 0.808886 -0.337064 -0.474749 
1.453193 2.102634 0.621143 0.226217 -0.581788 0.774308 
-0.062696 2.951646 -0.126512 0.915479 -0.233319 -0.300744 
0.476018 -0.977963 0.043239 -0.313429 -0.042142 -0.944644 
-1.238793 0.752728 -0.740163 0.817791 0.327686 -0.461241 
-0.583329 0.252161 -0.055163 0.166582 0.164705 -0.798178 
-0.308211 -0.228034 0.121773 -0.293796 0.049791 -0.947765 
-0.520828 0.192539 -0.009892 0.059933 0.153692 -0.836270 
-0.961533 1.164415 -0.097224 -0.862377 0.070697 0.438648 
-0.329858 -0.505769 0.113009 -0.123700 0.010522 -0.951354 
-1.225507 1.838479 -0.729013 0.629994 -0.596904 -0.445961 
-1.379815 1.821697 -0.937850 0.712309 -0.494862 -0.480551 
1.125875 0.770853 -0.142498 0.661932 -0.282037 0.664829 
-0.203992 2.674463 -0.115566 -0.772729 0.461374 0.426302 
0.394429 -0.788926 0.135500 0.556801 -0.121326 0.812011 
-1.103646 1.662392 -0.286692 0.748509 -0.355608 -0.516933 
-0.934130 0.292120 -0.351798 -0.799135 -0.195432 0.535209 
1.198846 2.240001 0.874369 0.303990 -0.654827 0.671503 
0.439246 -1.319080 0.091181 0.662721 0.077162 0.496121 
1.652507 1.476780 0.010116 0.341482 -0.437655 0.804072 
-0.345898 0.791294 0.360086 -0.891865 0.369171 0.051695 
0.458184 -0.001972 0.269267 0.651719 -0.254752 0.703996 
-0.288564 3.200173 -0.608673 0.797056 -0.312244 -0.515183 
-0.501832 1.752979 0.740877 0.785021 -0.542019 -0.254071 
-0.030100 0.769093 0.581348 -0.090236 -0.141197 0.975837 
1.754472 1.499900 -0.019254 -0.152191 0.684520 -0.699835 
-0.090675 0.462088 0.595089 -0.145862 -0.140386 0.973148 
-0.976589 1.346570 -0.064595 -0.863160 0.154648 0.430402 
0.367943 0.657857 0.211192 0.913075 0.197161 -0.291529 
0.916673 0.465055 -0.011664 0.718481 -0.247861 0.644847 
0.871233 1.573002 0.350960 -0.358627 0.455238 -0.808939 
-0.151048 0.065173 -0.070416 -0.597947 -0.013781 -0.789900 
-0.520600 2.136635 0.036794 0.643717 -0.610948 -0.422045 
0.634335 0.503168 0.362507 0.587373 -0.177505 0.735326 
-0.540576 0.319214 -0.017580 0.083622 0.185787 -0.827689 
-1.302368 1.734251 -0.701939 0.668248 -0.524028 -0.470529 
-0.367056 0.570478 0.240043 -0.560006 0.460590 -0.667885 
-0.331676 0.378579 0.113735 -0.455616 0.179029 -0.819655 
-0.096324 -0.248899 0.421938 -0.130891 -0.192069 0.970267 
0.144184 -0.350550 0.395080 0.171146 -0.171238 0.970042 
-0.067160 -0.202843 -0.086944 -0.455887 -0.162022 -0.850504 
0.381385 -0.242292 0.264644 0.658303 -0.215678 0.716188 
-0.685143 -0.284993 -0.159202 0.550676 0.089897 -0.760231 
0.112086 -0.257776 0.419432 0.150038 -0.189665 0.968734 
1.565632 1.467585 0.008224 -0.248013 0.495492 -0.811512 
0.079836 -0.349327 -0.061760 0.416754 -0.244677 -0.858289 
-0.285401 2.302547 0.318781 -0.707003 0.617727 0.307821 
1.385503 1.786383 0.336120 0.355508 -0.496943 0.756845 
0.938870 0.554427 -0.096313 -0.515668 0.231867 -0.755627 
-0.226020 -0.955457 0.104648 0.223856 -0.160041 -0.950397 
1.613279 1.291224 -0.132410 -0.039059 -0.795562 0.560106 
-0.802929 1.784169 0.115593 -0.904820 0.250708 0.318608 
-0.162097 2.455211 0.272506 -0.561349 0.615957 0.531648 
-0.445755 -0.460273 0.035197 0.138895 0.030785 -0.888130 
-0.643256 0.810567 0.313358 -0.670940 -0.231916 0.675587 
0.634532 1.016475 0.409043 0.742029 -0.057104 0.638459 
0.850314 1.617902 0.478628 0.382099 -0.645501 0.483057 
0.108307 0.378277 -0.088216 0.550894 0.102786 -0.815645 
1.365785 1.334990 -0.054300 0.096387 -0.736027 0.586589 
0.251220 0.920754 0.204218 0.750152 0.395898 -0.471968 
-1.068204 0.282983 -0.605192 -0.783911 -0.252895 0.502309 
-1.220366 1.136433 -0.473911 0.793570 0.046621 -0.565196 
1.159369 2.293999 0.925862 0.305829 -0.658260 0.684575 
-0.776626 1.686962 0.286150 0.681191 -0.243685 -0.612768 
0.108744 -0.409807 -0.035271 0.406837 -0.273439 -0.855145 
1.044724 0.146139 -0.285073 -0.523741 0.066946 -0.809398 
-1.285346 0.942327 -0.572201 -0.823346 -0.186990 0.534663 
-0.335256 0.328648 0.487921 -0.417340 -0.216754 0.864733 
-0.379019 0.398224 0.192197 -0.314845 0.337735 -0.821266 
-0.289406 0.899084 0.456101 -0.885165 0.177103 0.417727 
0.419847 0.146358 0.389973 0.576343 -0.281952 0.762698 
-1.436422 1.173848 -0.691421 0.797378 0.155697 -0.574496 
1.217628 1.293773 -0.128318 -0.421626 0.513541 -0.742884 
1.446239 2.039013 0.550187 0.251458 -0.739474 0.606641 
1.145236 1.292284 -0.033439 -0.425006 0.500062 -0.742719 
-0.321386 -0.337467 0.333347 -0.696707 -0.229422 0.678543 
0.132037 -0.822332 0.239100 0.179591 -0.236362 0.948825 
1.705049 2.246243 0.695070 0.157249 -0.623417 0.750270 
-0.789211 2.345584 -0.727131 0.723797 -0.505805 -0.467171 
-0.456579 -0.207819 0.105018 -0.802106 -0.173433 0.564526 
0.165584 -0.976809 0.117460 -0.147471 -0.197074 -0.959698 
-0.240788 2.583507 -0.089900 0.755182 -0.484265 -0.435841 
-0.746484 1.919476 -0.091479 0.875043 -0.304094 -0.360423 
-0.406583 -0.934653 0.080910 -0.557899 -0.057555 0.818871 
1.369472 1.641218 0.224655 0.440572 -0.298331 0.821972 
0.417359 0.464195 0.474899 0.398532 -0.095139 0.893556 
-0.425678 -1.406707 0.053738 0.358745 -0.825287 -0.160609 
0.319655 -0.661140 0.050817 0.181527 -0.081224 -0.888467 
-0.492841 0.356579 0.366134 -0.650684 -0.325937 0.635025 
1.267817 2.349341 0.942388 0.275082 -0.709630 0.633868 
0.608076 -0.878147 -0.023694 -0.353651 -0.068680 -0.929192 
-0.880946 1.368873 0.115239 -0.895511 0.145869 0.364938 
0.842338 0.638362 0.032158 -0.517639 0.311131 -0.777113 
1.228073 1.589917 0.278108 0.308070 -0.662417 0.658124 
-0.704086 2.133274 -0.345309 0.744509 -0.499974 -0.429712 
-0.425194 2.185676 0.230263 -0.665483 0.654148 0.311781 
-0.876087 0.805603 -0.063415 -0.882394 -0.096640 0.418408 
0.049580 0.791839 0.587213 0.132327 -0.192169 0.963485 
0.996621 0.753739 -0.061960 -0.601875 0.270112 -0.735407 
0.949415 0.650525 -0.050526 -0.601938 0.267410 -0.744441 
-0.400089 -0.447904 0.113293 -0.766936 -0.129057 0.618421 
0.361161 -1.228245 0.068182 0.005273 0.135448 -0.926640 
-0.881334 0.254363 -0.309951 0.701293 0.181372 -0.632245 
-0.371717 0.466297 0.249806 -0.441005 0.433824 -0.748128 
0.644748 -0.599233 -0.050415 0.579060 -0.051500 0.807045 
0.821580 1.242107 0.269430 0.661860 -0.246024 0.610718 
0.162523 0.025223 -0.063374 0.573823 -0.030550 -0.809148 
-0.355722 -0.774052 0.160919 -0.606395 -0.130249 0.771489 
-0.193730 1.103925 0.243190 -0.696831 0.430865 -0.503197 
0.737564 1.919700 0.769091 -0.214059 0.746264 -0.623132 
0.072984 -0.698527 0.087240 0.096249 -0.235463 -0.953510 
1.426552 1.543876 0.132725 0.184622 -0.681984 0.639970 
-1.372814 0.951937 -0.791346 0.813651 0.281087 -0.492685 
0.094887 0.429954 0.591738 0.143383 -0.154214 0.972087 
1.706839 1.811561 0.249222 0.266458 -0.572835 0.740236 
-0.303464 2.751130 -0.334646 -0.729021 0.464627 0.485130 
-1.118829 0.960264 -0.384397 -0.825576 -0.073022 0.515924 
-0.289939 2.483971 0.036432 -0.735177 0.530280 0.382028 
-0.229423 0.002060 -0.014889 -0.641891 -0.044739 -0.754477 
0.539329 1.246918 0.458440 -0.384539 0.374399 -0.833760 
-0.955455 0.039295 -0.489798 -0.750595 -0.194981 0.557309 
-0.164909 1.172575 0.638477 0.470681 0.414162 0.729571 
0.266555 0.709314 0.544049 0.454168 0.280225 0.828507 
1.017983 -0.152276 -0.281208 0.543857 0.010084 0.818040 
-0.371393 0.473303 0.500822 -0.390976 -0.169986 0.896865 
0.322927 0.849728 0.364936 0.900707 0.350732 0.075769 
-1.376043 1.578469 -0.612820 0.778597 -0.313096 -0.532288 
-0.235901 0.642716 0.567524 -0.319160 0.303147 0.862871 
-0.794814 -0.424742 -0.282042 0.534934 -0.014563 -0.766807 
1.635782 1.570789 0.078200 0.373128 -0.351423 0.816341 
-0.874370 2.116170 -0.545871 -0.488400 0.749874 0.341000 
1.007329 0.686159 -0.090992 -0.627277 0.244755 -0.729163 
-0.722648 1.603569 0.417453 0.707469 -0.082002 -0.677448 
0.222636 -0.109939 0.423841 0.411154 -0.245954 0.840751 
-1.115760 1.630744 -0.215462 -0.817709 0.284035 0.492932 
-0.469486 2.203544 0.025911 0.591571 -0.637835 -0.464418 
-0.397475 0.386894 0.474254 -0.426821 -0.210795 0.872206 
0.517890 1.252239 0.566697 0.280050 -0.323220 0.766662 
-0.947075 1.081146 -0.098822 -0.864946 0.032053 0.437464 
1.635700 1.720421 0.183010 -0.133810 0.735250 -0.657465 
1.751027 2.290143 0.736814 0.151099 -0.671431 0.710091 
1.360906 1.722419 0.270042 -0.177951 0.753829 -0.616488 
1.677332 1.645049 0.123603 0.343160 -0.402748 0.798000 
-0.320601 -0.127801 0.127200 -0.269720 0.084089 -0.954155 
0.861658 0.996944 0.173151 0.719654 -0.139026 0.608715 
1.175218 2.053186 0.657396 -0.292756 0.700270 -0.643080 
0.141118 0.783481 0.571817 0.237225 -0.083447 0.952081 
1.137648 1.178844 -0.039843 0.500713 -0.452540 0.705448 
-0.236662 0.097667 -0.014534 -0.661362 -0.024716 -0.738965 
1.576470 0.953339 -0.636329 -0.670775 0.117481 -0.720170 
-1.291240 1.785328 -0.755069 0.663741 -0.542856 -0.464217 
0.254307 0.851520 0.146268 0.672218 0.453554 -0.546121 
-0.417113 0.652154 0.406445 -0.369481 0.826014 0.036553 
-1.258483 1.979388 -0.971233 0.651725 -0.608330 -0.442292 
0.134335 0.532296 0.598415 0.198949 -0.111111 0.971516 
-1.099417 2.106671 -0.893360 0.705109 -0.527815 -0.463052 
1.396620 1.282370 -0.101528 0.057349 -0.741831 0.582613 
-0.770862 1.729536 0.202750 0.620082 -0.393124 -0.540625 
-0.712240 0.260129 -0.155592 0.397223 0.156903 -0.715928 
-0.540751 0.303419 0.279644 -0.774287 -0.371590 0.508075 
-0.330484 0.706616 0.125132 -0.764374 0.362082 -0.463689 
-0.900484 -0.118027 -0.419455 -0.704790 -0.127044 0.610623 
0.324117 0.558246 0.535134 0.439584 -0.056324 0.870699 
0.873557 0.797892 0.056698 -0.572288 0.272971 -0.760923 
1.425134 0.813765 -0.501878 -0.681724 0.120474 -0.717171 
-0.055960 -0.333747 0.398405 -0.065440 -0.175496 0.978776 
-0.569982 1.110086 0.515435 0.932722 0.010611 -0.227101 
-0.174829 0.100281 0.489651 -0.275291 -0.254233 0.918100 
1.329482 1.147365 -0.323273 -0.468105 0.476404 -0.735663 
-0.908157 -0.034736 -0.443458 0.607017 0.173043 -0.660624 
-1.154019 2.112909 -0.982696 -0.692308 0.570633 0.438754 
1.889585 1.387914 -0.140502 -0.211567 0.584136 -0.781477 
1.477918 1.100712 -0.409180 -0.245655 0.596313 -0.669043 
-0.863725 2.162215 -0.610085 0.761108 -0.426671 -0.479477 
1.062553 1.744772 0.468719 0.433419 -0.528471 0.709535 
-0.407060 0.036903 0.320545 -0.681566 -0.246157 0.675320 
0.039466 -0.036944 0.477156 0.103534 -0.233505 0.965103 
-0.663321 2.215321 -0.387011 0.726840 -0.539098 -0.421966 
-0.690956 2.386160 -0.615747 0.662837 -0.556330 -0.483137 
0.139499 1.203793 0.265461 0.678938 0.519362 -0.457438 
1.003954 1.411711 0.140186 0.501398 -0.483010 0.677214 
-1.106034 1.275631 -0.301270 -0.818420 0.112768 0.510616 
-0.571340 1.312669 0.587940 -0.413113 -0.344469 0.757425 
-0.538608 2.392455 -0.379265 0.588329 -0.623923 -0.492862 
1.116779 0.656870 -0.163680 0.708038 -0.232731 0.652654 
-0.552107 1.862906 0.484531 0.604599 -0.431913 -0.626452 
-1.171845 1.129605 -0.405753 -0.820770 -0.010561 0.519828 
-0.848715 0.610394 -0.078647 -0.876733 -0.210572 0.427435 
-0.550269 0.399689 0.376067 -0.662199 -0.316420 0.640320 
-0.536805 -0.656613 -0.023603 -0.688820 -0.033366 0.709107 
0.816549 1.906398 0.756501 0.471712 -0.505200 0.689741 
1.126649 0.282879 -0.317046 0.668884 -0.093364 0.725854 
-0.645136 1.681094 0.658764 -0.964263 0.183429 0.175339 
-0.282556 -0.112489 0.053464 -0.478673 -0.011321 -0.843628 
-1.001227 1.282179 -0.172984 0.767414 -0.063336 -0.572286 
-1.076238 1.643122 -0.152490 -0.829502 0.277938 0.467658 
1.484510 0.848264 -0.558978 -0.680450 0.101155 -0.720799 
1.657513 1.923463 0.354372 -0.214154 0.626991 -0.738006 
0.269759 0.047354 0.441289 0.410947 -0.261582 0.848166 
-0.949173 0.461702 -0.355257 0.760106 0.213755 -0.585431 
-0.468494 0.401387 0.099530 0.043866 0.273195 -0.842571 
0.173303 -0.662826 0.081894 0.077105 -0.140338 -0.980255 
-0.511616 -0.219213 0.025459 -0.800669 -0.142123 0.575977 
1.423937 1.754592 0.271389 -0.187933 0.722536 -0.653918 
0.052477 1.076167 0.154900 0.345742 0.451413 -0.809576 
0.553752 1.078840 0.390263 -0.668763 0.146340 -0.689908 
-0.851628 2.053983 -0.429196 -0.457576 0.788368 0.317914 
-0.152544 -0.006724 -0.066029 -0.588044 -0.030319 -0.797754 
-0.729824 0.986440 0.162761 0.692993 0.268175 -0.646454 
0.346049 -0.559675 0.205864 0.632060 -0.194449 0.745000 
0.648130 -0.265517 0.002237 0.661066 -0.130610 0.726036 
-0.120661 0.193280 -0.096821 -0.596656 0.021601 -0.791128 
0.783682 0.584375 0.166696 0.772460 -0.182025 0.596184 
-0.313312 2.261182 0.239585 0.758371 -0.498877 -0.407583 
0.771907 0.503540 0.156343 0.731141 -0.245932 0.625030 
-0.559233 0.464838 0.060191 0.227841 0.274280 -0.787029 
0.187626 1.182378 0.655582 -0.521359 0.440773 0.680535 
0.640321 -0.081588 0.022760 0.711280 -0.170971 0.679185 
0.469684 -0.604098 0.070498 0.628944 -0.100938 0.759909 
0.145287 1.118025 0.628305 -0.269971 0.100339 0.898100 
-0.434303 0.464739 0.181455 -0.179737 0.384803 -0.767566 
-0.723484 1.616745 0.492655 -0.940778 0.183023 0.234152 
-0.265780 2.365702 0.250953 -0.716481 0.595691 0.329014 
-0.763118 1.122849 0.239052 -0.936421 0.041404 0.312880 
1.684516 1.540239 0.029461 -0.138099 0.709927 -0.677754 
0.555793 0.141695 0.238715 0.691287 -0.294077 0.652783 
-0.917841 1.754729 -0.143664 0.591775 -0.597977 -0.418591 
-0.349352 -0.011569 0.389261 -0.614590 -0.255429 0.733339 
0.508373 1.700577 0.723721 0.712689 -0.492664 0.454952 
0.913412 2.014181 0.824236 0.423177 -0.565139 0.659553 
-1.062010 0.779392 -0.389727 0.790636 0.154255 -0.572254 
0.027301 -0.449361 0.381230 0.072602 -0.214875 0.967114 
1.289460 2.401185 0.994992 0.146718 -0.529612 0.816429 
-0.473270 2.407152 -0.280638 0.545605 -0.662370 -0.501485 
0.390961 1.582689 0.748952 0.387013 -0.227854 0.794625 
-0.369462 2.562431 -0.284532 0.836210 -0.346424 -0.413656 
0.604047 0.527960 0.121104 -0.144882 0.346783 -0.821817 
-0.025744 0.136019 0.522450 -0.094547 -0.244336 0.962516 
0.943746 2.094839 0.820712 -0.252427 0.713290 -0.648822 
-0.290678 -0.439914 0.078705 -0.326701 -0.042018 -0.895818 
-0.355357 -0.319897 0.253727 -0.732924 -0.198016 0.644300 
-0.720144 1.892594 0.023010 0.832574 -0.307963 -0.415395 
0.870152 1.736729 0.562948 0.527744 -0.522537 0.618022 
-0.608222 0.995595 0.348570 0.952207 0.001937 -0.263841 
0.258395 1.030593 0.346254 0.893031 0.391207 -0.090250 
-0.458009 -0.725933 0.033684 0.327099 0.000529 -0.894636 
1.859912 1.315645 -0.185296 -0.144658 0.610909 -0.745814 
-0.139586 2.538602 0.193405 -0.673774 0.579447 0.451012 
-0.444931 -0.114048 0.182512 -0.785762 -0.222350 0.561960 
-0.538316 2.639472 -0.597390 0.610073 -0.559015 -0.525857 
1.344496 0.860936 -0.406248 0.633583 -0.292586 0.690299 
-1.123949 0.557856 -0.594932 -0.823049 -0.277799 0.463943 
0.188324 -0.268211 0.399136 0.302329 -0.203006 0.900248 
-0.699217 2.437820 -0.676417 -0.774237 0.444370 0.432623 
1.286609 2.076900 0.629036 -0.281542 0.553422 -0.772335 
1.069937 0.717779 -0.101658 0.710105 -0.215986 0.644714 
1.248312 0.590165 -0.350768 0.709763 -0.132027 0.683983 
-0.223464 0.864645 0.537516 -0.648430 0.028143 0.751971 
-0.336982 0.530504 0.523755 -0.418615 -0.113080 0.883537 
0.611855 1.458133 0.499097 0.734388 -0.300087 0.542569 
-0.723979 2.625490 -0.866800 -0.750445 0.452265 0.476953 
0.453465 0.296412 0.413605 0.530212 -0.262927 0.784545 
-0.984749 0.330162 -0.430252 -0.800157 -0.217277 0.519112 
-0.821123 2.286935 -0.701305 0.736791 -0.476451 -0.473544 
-0.640900 0.882905 0.270580 0.952585 0.103852 -0.175778 
-0.577558 0.060752 0.063436 -0.802712 -0.226727 0.539435 
0.253188 0.182916 0.486427 0.353185 -0.246632 0.883183 
1.132269 1.509352 0.171750 0.251309 -0.755148 0.528517 
1.232354 1.799089 0.397412 -0.257657 0.738458 -0.599640 
0.607584 0.705085 0.322087 -0.706232 0.296201 -0.503895 
0.228771 -0.504830 0.332269 0.393215 -0.246436 0.873295 
-0.391013 -0.035070 0.309791 -0.682768 -0.227308 0.683415 
-1.488289 1.235417 -0.736895 0.797091 0.138131 -0.573001 
-0.099393 0.605261 0.599517 -0.059131 0.247313 0.962152 
0.262003 0.980358 0.278042 0.834732 0.376491 -0.306214 
-0.597526 0.346963 -0.060461 0.183266 0.188769 -0.792129 
-0.135853 3.263241 -0.394019 -0.842502 0.277208 0.453782 
0.594147 -0.948861 -0.014619 -0.396265 -0.067899 -0.913491 
1.429534 0.972963 -0.489612 0.585547 -0.342954 0.709109 
1.414186 0.575309 -0.536730 -0.621276 0.037907 -0.763641 
-0.857674 2.227974 -0.668452 -0.581077 0.655714 0.388986 
0.693311 0.206879 0.110568 0.705831 -0.253838 0.654495 
1.071050 0.535418 -0.157108 0.735012 -0.201592 0.646998 
-0.299346 -0.377163 0.116611 -0.291324 0.009358 -0.944467 
-0.651077 0.063988 -0.062221 -0.817009 -0.179676 0.543418 
-1.389372 1.622749 -0.668987 -0.793438 0.339392 0.502987 
0.129992 0.089601 -0.087814 0.563092 -0.007797 -0.817617 
0.287773 -0.158457 0.387477 0.527313 -0.245728 0.783358 
-0.415860 0.270718 0.077079 -0.135729 0.182511 -0.905956 
0.337296 0.648913 0.541445 0.549071 0.341602 0.755794 
1.184663 0.485009 -0.311042 0.700343 -0.130269 0.691838 
0.711723 0.280110 0.129795 0.703131 -0.273599 0.649460 
-1.423348 1.556766 -0.677723 0.776986 -0.299670 -0.532574 
-0.458833 0.623405 0.502729 0.306547 0.845776 -0.424576 
-0.025627 0.009851 0.489272 -0.095191 -0.242483 0.964112 
-0.569783 2.751446 -0.741849 0.744506 -0.431037 -0.503776 
-0.691527 0.187670 -0.143503 0.368631 0.139810 -0.727163 
-0.515960 0.382637 0.036371 0.079398 0.223434 -0.833157 
0.699930 -0.566810 -0.096151 0.565252 -0.030824 0.817534 
0.518050 -0.124971 0.133559 0.705220 -0.208126 0.672615 
-0.653014 -0.029932 -0.081020 -0.800531 -0.151977 0.567600 
0.395853 0.263080 0.446539 0.472236 -0.228589 0.840309 
-0.494271 2.448441 -0.348545 -0.841890 0.361754 0.379513 
-0.990423 0.600387 -0.357435 0.789566 0.213494 -0.574858 
2.123395 2.080107 0.449901 0.119143 -0.753791 0.640732 
-1.135219 0.658904 -0.573991 -0.838382 -0.282999 0.452158 
-0.058820 -0.783673 0.273069 -0.288517 -0.217527 0.922777 
-1.268893 0.621713 -0.808819 -0.795809 -0.301416 0.444470 
-0.168561 -0.864416 0.098309 0.141728 -0.195086 -0.960332 
1.470706 1.798671 0.313938 0.333211 -0.511635 0.753116 
1.710976 2.343522 0.799177 -0.138028 0.743452 -0.651651 
0.759719 0.774386 0.149659 -0.512155 0.327104 -0.792522 
1.970448 2.065257 0.455047 0.138752 -0.767955 0.615533 
-0.162394 1.192940 0.534715 -0.925540 -0.295496 -0.124356 
0.484901 0.596652 0.309876 -0.024120 0.560172 -0.523888 
-0.070768 -1.088767 0.168993 -0.310984 -0.053810 0.940979 
0.016262 -0.380341 -0.083114 0.340531 -0.310652 -0.881737 
0.750004 1.152470 0.263620 -0.433465 0.391201 -0.802841 
0.457054 0.604366 0.379791 -0.056582 0.663887 -0.532397 
-0.737456 2.279494 -0.571979 0.726930 -0.516632 -0.447891 
-0.396078 1.994008 0.614385 0.911114 -0.314092 0.129774 
0.585805 1.045182 0.459792 0.420380 -0.304732 0.786320 
-0.881487 2.252717 -0.738876 -0.619785 0.618633 0.408647 
-0.485791 2.110643 0.236530 -0.759261 0.572612 0.300417 
0.917472 -0.186954 -0.234108 0.609842 -0.045930 0.783418 
1.145676 1.615625 0.333561 0.330189 -0.642377 0.650613 
-0.429639 1.760065 0.995296 -0.486893 0.714517 0.402328 
0.507157 0.086926 0.264867 0.679933 -0.288935 0.665186 
0.768347 0.945343 0.190337 -0.507704 0.318630 -0.789663 
0.432323 0.546301 0.449382 0.496329 0.081876 0.820664 
0.650382 0.091512 -0.013061 -0.090428 0.111231 -0.835566 
-0.454436 0.390892 0.423315 -0.527148 -0.261223 0.767781 
0.254492 -0.140465 0.004835 0.605762 -0.090807 -0.784217 
-0.736670 -0.689802 -0.182747 0.492164 -0.162973 -0.837799 
-0.903258 2.033488 -0.509557 0.785625 -0.377514 -0.484262 
-1.008951 0.178943 -0.547512 0.661552 0.225467 -0.601335 
-0.593115 -0.423083 -0.063227 0.485030 0.054074 -0.808750 
-1.356791 0.846576 -0.893488 0.827645 0.362078 -0.424284 
0.286354 0.602680 0.009583 0.667472 0.173313 -0.709811 
-0.628347 2.373337 -0.502230 0.639841 -0.581593 -0.480794 
-1.113127 1.559496 -0.261389 0.789681 -0.248546 -0.544364 
-0.240554 1.048453 0.284692 -0.835151 0.413043 -0.297030 
-1.128320 0.730818 -0.509057 0.797647 0.234488 -0.548123 
1.789247 2.375905 0.825013 -0.122762 0.745570 -0.653180 
-0.231777 0.938652 0.535083 -0.721938 -0.033037 0.666560 
0.385034 -0.310233 0.225295 0.679312 -0.200779 0.702690 
-0.691477 0.415559 0.087424 -0.797847 -0.321986 0.500427 
0.084379 1.308157 0.388752 0.576739 0.712264 0.354932 
-0.676977 2.652610 -0.817329 0.719547 -0.463291 -0.500476 
-0.599790 1.612547 0.630157 0.682646 -0.030610 -0.719521 
0.582949 0.634835 0.360196 0.008509 -0.206355 0.911473 
-0.138754 -0.793802 0.091370 0.096755 -0.213252 -0.965591 
-0.629283 1.458786 0.516747 0.681553 0.054100 -0.701261 
-0.550081 -0.359350 -0.015747 -0.755147 -0.099853 0.628455 
-1.119011 1.931438 -0.681746 -0.784270 0.390227 0.446500 
0.594508 0.036004 0.010343 -0.016563 0.099922 -0.852365 
2.088066 2.600692 1.082589 -0.067291 0.794498 -0.601348 
-0.291144 0.757269 0.078038 -0.647992 0.560012 -0.504695 
-1.184378 1.902360 -0.754588 0.609756 -0.637765 -0.432194 
0.595985 1.160802 0.454636 0.825342 -0.054962 0.531065 
0.152529 0.681260 0.573783 0.166046 0.163849 0.950988 
-0.101420 1.157313 0.582236 0.302940 0.476681 0.791493 
-0.010875 0.670836 0.578733 -0.025871 0.094418 0.985533 
0.252854 0.186594 -0.013925 0.637004 -0.008902 -0.764977 
0.617249 1.352935 0.473546 0.759672 -0.219531 0.542306 
-0.861062 -0.067402 -0.381441 0.599781 0.162305 -0.678136 
-0.061885 -0.572026 0.340561 -0.193676 -0.274997 0.930501 
0.402869 -0.860229 0.113766 0.515432 -0.105509 0.840779 
1.015461 0.336055 -0.187886 -0.601346 0.158616 -0.754110 
0.274091 0.624388 0.562866 0.392371 0.325253 0.819836 
-0.023556 0.709553 -0.046846 -0.323183 0.342108 -0.870334 
-1.028962 1.816934 -0.398209 0.585649 -0.625872 -0.432832 
-0.630680 0.685440 0.281562 -0.484480 -0.192034 0.765295 
0.320777 -0.734089 0.207128 0.528214 -0.188818 0.812679 
0.215552 0.454836 0.566257 0.251697 -0.144457 0.953597 
-0.191637 0.727851 0.553996 -0.295825 0.176143 0.910635 
0.389867 0.663675 0.419857 0.698800 0.423615 0.509418 
-0.346258 2.631105 -0.302554 -0.661963 0.535681 0.504407 
-0.224314 -0.119667 -0.012587 -0.619906 -0.071109 -0.771970 
0.743563 -0.324559 -0.094133 -0.420190 0.047534 -0.867455 
-0.725117 2.174561 -0.425994 0.741069 -0.498867 -0.438347 
-0.132775 0.151514 0.517827 -0.211105 -0.241345 0.944386 
-1.042664 1.679803 -0.223412 0.705309 -0.423758 -0.485053 
0.342491 0.784893 0.287374 0.919412 0.329103 -0.194858 
-0.462253 0.589270 0.303225 -0.057452 0.566355 -0.488475 
0.160320 0.146174 0.512571 0.228672 -0.243411 0.940311 
1.675157 2.483677 0.971812 0.178532 -0.851153 0.484482 
-0.992727 1.220984 -0.133713 -0.852372 0.097704 0.453428 
