1.222531 -0.132534 1.979153 0.941443 -0.250155 0.116642 
0.057961 1.346425 0.048324 0.619637 0.682734 0.059811 
0.140420 0.293515 -0.378713 0.567768 0.038253 -0.806179 
0.638492 0.635894 0.569016 -0.885455 0.095344 0.436643 
0.112135 0.762787 -0.224136 0.456115 0.428542 -0.761181 
-0.404810 -0.564500 0.122661 0.329872 0.029989 0.878274 
1.212676 0.683206 2.056304 -0.894575 0.002824 0.241668 
-1.012454 -0.501884 1.756000 -0.639118 -0.489209 -0.541448 
-0.396284 0.445724 0.264512 0.788103 0.119716 0.569260 
0.288680 0.376325 0.210844 0.148872 -0.215988 0.960567 
-0.862090 0.498115 0.991975 -0.913206 -0.287995 -0.283119 
-0.241698 0.166363 0.175206 -0.207313 -0.211941 0.953646 
0.443053 -0.738258 0.353460 -0.523961 0.047510 0.734101 
0.876223 0.162007 1.090595 -0.846235 -0.060619 0.448561 
-1.154969 -0.600497 2.061888 -0.781218 -0.492982 -0.362568 
0.699933 -0.641828 0.722014 0.900779 -0.058940 -0.406265 
-1.757659 0.152945 3.454372 0.961015 0.239708 -0.129929 
-0.989277 -0.106138 1.440593 -0.851976 -0.323042 -0.406551 
-0.115034 -0.206186 -0.312236 -0.437268 -0.242821 -0.838751 
-0.861898 -0.129839 1.123958 -0.885625 -0.244961 -0.373275 
0.612197 0.430054 0.381079 0.859316 0.352193 -0.342755 
-1.571706 0.134040 2.123317 -0.734815 -0.225840 -0.613140 
-1.392922 0.676552 1.997692 0.681100 0.010065 0.643733 
-0.618351 0.238044 0.427452 -0.920984 -0.137242 -0.355132 
0.250730 0.844359 -0.102713 0.631253 0.469631 -0.583170 
-1.860618 0.259140 2.762497 0.956997 0.207388 0.162813 
-0.501697 -0.916476 0.416856 0.632899 -0.007839 0.624155 
1.045182 0.570874 1.419701 -0.848515 -0.240767 0.422585 
-0.865561 -0.261577 1.160002 -0.878497 -0.235607 -0.395421 
-1.780688 0.080779 2.547981 -0.758039 -0.524707 -0.385453 
-0.705448 0.384298 0.805545 0.845717 -0.160302 0.501532 
-0.486685 0.439486 -0.018203 -0.888010 0.103134 -0.393846 
-0.337069 -0.595775 0.039768 0.024151 -0.019547 0.945722 
0.579569 -0.151674 0.379679 0.888790 -0.092898 -0.442893 
0.139940 -0.309337 -0.277821 0.417196 -0.306459 -0.834287 
1.323396 0.090901 2.350431 0.908825 -0.366813 -0.148746 
-0.001173 -1.193700 0.019225 -0.384605 -0.184058 -0.881119 
-1.443244 -0.042612 1.985403 -0.840731 -0.179443 -0.476391 
-0.457232 0.111050 0.012570 -0.886467 -0.102269 -0.447104 
0.975221 -0.430492 1.293545 -0.928843 0.234253 0.272609 
-0.421210 -0.584536 0.199500 -0.746174 -0.180497 -0.583910 
1.135033 -0.226275 2.630989 0.816187 -0.561118 0.122535 
0.710337 -0.125752 0.765846 -0.889522 -0.000481 0.432352 
0.794610 -0.439092 0.954893 -0.922603 0.133687 0.332719 
-0.488210 -0.005313 0.292851 0.656672 -0.104948 0.654414 
0.865689 0.576685 1.114952 -0.867851 -0.013669 0.458052 
-1.443650 0.214133 1.979129 0.735263 0.012749 0.650737 
1.196206 0.622670 1.680283 0.931660 -0.307463 0.029252 
-1.426278 0.719827 1.947748 -0.905185 -0.050543 -0.418637 
1.209161 0.495731 1.758801 0.932371 -0.286367 -0.006180 
-1.262213 0.409642 1.787525 0.631756 -0.149341 0.700023 
0.630501 -0.047609 0.608478 -0.873948 -0.055070 0.463362 
-0.738346 0.552917 0.763819 -0.816201 0.271327 -0.481674 
1.090121 0.071129 1.499387 -0.898612 0.052406 0.315624 
-0.690929 0.492298 0.717242 0.873375 0.296909 0.350404 
0.265620 0.953267 0.014654 0.816023 0.329936 -0.371168 
-1.112537 -0.787272 2.223995 0.687219 0.515370 0.477126 
0.339567 0.011014 0.096738 0.114358 -0.169906 0.954902 
-0.411318 -0.486034 0.084008 -0.789665 -0.173517 -0.553184 
1.114218 0.435902 3.201899 0.736110 0.191676 0.582991 
1.119425 0.806696 1.550813 -0.709917 0.626670 0.102241 
0.086855 -0.271336 -0.307167 0.388752 -0.304093 -0.843024 
0.326289 -0.136022 0.119433 0.452551 -0.159087 0.829982 
-0.698489 -0.791270 1.274846 -0.896171 -0.355833 -0.201637 
-0.895959 -0.625007 1.736601 -0.669780 -0.528100 -0.458284 
-1.465845 -0.305879 2.179366 -0.807202 -0.377432 -0.438581 
-0.758642 -0.685410 1.476226 0.846235 0.405526 0.286934 
-0.121928 0.422616 0.310375 -0.215644 -0.264324 0.933923 
0.981129 -0.329210 2.782482 -0.813594 0.445857 -0.298469 
0.403312 -1.096704 0.169152 0.522945 0.275534 -0.793566 
-0.916394 0.425100 1.250080 0.821690 -0.161081 0.502457 
-0.240483 1.235571 0.426963 -0.774618 -0.374894 -0.504266 
-0.683628 -0.380127 0.844739 0.928921 0.117383 0.319706 
-1.538156 0.206100 2.074022 -0.731535 -0.167335 -0.635627 
1.046804 0.494279 1.421832 -0.854879 -0.197162 0.409324 
1.103510 0.259671 1.527412 -0.887282 -0.050545 0.337928 
-0.040472 -0.903808 -0.027476 -0.249611 -0.256153 -0.920615 
-0.333539 -0.924933 0.187881 0.344189 0.066820 0.876602 
1.264414 0.526358 2.275450 -0.924466 0.039675 0.126100 
0.908863 0.533636 1.158255 -0.817400 -0.254161 0.497699 
-0.027621 1.179449 -0.075923 -0.439427 0.271181 -0.841863 
-0.227380 0.787778 -0.168709 -0.543165 0.503738 -0.661042 
1.046660 -0.160572 2.861456 -0.828143 0.348216 -0.382326 
0.870933 0.074631 3.353479 0.753603 -0.334099 0.563134 
0.898473 -0.642791 2.141102 0.799941 -0.580487 0.087945 
-0.825815 -0.188554 1.043135 -0.892167 -0.213920 -0.375878 
-0.839622 0.324869 0.974805 -0.912711 -0.270386 -0.294983 
-1.295332 -0.402227 2.052974 0.509085 0.408426 0.688739 
-0.623445 0.453367 0.522381 -0.845726 0.369919 -0.331632 
-1.635035 0.520814 2.185932 -0.898224 0.004944 -0.425256 
0.782895 -0.743454 1.578557 -0.802615 0.570779 -0.103941 
0.683734 -0.705840 0.689624 -0.888110 -0.019182 0.443514 
1.224202 0.817026 1.929164 -0.797628 0.441225 0.254345 
-0.202154 0.935820 -0.097005 -0.643827 0.374206 -0.656879 
-0.241337 -0.733344 -0.039928 0.089060 -0.402803 -0.897228 
-1.133967 -0.455100 1.926274 0.562406 0.435556 0.682494 
-0.412426 -1.086368 0.172720 0.498160 -0.274592 0.799421 
-0.772229 -0.665623 1.610038 -0.793799 -0.494105 -0.322166 
1.310707 0.122831 2.564191 0.862395 -0.468007 -0.041400 
-0.888764 0.474254 1.061126 -0.903808 -0.294091 -0.301264 
0.141328 1.109986 -0.072115 0.507220 0.373885 -0.770993 
-0.324229 -0.499167 0.054143 -0.227063 -0.079082 0.899176 
1.222307 0.614376 1.820518 0.914832 -0.349252 -0.093281 
0.110161 0.439677 0.315375 0.198029 -0.263071 0.937413 
1.359572 0.668623 2.584035 0.968915 0.206429 0.059991 
-1.503744 0.607234 2.143494 0.738373 0.052534 0.562203 
0.956900 0.510883 1.249930 -0.831155 -0.229209 0.465471 
0.556229 0.345962 0.184438 0.919418 0.015781 -0.364392 
-0.463976 -0.221783 0.188080 0.479778 -0.041399 0.772290 
-1.754194 0.089285 3.371134 0.956314 0.267023 -0.102903 
-0.400653 0.387430 0.216252 0.729037 -0.034892 0.634437 
1.137304 -0.216604 1.570024 0.894008 -0.267828 -0.336174 
-1.249329 0.566951 1.768083 0.636977 -0.266923 0.675055 
0.961069 -0.097648 1.249689 -0.888304 0.106550 0.355637 
-0.681737 0.305533 0.555371 -0.923785 0.068042 -0.323103 
0.500518 0.374551 0.032219 0.909005 0.039743 -0.380656 
0.869167 0.626453 1.054211 -0.847856 0.413069 0.239642 
-0.670634 -0.634304 0.667602 -0.931525 -0.022557 -0.349421 
1.018470 -0.493697 2.100573 -0.741444 0.521022 0.269809 
0.823736 -0.690331 1.844239 -0.802317 0.553748 -0.108984 
0.380726 -0.772841 0.258443 0.636500 -0.212525 -0.688961 
0.074088 0.340434 -0.402698 0.514083 0.100920 -0.833598 
0.955615 0.352784 1.245461 -0.843136 -0.140373 0.440854 
-0.948788 -0.822578 2.058289 0.724172 0.514980 0.420848 
-1.024704 0.369465 1.409462 -0.856473 -0.324956 -0.392469 
-0.766513 -0.020036 0.856729 -0.915359 -0.186974 -0.337027 
-0.354452 0.662042 -0.168227 -0.604672 0.427456 -0.621654 
0.191308 0.123265 0.183686 0.216019 -0.189558 0.957002 
-1.186095 0.613888 1.635105 -0.847643 -0.203494 -0.390841 
0.476970 0.124633 0.059999 0.887392 -0.090907 -0.449942 
0.741968 0.105079 0.830798 -0.853497 -0.097554 0.479219 
-0.919630 0.012862 1.243413 -0.877448 -0.299053 -0.361176 
0.756917 -0.837506 1.165198 -0.889976 0.348827 0.137602 
-0.879462 -0.069061 1.156790 -0.883953 -0.262995 -0.366768 
-0.198676 1.042962 -0.053675 -0.660097 0.328814 -0.649858 
-1.355571 -0.417298 2.151343 0.620148 0.412109 0.587140 
1.121246 -0.352636 1.852936 0.839550 -0.498746 -0.120030 
-0.673678 -0.855022 0.865028 -0.939156 -0.108990 -0.261997 
0.562021 -0.212433 0.344563 0.878580 -0.105266 -0.457165 
-1.090983 -0.311623 1.687434 0.880234 0.312573 0.319336 
0.902211 0.296400 3.414503 0.760642 -0.155065 0.602475 
1.138047 -0.267390 1.786166 0.814180 -0.409418 -0.365297 
0.754627 -0.133212 0.851099 -0.891268 0.024470 0.415710 
0.272604 0.145712 -0.288371 0.625903 -0.067793 -0.757957 
-0.973014 0.165756 1.415613 0.830440 0.009801 0.476588 
1.143364 0.208548 1.628449 -0.919951 -0.044955 0.158279 
-0.015180 -1.006979 -0.008734 -0.435778 -0.180347 -0.860891 
-0.041581 -0.819282 -0.046691 -0.234944 -0.295540 -0.913037 
-1.168041 0.977063 1.663228 -0.944465 0.098678 -0.152369 
1.253723 0.691186 1.856882 0.972433 -0.164940 -0.125659 
-1.136582 0.737501 1.669181 0.567292 -0.216020 0.770826 
-0.443771 -0.093345 0.019419 -0.867771 -0.126901 -0.472335 
0.425193 0.374367 0.264346 -0.739400 -0.041171 0.624807 
-1.319751 0.445473 1.823303 -0.785258 -0.227385 -0.528464 
-1.327284 0.135037 1.830135 -0.872779 -0.128216 -0.422790 
-1.104776 -0.650653 2.068853 0.535576 0.475651 0.636074 
-0.631480 -0.089228 0.522658 -0.924142 -0.107645 -0.363191 
0.700332 -0.070636 0.678708 0.909963 -0.111111 -0.391220 
1.335931 0.177308 2.373906 0.902960 -0.352317 -0.196086 
0.388568 -0.107708 -0.107858 0.802536 -0.159966 -0.541623 
0.421506 -0.119033 -0.041640 0.850355 -0.136074 -0.501295 
0.626346 -0.510169 0.601872 -0.831257 -0.008020 0.496889 
-0.519928 -0.093088 0.356808 0.686995 -0.059368 0.609946 
-1.860722 0.263291 2.835247 -0.959249 -0.237120 -0.101104 
0.174234 1.078498 0.269531 0.694657 0.613806 -0.182435 
-0.024666 0.064905 0.196763 -0.093328 -0.144194 0.983072 
0.687098 0.245528 0.582567 0.932199 -0.122286 -0.332341 
-0.543830 -0.904467 0.474857 -0.806866 -0.052643 -0.501955 
0.796730 -0.743449 2.085390 -0.762603 0.600543 0.081150 
1.376871 0.433230 2.531680 0.990337 0.035189 0.068408 
-0.810818 -0.606216 1.586323 -0.805394 -0.461252 -0.337813 
1.299523 0.186906 2.758770 0.893041 -0.106247 0.407570 
-1.015352 0.444523 1.369051 -0.862001 -0.322006 -0.381088 
-0.991141 0.639418 1.208285 -0.886239 0.061129 -0.437422 
0.761415 -0.768532 1.799445 0.761754 -0.626109 -0.076557 
1.300786 0.741136 2.288998 0.903882 0.352488 0.060330 
1.304170 -0.007261 2.315051 0.918322 -0.365972 -0.088576 
0.982399 -0.522796 1.904159 0.825333 -0.533927 0.118068 
-1.136122 -0.333840 1.748660 -0.621036 -0.412853 -0.629406 
1.352911 0.409327 2.423144 0.979558 0.100789 0.127006 
-0.345410 0.077970 -0.193991 -0.698793 -0.123610 -0.660764 
1.319070 0.141125 2.299494 0.922199 -0.286704 -0.180697 
0.555719 0.640824 0.395686 -0.802265 0.275599 0.487324 
-0.000844 0.321121 -0.448750 -0.468953 0.097569 -0.869504 
1.299016 0.239522 2.811543 0.899026 -0.156476 0.382368 
1.060688 -0.250837 2.729075 -0.834410 0.384334 -0.308391 
-0.884281 -0.358381 1.267748 -0.875291 -0.269257 -0.376284 
0.206065 0.745703 -0.201758 0.511905 0.500859 -0.676250 
1.171379 0.384634 1.591658 0.887772 -0.277441 -0.356292 
-1.248288 0.176629 1.784537 0.598415 0.026632 0.755266 
0.720962 -0.333239 0.757351 0.914468 -0.115041 -0.373134 
-0.165005 -0.033268 0.183547 -0.259386 -0.127803 0.944887 
-0.914546 -0.803878 1.979647 -0.646970 -0.550798 -0.501957 
-0.634977 0.323445 0.690826 0.869693 -0.065028 0.480995 
-0.745896 -0.886014 1.836712 0.740979 0.557961 0.350818 
-0.876380 0.327057 1.067389 -0.902874 -0.293190 -0.304752 
-0.197120 -0.663884 -0.082329 -0.127528 -0.410129 -0.886769 
0.968847 -0.532039 1.814422 0.773061 -0.574107 -0.220433 
0.789119 0.235337 3.523705 0.739305 -0.236800 0.623224 
0.213984 -0.427956 -0.220424 0.436739 -0.356524 -0.819453 
0.210895 -0.726950 0.101149 0.045492 -0.072265 0.861802 
0.198231 -0.994478 0.113468 -0.212856 0.153451 0.927554 
-0.515054 0.589402 0.066393 -0.879377 0.340793 -0.264403 
-0.560948 -0.815486 0.503433 0.741598 -0.017955 0.529410 
0.164866 1.165310 0.310529 0.896060 0.048838 -0.335315 
1.001107 0.151417 1.258168 0.911791 -0.286443 -0.291523 
-0.674349 -0.847460 0.941493 -0.942338 -0.163153 -0.225703 
-0.945865 -0.560306 1.730861 -0.668771 -0.501454 -0.487575 
0.353856 -0.335945 0.075167 0.387054 -0.086796 0.816887 
0.704204 -0.838211 1.443245 -0.790770 0.607834 -0.057499 
0.882271 -0.648919 1.269747 0.897836 -0.342455 -0.184472 
1.152207 -0.270212 1.856707 0.896574 -0.375573 0.129612 
-1.350452 -0.541880 2.261512 0.658847 0.456301 0.515880 
-1.103896 -0.242406 1.664512 0.889230 0.245221 0.346454 
-0.172058 0.872922 -0.144459 -0.576456 0.413550 -0.687522 
-0.589285 -0.156985 0.521911 0.822725 -0.004123 0.474817 
0.007153 -1.268189 0.038471 0.536413 -0.797150 0.068938 
-1.191007 -0.613745 2.123656 -0.779918 -0.496330 -0.363733 
-0.801358 -0.376243 1.118573 0.899956 0.192573 0.355840 
0.675154 -0.411613 0.641863 0.897314 -0.039303 -0.434739 
0.052815 0.864951 -0.206693 0.465016 0.379414 -0.785434 
0.893477 -0.510679 1.152073 -0.930903 0.201724 0.283481 
0.253574 -0.333403 -0.225427 0.493388 -0.281450 -0.812305 
-0.065036 -0.885798 0.084176 -0.092481 -0.129936 0.933608 
0.337674 -0.669994 0.023360 0.685782 -0.217738 -0.660421 
-0.960611 0.743890 1.256114 0.758717 0.478891 0.175357 
0.466317 0.326728 0.319871 -0.738651 -0.118653 0.627546 
-1.523807 0.435074 2.060458 -0.709040 -0.362164 -0.579981 
-1.489804 -0.514364 2.677967 -0.831090 -0.472604 -0.241224 
0.127814 0.085419 -0.366908 0.520820 -0.070224 -0.831333 
-0.445538 -0.709378 0.339969 -0.713722 -0.172217 -0.601862 
-0.208647 -1.202331 0.159385 -0.455060 0.252173 0.743960 
-0.912292 0.163192 1.192421 -0.885811 -0.303004 -0.339096 
0.575722 0.580868 0.428204 0.864767 0.340871 -0.268037 
0.223252 0.081761 -0.308392 0.579152 -0.088271 -0.787085 
0.894487 -0.612371 1.598094 0.793548 -0.558936 -0.120080 
-0.626939 0.338366 0.602219 0.830028 0.390818 0.387923 
-0.278725 0.743634 0.288523 -0.556920 0.211412 0.800613 
-0.331760 -0.826228 0.131758 -0.630503 -0.219729 -0.706913 
-0.134215 -0.315734 0.184350 -0.214800 0.006221 0.975219 
-0.136596 1.131129 0.175238 -0.810748 -0.006496 0.506514 
0.591605 -0.606674 0.551715 -0.767185 -0.003730 0.548784 
-1.901833 0.459002 2.910501 0.940086 0.273566 0.111573 
0.312420 -0.426836 -0.164625 0.600518 -0.278486 -0.719120 
1.287330 -0.080443 2.298278 0.923613 -0.366546 -0.034406 
-0.618983 -0.787453 0.577433 -0.880045 -0.017449 -0.418238 
-0.960207 -0.741845 1.970266 -0.626903 -0.540483 -0.536234 
-1.191800 -0.413703 1.891628 -0.809541 -0.459890 -0.348542 
0.395103 -0.699756 0.233839 -0.403469 0.058748 0.825222 
-0.976742 0.513033 1.374797 0.815982 -0.193682 0.504925 
0.930709 0.478036 1.096887 0.908424 -0.272984 -0.315444 
0.340511 0.084508 0.113283 0.064306 -0.193448 0.942503 
1.248792 -0.078688 2.502097 0.870289 -0.469791 0.052024 
-0.193862 0.483923 0.295445 -0.240463 -0.234829 0.936934 
-0.103501 -0.664338 0.122739 -0.202362 -0.169367 0.951412 
0.891534 -0.655248 2.212265 -0.778810 0.575419 0.047105 
-1.368187 0.392896 1.898505 0.693916 -0.117412 0.656065 
0.261250 -0.124127 -0.253307 0.550876 -0.188016 -0.788863 
0.002019 0.513936 -0.394273 0.429285 0.290603 -0.854294 
1.224120 0.483663 1.828732 0.937874 -0.253486 -0.085829 
1.290344 0.062547 2.611214 0.853848 -0.497068 0.043021 
0.965210 -0.175593 2.998258 0.780533 -0.499943 0.334086 
1.059767 -0.167715 1.395624 0.915554 -0.298466 -0.267882 
-1.030364 -0.602454 1.902478 -0.597424 -0.520176 -0.583220 
1.249780 0.732871 1.927103 0.995869 -0.053376 0.065340 
-1.549968 -0.429559 2.860777 -0.863585 -0.449305 -0.157447 
-0.348043 0.471701 -0.233440 -0.657269 0.128545 -0.724824 
-0.539735 0.203738 0.432248 0.785848 -0.170550 0.560046 
0.325309 0.528855 -0.247350 0.606684 0.198823 -0.758754 
0.046382 0.007374 -0.392206 0.443691 -0.124291 -0.859768 
-0.541213 0.636909 0.372015 0.795142 0.306449 0.484413 
0.775689 -0.831022 1.094546 0.910071 -0.307400 -0.186580 
-0.279601 -0.305419 -0.212581 -0.527625 -0.269887 -0.792483 
0.447474 -0.488956 0.192762 0.773991 -0.167546 -0.567551 
0.920608 -0.586154 1.978750 -0.726632 0.547630 0.296239 
-0.350918 -0.025389 0.085149 -0.019855 -0.152190 0.954264 
1.275711 0.024507 2.552469 -0.909787 0.220508 -0.242138 
0.657348 -0.192646 0.662543 -0.899399 0.006554 0.433400 
0.848696 0.265022 3.465786 0.756707 -0.224803 0.603535 
-1.444309 -0.513491 2.382774 0.801728 0.438500 0.380793 
0.177889 0.477753 0.304794 0.257560 -0.241448 0.932202 
-1.070164 -0.283140 1.607049 -0.744556 -0.331647 -0.531785 
-0.301579 -0.120003 -0.224713 -0.588146 -0.192303 -0.759922 
-1.344156 0.783723 1.914425 0.736184 0.053102 0.662508 
1.151708 -0.270517 2.447537 -0.878319 0.389720 -0.129379 
-1.630477 -0.314611 3.097191 -0.905181 -0.419513 -0.049804 
-0.595713 0.035106 0.404562 -0.916900 -0.116178 -0.376158 
0.444462 0.299107 0.238054 -0.681120 -0.222556 0.688220 
0.821283 0.483621 0.838042 0.842746 0.204279 -0.480889 
-0.900229 0.116500 1.257130 0.834981 0.015646 0.478294 
0.388893 0.551584 -0.155087 0.693739 0.225378 -0.625525 
0.138445 -0.324430 0.183450 0.221313 0.011817 0.974202 
1.214762 0.639113 2.125947 -0.892985 0.016459 0.181223 
1.093007 -0.223694 1.508734 -0.927859 0.209478 0.222546 
-0.710894 -0.029572 0.801351 0.894229 -0.015367 0.413595 
-0.867882 -0.140051 1.202091 0.864841 0.134458 0.433394 
0.224038 -0.122801 0.158403 0.403587 -0.132674 0.867392 
-1.205119 -0.752335 2.301681 0.732605 0.510548 0.430369 
-0.320773 0.665287 0.278931 -0.634843 -0.167509 0.743205 
-0.124099 -0.489090 0.163754 -0.208034 -0.145970 0.965992 
0.994368 -0.487513 1.332700 0.921255 -0.290858 -0.245173 
0.170208 -0.508079 -0.167869 0.217900 -0.512362 -0.812422 
0.250734 -0.517116 0.118574 0.440097 -0.131532 0.884739 
-0.527632 -0.751930 0.461991 0.689036 0.007612 0.575571 
-0.665341 -0.832087 1.489704 0.834000 0.467497 0.235739 
0.975410 0.615157 1.126632 0.840730 0.162107 -0.499660 
0.162098 1.034123 -0.082230 0.576784 0.333930 -0.732727 
0.395636 -0.507177 0.020876 -0.235848 0.025955 0.955519 
0.262999 0.535791 0.262934 0.199988 -0.200994 0.942082 
-0.518990 0.420400 0.440057 0.813845 0.338086 0.455771 
-1.202957 0.817186 1.659041 -0.835700 -0.142471 -0.520794 
0.543674 -0.022204 0.420844 -0.758761 -0.089316 0.579298 
-1.444054 0.641694 2.066602 0.708513 0.029850 0.603121 
-0.730293 0.025522 0.754473 -0.926831 -0.165306 -0.322634 
-0.627144 0.032895 0.492704 -0.921777 -0.128464 -0.360384 
-0.512936 0.627251 0.306408 -0.870388 0.435266 -0.142560 
1.075440 0.323260 3.219977 0.819087 -0.210928 0.517560 
-1.535874 0.068728 2.087592 -0.760493 -0.201490 -0.591821 
1.303075 0.415707 2.892610 0.914401 -0.157561 0.331371 
0.357421 0.077672 -0.172435 0.718155 -0.130840 -0.632080 
-1.691501 -0.087470 2.561008 0.940670 0.221487 0.149247 
-1.657191 -0.247805 3.077587 0.908736 0.402223 0.062220 
-1.452138 0.515501 1.978196 -0.726101 -0.382431 -0.545537 
0.702508 -0.835610 1.705496 -0.781220 0.613039 -0.036199 
0.639960 0.464687 0.546886 0.845242 0.325902 -0.370993 
1.065206 0.690431 1.307548 0.823150 0.191651 -0.499371 
-0.652703 0.007791 0.567783 -0.926066 -0.134147 -0.348511 
-0.503620 -0.816704 0.425470 0.643289 0.007772 0.615377 
0.069131 0.636177 0.349556 0.073761 0.154408 0.980084 
1.223280 0.644185 1.905314 -0.865913 -0.254126 0.298005 
-0.839638 0.389460 1.080635 0.825806 -0.164526 0.505600 
-0.671046 -0.781667 0.898565 0.942938 0.113808 0.251543 
-0.861131 0.119429 1.162877 0.841224 -0.004635 0.474365 
-0.486968 0.289663 0.339009 0.735005 -0.187087 0.629851 
1.257211 0.000861 2.647398 0.839724 -0.527239 0.085915 
0.806145 -0.097457 0.891219 0.910969 -0.165685 -0.356059 
0.920845 0.384942 1.083352 0.910786 -0.273490 -0.307830 
-0.096284 0.046192 0.193062 -0.167582 -0.144671 0.970895 
0.988314 -0.331317 1.270762 0.916649 -0.252588 -0.287994 
-0.214770 1.096412 0.006483 -0.792404 0.399524 -0.401911 
0.722076 0.302395 0.639900 0.936867 -0.101369 -0.321653 
-0.758239 -0.647616 1.170140 -0.919969 -0.274947 -0.238020 
1.178261 -0.142586 1.922105 -0.847672 0.292350 0.374095 
-0.774466 0.341657 0.927739 0.841698 -0.171310 0.489909 
0.982904 -0.516939 1.989172 -0.721979 0.525744 0.343374 
0.607552 -0.686745 0.567566 -0.782992 -0.020256 0.541148 
0.468750 -0.417245 0.190046 0.808757 -0.154772 -0.535868 
0.948308 -0.063112 3.132109 -0.785322 0.420403 -0.430108 
-0.773528 0.665074 0.859055 -0.872180 0.145982 -0.457119 
-1.106506 0.579171 1.624352 0.822997 -0.210087 0.484709 
0.773832 -0.748353 1.880516 -0.790474 0.579411 -0.070714 
-0.518158 0.278808 0.406432 0.767360 -0.171537 0.592352 
0.253115 0.538990 -0.270171 0.552662 0.225445 -0.779861 
1.248166 0.515867 3.058784 -0.822003 0.452436 -0.264768 
0.845949 -0.668566 1.615309 -0.814787 0.539463 -0.144948 
-0.667169 -0.661826 0.963586 0.947488 0.180940 0.221539 
-0.180504 0.056700 0.179589 -0.258857 -0.169244 0.939632 
0.457097 -0.858419 0.361550 0.692599 -0.138935 -0.644080 
0.800754 -0.740784 1.013120 -0.942146 0.188513 0.266024 
-1.721090 -0.095051 3.181831 0.938751 0.337275 -0.024617 
-0.775320 -0.171832 0.910041 -0.905964 -0.179463 -0.363427 
0.666702 -0.265378 0.687248 -0.906673 0.031859 0.413783 
0.714355 -0.836929 2.083383 0.759956 -0.644594 0.003021 
-1.266402 0.810358 1.826950 0.717997 0.036661 0.687500 
-0.366740 0.151269 -0.173630 -0.749201 -0.101054 -0.611351 
1.220740 0.838033 1.742651 0.976177 0.072017 -0.065332 
0.330170 -0.848862 0.157929 -0.300653 0.074355 0.907021 
-1.323310 -0.074552 1.891638 0.625102 0.221498 0.725746 
0.991579 0.225679 1.234379 0.910722 -0.284103 -0.297135 
0.804023 -0.265726 0.901298 0.911576 -0.147070 -0.360961 
0.829805 -0.743936 1.144798 -0.923686 0.264193 0.212627 
0.703792 -0.420327 0.781034 -0.917987 0.079188 0.367888 
0.037714 -0.589930 0.161739 0.332808 -0.176514 0.918338 
0.180282 0.554104 0.316264 0.252538 -0.225403 0.936515 
-1.038786 -0.065202 1.569056 0.849081 0.151855 0.440019 
-1.853799 0.260296 2.644794 -0.961892 -0.196865 -0.160537 
0.780546 -0.750074 1.379506 -0.837923 0.488052 0.045742 
-0.066186 0.474123 -0.372336 -0.481281 0.231288 -0.831276 
-0.203702 -0.511377 -0.156949 -0.175541 -0.462184 -0.826744 
0.808855 -0.186792 0.954718 -0.900420 0.076643 0.384276 
-1.537589 -0.132993 2.160728 0.815625 0.299580 0.476393 
-1.599030 -0.158172 2.366678 0.873578 0.277064 0.310952 
-1.030131 -0.142871 1.538474 -0.831776 -0.327983 -0.440447 
0.423320 -0.004539 0.121940 -0.491303 -0.134599 0.805798 
0.432517 0.180963 0.184831 -0.613374 -0.198161 0.731578 
0.961926 -0.304727 2.849821 0.787965 -0.519629 0.279250 
0.665671 0.260750 0.509260 0.933466 -0.084096 -0.339658 
0.966167 0.339157 3.350542 0.751587 -0.041346 0.599376 
-0.458765 -0.145469 0.189775 0.508352 -0.070362 0.761282 
1.053780 -0.009640 1.373405 0.912609 -0.295077 -0.280206 
1.213478 0.839742 1.855999 -0.749205 0.541417 0.284833 
0.853003 -0.289010 3.065098 -0.775919 0.469846 -0.403499 
1.053354 0.257958 1.355094 0.907169 -0.290421 -0.301327 
0.611520 0.590390 0.518052 -0.848314 0.204112 0.446439 
0.884385 -0.628626 1.340411 0.877496 -0.392147 -0.149583 
-0.436638 0.534034 0.280790 0.783767 0.317015 0.521046 
1.220658 0.379650 1.811102 0.944675 -0.228222 -0.005762 
-0.676952 -0.826435 1.215152 0.921110 0.309624 0.181088 
1.004542 0.407859 1.248262 0.906397 -0.282408 -0.311866 
1.286674 0.546668 2.951913 0.817881 0.264877 0.430821 
0.253610 -0.944157 0.111587 -0.073413 0.082832 0.954720 
-0.787160 -0.363845 1.037104 -0.902788 -0.212446 -0.341422 
-1.523753 0.279352 2.058270 -0.728014 -0.222571 -0.615631 
-0.193938 -0.204824 0.168747 -0.333396 -0.077003 0.910758 
-0.674058 -0.738762 0.973886 -0.943942 -0.209554 -0.207568 
0.228185 -0.322031 0.152608 0.417226 -0.049706 0.868420 
-1.294965 0.334504 1.822426 0.649895 -0.094632 0.697237 
0.948411 0.325276 1.142052 0.910712 -0.277585 -0.303851 
0.597824 -0.005043 0.542009 -0.840343 -0.080140 0.501991 
-0.000065 -1.035854 0.068809 -0.665578 -0.076702 0.739449 
1.299355 0.445396 2.683884 -0.931741 0.161028 -0.135452 
0.975361 0.453072 1.187293 0.906842 -0.278383 -0.314661 
0.970976 -0.184620 1.267291 -0.902157 0.153631 0.330693 
-0.324196 -0.087353 0.121807 -0.401907 -0.169281 0.854977 
0.328781 -0.503285 0.047674 0.201940 -0.070110 0.904784 
-1.763595 0.174935 2.490103 0.892951 0.228877 0.320755 
0.755143 0.668105 0.804181 -0.899068 0.096943 0.423617 
0.511324 -0.908854 0.431619 0.734387 -0.087584 -0.610209 
-0.230826 0.584160 -0.268898 -0.521093 0.282910 -0.784446 
0.007496 0.272724 0.258649 0.016532 -0.276325 0.956256 
-0.493250 0.541973 0.329986 0.773927 0.378284 0.495308 
-0.294157 0.945301 0.107661 -0.923809 0.340724 -0.048646 
-0.397362 0.318040 0.183640 0.451430 -0.231045 0.780632 
0.317299 -0.936441 0.181374 0.573122 -0.237096 -0.754825 
1.297264 0.348711 2.822748 -0.923799 0.186370 -0.269649 
-0.894452 -0.868771 2.032871 0.717199 0.531828 0.420563 
-0.012242 -1.133172 0.054851 -0.631260 -0.273978 0.661203 
1.224984 0.206023 1.829027 0.959128 -0.166346 0.069377 
0.995931 -0.192829 2.922175 0.787486 -0.512303 0.292163 
1.289306 0.520524 2.539617 -0.930703 0.129148 -0.025195 
1.217221 -0.147131 2.068961 -0.886421 0.321475 0.220972 
0.288319 0.276797 0.185156 0.177053 -0.225547 0.955036 
1.187599 0.974133 1.620284 0.691370 0.074950 -0.614383 
-0.116371 0.902478 0.349835 -0.247512 -0.084639 0.960048 
0.394404 0.292203 -0.149456 0.807557 -0.041952 -0.557189 
0.035882 0.836712 0.351817 0.149079 -0.173651 0.968980 
0.299655 0.273255 -0.291778 0.674830 -0.014692 -0.733216 
-1.356950 -0.588060 2.315144 0.693705 0.471882 0.472533 
0.521673 -0.493532 0.430381 0.772367 -0.144191 -0.552216 
-0.138494 -1.387027 0.201576 0.740423 -0.469313 0.361807 
0.452262 -0.667248 0.354886 0.699412 -0.174221 -0.626083 
-1.823706 0.301045 3.232457 0.917662 0.311329 -0.001734 
1.313874 0.080270 2.432953 0.891241 -0.411259 -0.089365 
-1.825212 0.279591 2.562184 -0.952726 -0.112338 -0.207991 
0.921170 0.546303 1.062862 0.898595 -0.166620 -0.354741 
0.780682 -0.844355 1.014008 -0.942173 0.212193 0.238077 
0.502377 0.615660 0.168861 0.883520 0.399284 -0.172641 
0.326762 -0.406824 0.107400 0.653928 -0.110957 0.742530 
0.169586 -1.302899 0.170191 0.292757 -0.218051 -0.888771 
1.290509 0.476220 2.960873 0.901473 -0.122540 0.378428 
1.269704 0.774692 2.137489 -0.825547 0.437780 0.202758 
-0.855654 -0.687027 1.761879 0.816836 0.502744 0.250145 
1.365123 0.447651 2.654667 0.977530 -0.069554 0.101988 
-1.691995 0.075710 2.378273 0.896169 0.176029 0.317030 
-0.834922 0.246944 0.978484 -0.910264 -0.259960 -0.306759 
-0.168452 -0.732946 -0.055015 -0.192577 -0.385914 -0.896944 
0.333132 -0.597702 0.042342 0.007559 -0.015664 0.940410 
-0.340758 -0.350606 -0.138650 -0.700717 -0.225703 -0.635872 
0.950200 0.661263 1.292137 -0.890355 0.057958 0.434588 
0.807067 0.139215 0.876125 0.911117 -0.196228 -0.344924 
1.054507 0.581690 1.336258 0.900510 -0.284974 -0.326923 
1.009416 -0.065184 1.343153 -0.889082 0.108918 0.341749 
0.034320 0.404954 -0.407067 0.474903 0.174920 -0.847167 
0.876953 0.169653 1.011446 0.912791 -0.241764 -0.316079 
-0.613007 -0.708325 0.580608 0.838413 -0.023800 0.445078 
1.086183 0.658129 1.394248 0.897466 -0.287182 -0.333802 
-1.252991 -0.472868 2.063438 0.479144 0.432896 0.696590 
-1.220507 0.076508 1.733755 0.926961 0.007473 0.339910 
0.451109 -0.109794 0.169268 -0.498024 -0.087852 0.784318 
-0.337229 -0.175441 0.102197 -0.371914 -0.139307 0.849492 
0.146495 0.642872 0.345313 0.153974 0.176013 0.963487 
1.163614 -0.200466 1.779689 0.825025 -0.347489 -0.400173 
-0.405525 0.200181 -0.116799 -0.828272 -0.099852 -0.517261 
-0.794438 0.331454 0.859240 -0.923101 -0.241420 -0.288417 
-0.677435 -0.166998 0.729831 0.916215 0.036527 0.382946 
-0.044396 -0.553365 -0.155349 -0.211617 -0.513248 -0.814063 
-0.762509 0.028833 0.924933 0.875314 -0.015437 0.435658 
0.307890 0.896646 0.093835 0.919988 0.310345 -0.051886 
-0.888170 0.270939 1.207793 0.829024 -0.079215 0.491983 
0.915892 0.312760 1.078215 0.912490 -0.274182 -0.301998 
0.724423 -0.629742 0.804298 0.917435 -0.123593 -0.348401 
-1.635582 -0.275183 2.931827 -0.866381 -0.448046 -0.140958 
-0.265176 0.541107 0.263202 -0.219239 -0.200401 0.933638 
-1.441750 -0.380813 2.220395 -0.804324 -0.407621 -0.414938 
0.891436 -0.309760 1.079548 0.914672 -0.199186 -0.323594 
0.842546 0.068366 1.024061 -0.860582 -0.031275 0.436508 
1.215881 0.029827 1.735644 0.857041 -0.212397 -0.462456 
-1.861386 0.341243 2.638104 0.937727 0.192376 0.255046 
-0.117965 -0.679768 -0.089346 -0.032640 -0.414483 -0.906007 
-1.263432 -0.168793 1.825189 -0.891809 -0.243271 -0.333070 
0.889181 -0.668669 2.281902 -0.793676 0.581409 -0.021401 
-0.721862 -0.756366 1.197109 0.930623 0.273436 0.203146 
-0.316563 0.592019 0.255214 -0.419674 -0.178446 0.836483 
-0.656025 -0.841384 1.652914 -0.770676 -0.577122 -0.267276 
-0.218161 1.106086 0.175600 -0.301571 0.497469 0.622264 
-0.503099 -0.072693 0.173373 -0.888352 -0.113818 -0.435476 
0.367035 -0.984463 0.241692 -0.379933 0.052796 0.852211 
0.170654 0.805922 -0.178227 0.509429 0.460649 -0.713289 
0.514257 0.311190 0.096207 0.908440 -0.022958 -0.395152 
1.222186 0.144737 1.736451 0.873181 -0.189124 -0.394709 
-0.067650 0.237639 0.243392 -0.094811 -0.256019 0.951867 
-1.658085 -0.244399 3.005456 -0.879742 -0.438446 -0.106770 
-1.692642 0.489529 2.391760 0.835842 0.124892 0.423703 
0.993001 0.117952 3.219946 0.790373 -0.316063 0.511743 
0.548690 -0.988992 0.417158 0.703682 0.167887 -0.634420 
0.587900 -0.251788 0.419704 0.881733 -0.102199 -0.451717 
0.399020 -0.643477 0.185642 -0.368044 0.049735 0.852649 
-0.677308 0.398581 0.738568 0.866300 0.262086 0.387302 
0.834449 -0.699250 1.317513 0.865524 -0.418884 -0.119874 
-0.555527 0.247559 0.249292 -0.911561 -0.110672 -0.386302 
1.300922 0.484702 2.871595 -0.908545 0.082348 -0.281256 
1.041529 -0.485437 2.452832 -0.841297 0.506410 -0.107539 
-1.707212 0.689793 2.309702 0.754693 0.285890 0.548123 
1.007503 -0.121446 2.979537 -0.815959 0.343436 -0.433942 
-1.822400 0.164459 2.941433 0.956691 0.229521 0.065362 
1.043100 0.083783 1.409529 -0.885895 0.033406 0.345627 
-1.805092 0.424128 2.430524 -0.896710 -0.061586 -0.404881 
1.351268 0.480861 2.410596 0.989600 0.030194 0.077008 
0.390352 0.575430 0.182942 -0.252424 0.361045 0.652783 
-0.480132 -0.343572 0.173613 -0.859113 -0.147265 -0.473946 
0.402501 -0.322399 -0.054759 0.826598 -0.165654 -0.533391 
-0.582543 0.237631 0.522677 0.824507 -0.175416 0.517734 
-0.979325 -0.657355 1.895480 -0.620297 -0.530246 -0.543045 
-0.004320 -0.005344 0.197186 -0.078419 -0.107153 0.987888 
-0.682821 -0.319151 0.805514 0.925744 0.098463 0.341243 
-1.801661 0.112774 2.607671 -0.987915 -0.133444 -0.055945 
-0.339509 -0.607109 -0.033287 -0.729593 -0.198418 -0.626106 
-1.659336 -0.216283 2.861380 -0.846442 -0.462905 -0.185364 
-0.358105 0.288856 -0.217692 -0.746587 -0.027783 -0.643705 
-0.497365 0.208058 0.342838 0.743987 -0.182716 0.608570 
1.290377 0.445289 2.436836 -0.936953 0.075478 0.029716 
0.765749 -0.206835 0.819556 0.909953 -0.127731 -0.376910 
0.259450 0.693598 -0.217281 0.491988 0.462888 -0.720626 
-1.281678 -0.100512 1.799142 -0.889629 -0.188895 -0.378739 
0.717987 0.321116 0.784632 -0.835178 -0.191944 0.507519 
-1.003101 0.315888 1.462706 0.823208 -0.069097 0.486582 
-1.206198 -0.166738 1.738832 -0.568042 -0.290365 -0.737328 
-1.576360 0.461519 2.100217 -0.850898 -0.102137 -0.511524 
1.327808 0.200669 2.589626 0.855157 -0.470966 -0.094048 
0.324056 -0.343298 -0.157402 0.624971 -0.260142 -0.694683 
0.710622 0.186443 0.769703 -0.849353 -0.139637 0.491002 
-1.072678 -0.163018 1.601050 0.875180 0.189645 0.404127 
-0.529008 -0.466583 0.430607 -0.807677 -0.148882 -0.497026 
-1.706372 0.330304 2.258072 -0.797305 -0.172168 -0.552011 
1.328837 0.401737 2.784472 0.941157 -0.144822 0.236233 
-0.071076 0.001123 -0.380951 -0.464903 -0.116589 -0.854172 
-1.538835 -0.415602 2.660577 -0.819347 -0.481680 -0.263334 
-0.301169 0.306541 0.183440 -0.155682 -0.216637 0.960775 
0.644833 -0.064542 0.539166 0.908271 -0.097258 -0.402877 
1.194619 -0.207833 2.440192 0.870214 -0.468048 0.053108 
-1.167642 0.443376 1.717160 0.688717 -0.026800 0.675819 
-1.774364 0.038466 3.136453 -0.947882 -0.304515 0.031410 
1.049589 0.167203 1.423012 -0.881024 -0.012002 0.355159 
0.623319 -0.029362 0.475993 0.906272 -0.097151 -0.407368 
1.317493 0.259357 2.255949 0.921696 -0.257327 -0.215246 
0.802742 -0.709611 1.441863 0.816378 -0.537143 -0.028977 
-0.483077 0.074956 0.089070 -0.892266 -0.101461 -0.434856 
-0.477111 -0.105290 0.110862 -0.877683 -0.122104 -0.453611 
0.470387 0.134904 0.270203 -0.675504 -0.169385 0.672643 
-0.528082 -1.005235 0.375996 0.690987 -0.211264 0.609812 
-0.115037 -0.851005 -0.042054 -0.174169 -0.313621 -0.910164 
-1.364610 -0.366664 2.093290 -0.818776 -0.414944 -0.378885 
0.445125 0.682500 0.000361 0.692762 0.665886 -0.217159 
0.878596 -0.061327 3.249077 -0.768080 0.384274 -0.507019 
-0.862734 -0.505415 1.320832 -0.886039 -0.297699 -0.320473 
0.917048 -0.427239 2.784264 -0.797700 0.511161 -0.265096 
0.308547 -0.069737 -0.224962 0.602458 -0.174167 -0.747688 
-0.392520 0.304647 -0.154000 -0.798565 -0.032913 -0.566570 
-0.662028 -0.787642 0.636325 -0.921463 0.016907 -0.372139 
-1.407372 0.796719 1.954201 0.579047 0.465780 0.597919 
0.801090 -0.749478 2.156573 -0.777056 0.604205 0.017320 
0.722317 -0.763863 0.809399 -0.911773 0.065426 0.367175 
1.136278 -0.247182 1.657182 0.861502 -0.326980 -0.346457 
-0.050116 -0.613924 -0.115149 -0.176713 -0.399197 -0.890999 
-0.088553 -0.496205 -0.198954 -0.193734 -0.559370 -0.797524 
0.534284 0.167261 0.207357 0.899611 -0.109274 -0.417742 
0.938542 -0.085701 1.150857 0.914115 -0.246133 -0.303504 
0.185965 1.251754 0.283798 0.864035 -0.467969 -0.157231 
-0.098750 0.082314 -0.383653 -0.505680 -0.066161 -0.843534 
-1.381113 0.177571 1.892003 -0.817301 -0.105721 -0.527399 
-0.578885 0.106759 0.347076 -0.913310 -0.122623 -0.381720 
-0.259186 0.840723 0.259975 -0.684037 0.195131 0.651481 
0.151406 -0.767617 0.112191 -0.106828 -0.076058 0.894261 
-1.144843 -0.675098 2.134343 -0.760204 -0.509293 -0.383988 
-0.000458 0.612367 0.355799 -0.019061 0.183743 0.979705 
0.121079 -1.355019 0.196069 -0.727245 -0.482576 0.021670 
-0.799046 -0.929297 1.965245 0.707664 0.558146 0.416184 
-0.112358 0.411820 -0.361774 -0.525784 0.161363 -0.810914 
1.120788 -0.298406 1.716736 0.834269 -0.401776 -0.332386 
-1.479644 -0.010380 2.043456 0.770406 0.180342 0.594615 
-0.514886 0.324234 0.093639 -0.911337 -0.011122 -0.385042 
-0.755098 0.265513 0.886043 0.854093 -0.143044 0.472727 
-0.233859 -0.847860 0.107931 -0.082003 0.058573 0.928987 
-0.843637 -0.565864 1.365041 -0.878788 -0.327827 -0.304128 
-0.154529 -0.259405 -0.283883 -0.452302 -0.261834 -0.830417 
-0.908995 0.648462 1.235113 0.837244 0.309462 0.270063 
-0.516635 -0.686363 0.437193 -0.782305 -0.120399 -0.525078 
-0.384687 -0.305724 -0.093773 -0.833805 -0.160737 -0.525242 
0.032318 -0.789434 -0.050894 0.261680 -0.302099 -0.908490 
1.141044 0.075968 2.943635 -0.823811 0.443388 -0.305576 
-1.672528 -0.142843 2.649964 0.931099 0.261314 0.139778 
-0.384637 0.711854 0.136345 -0.610868 0.527633 0.491102 
0.897601 -0.098770 3.182569 -0.775137 0.413858 -0.463442 
-1.610279 0.110294 2.195301 0.803184 0.186711 0.554923 
-0.933825 -0.917660 2.141081 0.666295 0.542777 0.497453 
-1.093843 0.342411 1.615207 0.838705 -0.081845 0.460237 
-1.801272 0.109636 2.983508 -0.949077 -0.284540 -0.039742 
0.706591 0.230178 0.653177 0.920354 -0.187710 -0.339915 
0.800425 0.071389 0.942912 -0.859564 -0.053022 0.451322 
0.886103 -0.655029 1.193402 -0.931375 0.247375 0.236729 
1.092231 0.190539 1.504943 -0.889847 -0.014403 0.333539 
0.974236 -0.594690 2.423948 0.808673 -0.574281 0.118082 
-0.829555 0.574350 1.095146 0.905143 0.092724 0.393953 
0.903943 0.418642 1.147376 -0.825119 -0.190551 0.482165 
0.834216 -0.692217 1.068597 -0.940295 0.199149 0.264944 
-0.303227 -0.911426 0.117141 -0.589965 -0.232975 -0.749017 
1.244086 0.158100 1.917889 0.968614 -0.114351 -0.013574 
0.523654 -0.352357 0.325851 -0.561058 0.018938 0.699012 
0.418882 -0.567146 0.178775 0.736042 -0.183200 -0.603336 
0.439111 0.412876 0.337118 -0.798928 0.082329 0.561618 
-0.741893 0.093919 0.867943 0.874233 -0.061451 0.441362 
0.475730 -0.797211 0.392000 -0.567849 0.025951 0.704776 
-0.904993 0.192547 1.257168 0.831679 -0.027655 0.484186 
-0.438412 0.130777 0.192096 0.608130 -0.175914 0.724741 
-0.576116 0.489500 0.465412 0.800372 0.381982 0.440790 
0.352266 0.167015 0.137968 -0.059305 -0.219225 0.894190 
1.049946 0.396196 3.265541 0.736883 0.106583 0.590926 
0.806665 -0.365619 0.929606 0.916928 -0.164412 -0.338801 
1.179292 0.302985 3.058432 -0.851398 0.135703 -0.462851 
0.652469 -0.326079 0.646017 -0.891633 0.001807 0.443355 
1.047459 0.166100 1.349368 0.909320 -0.291347 -0.293916 
1.297505 0.302727 2.893505 -0.920598 0.208681 -0.325702 
-0.887704 -0.417518 1.346425 0.881154 0.261032 0.366585 
-0.195997 -0.418946 -0.228101 -0.437028 -0.355353 -0.817365 
1.151979 -0.072945 1.591044 0.889038 -0.264121 -0.352917 
-0.430531 0.378760 0.284996 0.758273 -0.019153 0.603645 
1.180755 0.569859 1.728905 -0.846258 -0.264978 0.367632 
-0.944847 -0.342348 1.402555 -0.857741 -0.301132 -0.402187 
-0.959645 -0.166090 1.382385 -0.858736 -0.311310 -0.398009 
-0.403231 -0.725475 0.275099 0.460609 0.061450 0.774143 
1.268137 0.494424 2.375031 -0.922606 0.066546 0.050216 
-0.267555 -1.012176 0.093890 -0.541875 -0.249015 -0.799614 
-1.153446 0.253088 1.670623 0.876900 -0.058463 0.408579 
1.246109 0.235103 1.928407 0.963413 -0.134108 -0.069719 
-0.878941 -0.956752 2.114079 0.676450 0.551173 0.483709 
0.139784 -0.253452 0.184484 0.218276 -0.021359 0.972371 
1.181754 0.924015 1.672121 0.891054 0.269598 0.202398 
-1.292876 -0.033772 1.750432 -0.751321 -0.171479 -0.603271 
1.044989 -0.360688 2.628105 -0.832658 0.439064 -0.237800 
-1.313051 0.752210 1.810763 -0.910858 -0.057509 -0.403863 
0.843717 0.663741 0.990839 -0.870758 0.258671 0.335294 
-0.701315 -0.236834 0.738981 -0.922890 -0.125121 -0.354075 
0.756396 0.567318 0.830071 -0.891547 0.286832 0.319860 
1.112781 -0.294424 1.588803 0.879142 -0.334092 -0.304970 
-1.493343 -0.403783 2.381376 0.825012 0.388063 0.356257 
-0.665352 -0.672102 0.794308 0.936613 0.059969 0.300562 
-0.716947 -0.748552 1.606318 -0.791575 -0.520555 -0.289958 
-1.275545 0.122117 1.743306 -0.901837 -0.141119 -0.387592 
1.153867 0.488916 1.702048 -0.838840 -0.061717 0.478683 
-1.208401 0.875905 1.714915 -0.704298 0.622351 -0.332069 
0.570301 -0.662200 0.507154 0.796859 -0.081332 -0.539425 
0.033910 -0.214385 -0.341217 0.366227 -0.288157 -0.852506 
0.339505 0.131594 -0.216743 0.694234 -0.095130 -0.678442 
0.142928 1.024863 0.351350 0.208808 -0.102910 0.965668 
0.649168 0.560458 0.579984 0.869678 0.181220 -0.418141 
0.943286 0.133483 1.219074 -0.857124 -0.019807 0.412982 
0.029875 -0.563211 -0.145679 0.286446 -0.508962 -0.800725 
0.641985 -0.252656 0.574760 0.889529 -0.085657 -0.434573 
-0.800334 0.607747 0.895022 -0.810842 0.267692 -0.501144 
-0.221178 1.074957 0.330297 -0.602130 0.650017 -0.391372 
-0.444144 -0.438379 0.141696 0.369193 0.018375 0.841544 
0.725259 -0.549096 0.841359 -0.927037 0.113235 0.332957 
0.453723 0.667883 0.171177 0.671387 0.693208 -0.025268 
1.174478 0.076326 1.784959 -0.968013 0.061520 0.030986 
-1.390755 -0.468647 2.235242 -0.804825 -0.446635 -0.375940 
-0.541210 0.391035 0.128501 -0.920892 0.058974 -0.350326 
-0.381979 0.064546 -0.126425 -0.764466 -0.150572 -0.569054 
-1.840282 0.213540 2.892901 0.960745 0.198475 0.077824 
1.279054 0.079385 2.154165 -0.967201 0.136691 0.171812 
-0.175504 1.101791 0.383649 0.128222 -0.039783 0.904228 
-1.401160 -0.360865 2.161905 0.678255 0.390909 0.553312 
1.013168 -0.380694 1.330014 0.919495 -0.273302 -0.269505 
-0.417996 -0.648624 0.244847 -0.717117 -0.186914 -0.607941 
-1.716952 0.029344 2.460778 0.943076 0.174858 0.188740 
-1.256966 -0.569908 2.171727 0.585487 0.461022 0.585111 
-0.931377 0.573492 1.263079 0.815051 -0.243765 0.513504 
0.349180 -0.556881 -0.050233 0.740446 -0.204644 -0.615512 
1.115073 -0.013099 1.560780 -0.922242 0.086930 0.201751 
-0.061041 -0.254101 0.190870 -0.148496 -0.001105 0.984122 
-1.026983 0.084440 1.483969 -0.846198 -0.328927 -0.415318 
-0.262816 0.059068 0.148583 -0.260309 -0.187784 0.928152 
0.829512 -0.730776 2.243963 0.781255 -0.614190 0.053827 
-0.158774 1.137354 0.274031 -0.883367 0.150392 -0.205324 
-0.659546 -0.532948 0.770480 0.935534 0.068013 0.312109 
-0.291323 0.918585 0.040749 -0.875580 0.330141 -0.264746 
1.053849 -0.442487 1.892516 0.842544 -0.503241 0.165131 
-1.346683 -0.669821 2.389484 0.771186 0.494811 0.391191 
0.380088 -0.432678 0.016238 0.054099 -0.022367 0.906993 
0.813459 -0.013702 0.899626 0.911187 -0.180661 -0.349373 
-0.856908 0.003853 1.084109 -0.893188 -0.253547 -0.350556 
0.222201 0.251242 0.219112 0.232374 -0.238876 0.940990 
1.084735 -0.423543 2.054706 0.847658 -0.498870 0.161284 
0.050153 -0.364120 0.194805 0.108498 -0.009926 0.991931 
0.437265 0.320189 -0.080531 0.864184 -0.020496 -0.466705 
0.612570 0.428910 0.308445 0.911486 0.183513 -0.327415 
-0.087110 1.084312 -0.093429 -0.408194 0.379791 -0.816457 
0.541669 0.196160 0.428114 -0.776251 -0.172332 0.576130 
1.020964 -0.287083 1.361893 -0.918970 0.227544 0.288513 
0.855307 -0.654372 1.782140 -0.811134 0.536986 -0.136678 
1.182051 0.721804 1.817208 -0.936805 -0.135924 0.270115 
-0.464318 0.634540 -0.021007 -0.775452 0.458087 -0.341944 
0.475098 -0.335427 0.181239 -0.430522 0.000844 0.806824 
0.968304 0.006607 1.202818 0.914870 -0.275581 -0.287608 
0.473453 0.041843 0.065749 0.878828 -0.101694 -0.461344 
-1.078951 -0.712941 2.103146 0.578580 0.492103 0.590745 
-0.052954 1.340601 0.082689 -0.580422 0.708076 0.372322 
-0.647895 -0.270162 0.673251 0.930150 0.046445 0.358307 
-1.289368 -0.148262 1.888424 0.549124 0.264869 0.760695 
-0.174072 0.185732 0.217191 -0.235535 -0.206727 0.947903 
0.884422 -0.209776 1.099999 -0.905017 0.124202 0.353330 
-0.825522 0.591309 1.006504 0.866446 0.387006 0.238928 
-1.194301 0.379013 1.653880 -0.689955 -0.276672 -0.613510 
-0.692427 -0.475209 0.887939 -0.932989 -0.186879 -0.272458 
1.140578 0.375918 3.165492 0.838418 -0.185311 0.499111 
0.752544 -0.772213 1.440774 -0.809741 0.560874 -0.011181 
-0.507305 0.526800 0.003934 -0.881292 0.193699 -0.377521 
-1.838385 0.450349 2.529931 -0.919627 -0.105387 -0.332411 
-0.354237 -0.850547 0.215352 -0.624828 -0.215181 -0.703538 
-0.770770 -0.577870 1.170247 0.918584 0.233565 0.274810 
-0.027456 1.404762 0.014452 -0.543457 0.738461 -0.128842 
-0.353954 0.393980 -0.222703 -0.698615 0.051348 -0.690135 
-0.941526 0.646203 1.310123 0.867651 -0.027823 0.453541 
1.123023 0.302478 3.135927 -0.817468 0.102308 -0.527551 
0.146315 1.182225 -0.016056 0.657750 0.461694 -0.532353 
-1.749083 -0.026484 3.182263 -0.944777 -0.319169 0.054306 
-0.038706 0.414298 -0.402057 -0.476128 0.181185 -0.844985 
-0.823915 -0.648467 1.662685 -0.742184 -0.508148 -0.378927 
0.309088 -0.757744 0.018666 0.643220 -0.234186 -0.699777 
-1.321988 -0.494042 2.176687 0.590797 0.440163 0.589732 
0.728991 -0.804447 1.870378 0.755949 -0.637495 -0.072644 
-1.790955 0.084828 2.688225 -0.981914 -0.159389 -0.038525 
-1.574438 -0.395558 2.938050 0.880783 0.428200 0.133434 
0.153296 0.018642 -0.341052 0.519818 -0.104834 -0.825761 
-0.240642 0.970082 -0.022813 -0.745215 0.331158 -0.500734 
0.674228 0.167728 0.696869 -0.862183 -0.133738 0.476983 
0.241685 -0.502206 -0.155826 0.178119 -0.410490 -0.832522 
-1.605781 -0.318561 2.865217 0.896953 0.379239 0.130695 
0.370322 0.659470 0.204298 0.474809 0.166030 0.745617 
-1.026133 -0.671756 1.980303 -0.597333 -0.527560 -0.588233 
0.715280 -0.819218 1.777011 -0.781518 0.607557 -0.038806 
1.191204 -0.073203 1.889323 -0.882970 0.229153 0.369799 
-1.406922 -0.512784 2.313022 0.746430 0.444470 0.448075 
-0.794829 -0.821646 1.828818 -0.704028 -0.563191 -0.393419 
-0.114055 0.163920 -0.387242 -0.534009 -0.032409 -0.829524 
-1.691475 -0.004441 2.397921 -0.776416 -0.451398 -0.422919 
-1.207462 -0.082059 1.730421 0.933357 0.100515 0.321198 
-0.329396 -0.245777 -0.153922 -0.636395 -0.247001 -0.681238 
0.467246 0.420729 -0.045892 0.865766 0.083569 -0.434367 
-1.117330 -0.440393 1.852230 0.883430 0.415015 0.196270 
-0.216750 -0.291686 0.158096 -0.390837 -0.057364 0.882416 
-1.185194 0.373137 1.733273 0.659467 0.007253 0.709505 
-0.074718 -0.317336 -0.299653 -0.372341 -0.340826 -0.840389 
-1.890900 0.397445 2.950342 0.991027 0.010835 -0.044582 
1.300019 0.561793 2.851332 -0.934227 0.180738 -0.202417 
0.006535 -0.857807 0.108651 0.522302 -0.109703 0.834016 
-1.532183 0.000690 2.111573 0.788726 0.210592 0.562591 
-1.386087 0.468337 1.900727 -0.756588 -0.292415 -0.541570 
-0.768484 -0.469276 1.098403 0.913132 0.199320 0.312915 
-0.926183 0.356119 1.282125 0.824199 -0.117308 0.495994 
-0.043739 0.678488 0.340668 -0.064432 0.086079 0.987761 
0.959362 -0.490425 2.632467 0.799066 -0.548612 0.197998 
1.081586 -0.431553 2.391922 -0.861134 0.483715 -0.060998 
-0.410649 0.129855 -0.095153 -0.835079 -0.125694 -0.499403 
-0.025822 -0.146686 0.194496 -0.109356 -0.043459 0.987194 
-0.853031 0.530102 0.917724 -0.848881 0.164668 -0.489504 
0.121847 1.234694 0.257358 -0.146234 0.852725 0.414413 
1.224403 0.393032 1.698884 0.977529 -0.137703 -0.014796 
0.113234 -1.250660 0.182061 -0.699903 0.101191 0.383762 
-0.869424 0.700760 1.067672 0.839954 0.294748 0.295511 
-1.030613 0.560658 1.377153 -0.860967 -0.323912 -0.381701 
0.131268 -1.168612 0.157551 -0.602046 0.122590 0.583282 
1.083003 -0.420191 1.970498 0.846824 -0.498450 0.177301 
-0.015395 1.100083 0.350463 -0.053738 0.331612 0.910214 
0.554946 0.524795 0.116790 0.914815 0.241893 -0.310989 
-1.691859 -0.156586 2.995706 0.896849 0.406352 0.098922 
0.053053 0.093210 -0.411254 0.475068 -0.060006 -0.862328 
0.984968 -0.514657 1.746055 0.777771 -0.566975 -0.213987 
-1.426909 0.373077 1.946907 -0.752889 -0.236556 -0.572513 
-0.333071 -0.681717 0.045750 0.120880 0.011876 0.958633 
1.050267 0.274433 1.425672 -0.872849 -0.072304 0.371970 
-0.799088 0.095863 0.916977 -0.912406 -0.220708 -0.324442 
0.621180 -0.157993 0.586668 -0.863329 -0.015529 0.471328 
-0.028899 0.907976 -0.193382 -0.396990 0.449383 -0.789303 
-0.362380 -0.088097 -0.130297 -0.715844 -0.197900 -0.608081 
0.904739 -0.588252 1.169876 0.929642 -0.250595 -0.259912 
-1.191519 -0.693137 2.221754 0.657788 0.492761 0.508702 
-1.523737 -0.426229 2.554906 -0.797455 -0.497613 -0.316841 
1.262491 0.167012 2.004247 0.973589 -0.081209 -0.125280 
-1.031738 0.010930 1.513083 -0.842205 -0.330857 -0.423765 
1.140105 0.332413 1.522713 0.901586 -0.298792 -0.309515 
0.053582 1.194162 0.291236 -0.155664 0.665138 0.704420 
1.227505 0.072246 1.839034 0.970016 -0.120254 0.131972 
1.295037 0.023462 2.473961 0.883887 -0.437091 -0.011972 
0.475369 -0.035591 0.084807 0.872182 -0.110235 -0.469955 
-0.515273 0.143646 0.380473 0.767626 -0.149506 0.577078 
-1.599236 -0.314577 2.777728 0.893080 0.366139 0.156736 
0.314862 0.865205 0.165067 0.886933 0.305286 0.254854 
-1.109665 0.483018 1.574743 -0.826402 -0.337148 -0.442803 
1.302941 0.145295 2.207557 0.946103 -0.182701 -0.189373 
-0.310094 -1.008662 0.155288 -0.581186 -0.216970 -0.755173 
0.459025 -0.255204 0.158010 -0.437156 -0.033133 0.813356 
0.427682 0.538576 0.268461 -0.777965 0.308907 0.535108 
-1.741001 0.400830 2.483140 0.878902 0.144548 0.335184 
0.595962 -0.071398 0.408225 0.900499 -0.078577 -0.426717 
0.193839 0.496910 -0.307828 0.538266 0.198519 -0.799451 
-1.023913 0.272472 1.516184 0.824282 -0.036880 0.481353 
1.138241 -0.346384 2.117013 0.873203 -0.455356 0.106094 
