-0.403105 -0.738919 0.029237 0.302109 0.041800 -0.896027 
0.333998 -0.300603 0.116788 0.267210 0.057282 -0.939661 
0.381363 1.394156 0.903908 0.786461 -0.266557 0.504492 
0.986730 0.608997 -0.165255 0.786775 -0.224680 0.573866 
-0.411688 2.659452 0.013404 0.520324 -0.557956 -0.633022 
1.765164 1.603531 -0.115959 -0.329163 0.779655 -0.512741 
1.825869 2.333567 1.251368 0.282705 -0.911067 0.280285 
1.599330 1.417008 -0.286003 0.092776 -0.903743 0.353326 
-0.449700 1.775437 0.851609 0.714744 -0.397965 -0.565034 
0.806569 -0.318618 -0.210094 0.575601 -0.031386 0.806437 
0.161730 1.116412 0.193168 0.555131 0.437875 -0.696711 
-0.415967 0.578525 0.398834 -0.029766 0.667413 -0.469956 
0.172177 1.201154 0.356098 0.742278 0.626920 -0.127954 
-0.833736 1.099866 0.043781 -0.909581 -0.053462 0.356078 
-0.248076 1.148412 0.694347 -0.470338 0.532842 -0.698142 
1.815787 2.089217 0.709043 -0.299226 0.763595 -0.540831 
0.881632 -0.229253 -0.252079 -0.495779 0.004466 -0.855054 
-0.703374 0.123260 -0.211658 0.695195 0.167780 -0.628934 
1.847894 2.018461 0.531250 0.309238 -0.860662 0.393458 
1.750585 1.810355 0.219878 -0.296363 0.843483 -0.437010 
-0.697779 2.414193 -0.173476 0.757204 -0.398046 -0.508138 
-0.395430 -0.185508 0.196148 -0.808921 -0.178227 0.547639 
0.240516 -0.852618 0.162157 0.228160 -0.304602 0.919545 
-0.719704 2.104151 0.100379 0.846354 -0.272060 -0.442826 
-0.747556 1.005219 0.176549 -0.939955 -0.065355 0.291692 
-0.007361 -0.595387 0.042912 -0.546381 -0.251701 -0.763094 
1.045626 1.939332 1.029802 -0.366182 0.864332 -0.332080 
-0.708089 0.843400 0.174808 -0.952536 -0.143584 0.250524 
1.455992 1.370432 -0.259520 -0.042051 0.905737 -0.348437 
-0.416099 0.406517 0.102925 0.030313 0.265371 -0.846292 
2.014937 2.238237 0.911165 -0.249611 0.899445 -0.350608 
-0.075750 -1.006640 0.066998 -0.100231 -0.106525 -0.972865 
-1.133921 1.109908 -0.544569 0.846083 0.291854 -0.435666 
-0.598327 2.587749 -0.199436 0.688888 -0.473187 -0.536374 
0.055243 -0.069248 0.491744 0.112118 -0.268967 0.955395 
0.461939 0.287583 0.390304 0.639356 -0.267792 0.692727 
0.820270 1.754241 0.963372 0.587267 -0.702906 0.309255 
0.302039 -0.021558 0.427920 0.539826 -0.258094 0.771567 
-0.371568 -0.439886 0.130128 -0.800555 -0.173457 0.557557 
1.446521 1.724714 0.282491 -0.232843 0.906115 -0.339512 
-0.093600 2.753058 0.373700 0.728376 -0.412028 -0.546146 
0.139969 0.091910 -0.067176 0.545591 -0.006006 -0.832985 
0.187523 -0.812122 0.061391 -0.158808 -0.095135 -0.970516 
1.160573 1.901284 0.872793 0.433940 -0.807699 0.396300 
-0.620959 -0.205099 -0.156817 0.613903 0.128125 -0.706809 
0.981469 0.490657 -0.191325 0.762107 -0.197602 0.606150 
0.476374 0.142823 0.049369 0.052474 0.131911 -0.900510 
-0.223416 -0.093368 0.447601 -0.462581 -0.259793 0.806706 
0.049753 0.134333 -0.124898 0.518155 0.026958 -0.850564 
1.570472 1.545399 -0.064396 0.169598 -0.899343 0.329015 
1.387897 1.735896 0.340746 -0.236575 0.908839 -0.330865 
0.512573 1.415038 0.738193 0.818461 -0.371690 0.370783 
0.967520 0.746059 -0.128100 -0.704358 0.271870 -0.646379 
1.361939 0.951043 -0.548216 0.693686 -0.051929 0.715854 
-0.778009 0.870561 0.023050 -0.926804 -0.133120 0.317040 
-1.235188 1.525175 -0.426116 0.833021 0.150591 -0.488094 
-0.534181 1.112195 0.655134 -0.636884 -0.382366 0.563196 
0.087784 0.955507 0.604180 0.197687 -0.121446 0.965557 
1.193821 1.124261 -0.294139 0.666106 -0.421683 0.582964 
-0.258090 0.926431 0.488953 -0.800720 0.044525 0.552735 
-1.000056 0.470860 -0.614990 -0.781267 -0.234476 0.427511 
-0.824574 2.336718 -0.266184 0.776413 -0.355209 -0.508791 
-0.271431 -0.317514 0.062682 -0.414402 -0.023964 -0.880746 
1.289489 1.057181 -0.446072 -0.680987 0.227190 -0.669103 
0.386280 0.154541 0.432515 0.624848 -0.243239 0.735542 
0.772940 1.625484 0.786196 0.624438 -0.627495 0.387443 
0.988557 1.352533 0.124499 -0.551695 0.590471 -0.567691 
-1.245834 1.244156 -0.704955 -0.871090 -0.334087 0.337963 
0.524411 1.062733 0.506980 -0.651356 0.350647 -0.638170 
-0.716060 0.049302 -0.222031 -0.807938 -0.153835 0.528158 
1.384631 2.036625 0.895334 -0.353968 0.748197 -0.542040 
0.994567 1.605484 0.558353 0.360386 -0.868253 0.258481 
-0.327649 1.922426 0.918948 -0.263459 0.480562 0.803946 
0.444417 0.543795 0.223417 0.274725 0.509466 -0.689908 
-0.147536 -0.122755 0.465565 -0.212442 -0.253273 0.941101 
-0.060390 2.575132 0.591350 -0.730061 0.478761 0.480736 
0.269552 -0.104474 0.422342 0.512571 -0.262598 0.781904 
-0.666189 -0.245192 -0.236245 -0.769347 -0.132928 0.568088 
-0.917707 0.544703 -0.458568 -0.847965 -0.253453 0.404904 
-0.258912 -1.199775 0.050070 0.383547 -0.065052 -0.886085 
0.463810 1.111778 0.586362 -0.843942 0.015468 -0.440269 
-0.292655 0.057927 0.050260 -0.432076 0.026051 -0.858310 
0.766695 0.328370 -0.094478 -0.352733 0.169273 -0.754871 
0.028083 0.748945 0.561775 0.071357 -0.071463 0.983430 
0.066899 0.268142 0.586672 0.147764 -0.165865 0.967832 
0.523148 0.297092 0.323097 0.734380 -0.342993 0.576604 
1.283692 1.223677 -0.433305 -0.609969 0.471485 -0.620496 
0.695601 0.773586 0.157399 -0.547554 0.491916 -0.670241 
0.094591 -0.005707 0.507404 0.171462 -0.266887 0.944845 
-0.698678 1.075776 0.330620 -0.958969 -0.018912 0.253257 
-1.087080 2.106429 -0.366374 -0.819427 0.273304 0.480316 
0.596895 0.192687 0.155068 0.767109 -0.286828 0.565887 
1.147882 0.654112 -0.364477 0.720371 -0.117449 0.671269 
0.456609 -0.661863 0.027523 0.671722 -0.118723 0.720088 
-1.046474 0.957884 -0.545374 0.851667 0.304178 -0.407876 
0.166796 1.064843 0.503826 0.680306 0.583504 -0.021788 
0.305554 -0.940777 0.045113 -0.233307 0.002244 -0.964826 
0.368282 0.730847 0.359313 0.922725 0.333118 0.056643 
0.978710 0.977428 0.004049 0.733533 -0.310895 0.540487 
0.319341 0.593700 0.048616 0.661885 0.189031 -0.701167 
-0.667505 2.300751 -0.002097 -0.555840 0.630110 0.476355 
-1.074816 2.217979 -0.481989 0.621224 -0.559051 -0.519022 
0.422869 0.026712 0.314735 0.692935 -0.238941 0.672020 
-1.212815 1.841948 -0.271089 -0.824662 0.187112 0.524694 
-0.222261 2.359801 0.541676 0.732506 -0.450047 -0.502650 
-0.697600 0.654455 -0.099257 0.626389 0.307640 -0.579619 
1.957593 2.171051 0.797315 -0.258961 0.902412 -0.331502 
-0.723076 0.375635 -0.220520 0.607281 0.191533 -0.607768 
0.460644 0.378180 0.415033 0.560296 -0.221009 0.762218 
0.755451 -0.068844 -0.127388 -0.534358 0.130175 -0.790778 
-0.742001 2.018614 0.116942 0.694355 -0.495816 -0.490820 
-0.622254 2.296069 0.064353 -0.607318 0.591265 0.483880 
-0.394812 2.585255 0.116954 -0.832182 0.344804 0.418083 
0.545721 0.163083 0.014796 -0.043221 0.136992 -0.863519 
0.085485 0.201352 -0.104076 0.530112 0.029069 -0.843886 
-0.099296 1.032230 0.603092 -0.071747 -0.045447 0.956295 
1.810067 2.137831 0.826286 0.295572 -0.788003 0.519080 
-0.478707 -0.103692 0.064489 -0.861106 -0.188512 0.462857 
1.110693 0.675133 -0.302010 0.748406 -0.159675 0.631182 
0.385430 -0.181382 0.281229 0.702499 -0.231216 0.668155 
-0.653900 1.788044 0.519842 0.580504 -0.326342 -0.603639 
-0.452299 0.297257 0.371555 -0.709464 -0.282156 0.597016 
1.539727 1.379070 -0.303313 -0.046008 0.916538 -0.342998 
-0.266251 0.940434 0.243517 -0.807434 0.368082 -0.358783 
-1.180395 1.961044 -0.335134 -0.834563 0.216445 0.503348 
-1.022911 1.950329 -0.133565 0.676507 -0.396584 -0.539636 
0.042517 3.419576 0.179028 0.784411 -0.291571 -0.544976 
-1.001248 1.138734 -0.304543 0.834945 0.142827 -0.495931 
1.689829 2.323031 1.293791 -0.253090 0.877386 -0.406593 
-0.369683 2.245925 0.460562 0.600373 -0.542032 -0.580403 
-0.727601 0.201753 -0.232733 0.715231 0.179181 -0.607915 
0.520426 0.828309 0.485932 0.682892 -0.314753 0.653314 
-0.410278 0.658403 0.394803 -0.369381 0.290649 -0.022857 
0.351528 0.250168 0.083275 0.282316 0.107016 -0.931959 
0.178393 -0.128313 -0.037850 0.555257 -0.055848 -0.824667 
-0.262128 0.325677 0.016098 -0.639609 0.004277 -0.764401 
1.121174 1.949870 1.015271 0.437028 -0.730857 0.498531 
0.224806 0.869453 0.524337 0.657275 0.018463 0.741483 
0.429487 0.270385 0.073996 0.110755 0.151045 -0.938455 
-0.341822 -0.249072 0.336980 -0.725259 -0.251998 0.638765 
0.449449 1.070392 0.672441 0.339688 -0.508123 0.667608 
-0.637037 2.218298 0.092413 0.787086 -0.372367 -0.467468 
-1.141411 1.073873 -0.690174 0.860267 0.348876 -0.347911 
0.307181 0.075366 0.049131 0.429809 0.016645 -0.871081 
-0.373408 0.672185 0.234838 -0.913962 0.193983 -0.286642 
-0.339719 0.308394 0.484240 -0.511373 -0.187053 0.811267 
0.373601 0.672072 0.439373 0.808573 0.342309 0.361172 
-0.032488 1.293865 0.417509 -0.263910 0.760354 0.570018 
1.842720 1.652757 -0.090608 0.366085 -0.775074 0.503691 
-0.382214 2.154565 0.536020 0.636510 -0.515542 -0.565289 
0.176290 1.195381 0.447861 0.844408 -0.204694 0.393620 
0.054242 0.668248 0.569818 0.047530 0.143030 0.977230 
-0.549331 0.298246 0.180933 -0.853664 -0.329863 0.391126 
2.012416 2.122615 0.657457 0.281108 -0.880385 0.374019 
-0.079530 -0.529609 0.020360 -0.054760 -0.327412 -0.941815 
-0.652291 0.498160 0.079901 -0.867635 -0.321273 0.369332 
0.991931 0.561647 -0.218123 -0.690677 0.208455 -0.672950 
-1.388380 1.757235 -0.590744 -0.827113 0.042376 0.495102 
1.072090 1.903906 0.964318 0.448057 -0.700929 0.541606 
1.361794 1.402700 -0.159308 0.112351 -0.896856 0.318262 
0.812672 1.539185 0.560049 0.498944 -0.704981 0.241822 
0.564300 1.268827 0.624040 0.828791 -0.259094 0.412411 
-0.637514 1.548692 0.673450 0.727335 0.100253 -0.653577 
0.213101 1.219105 0.619690 0.812025 -0.422792 -0.361128 
-0.809777 1.022330 -0.031068 0.792956 0.242250 -0.515085 
0.597515 0.773564 0.352389 -0.859082 0.139562 -0.445161 
-0.612653 -0.129598 -0.120062 -0.810813 -0.136567 0.539638 
-1.056242 1.660977 -0.109290 0.821296 -0.087495 -0.539015 
0.336938 0.797288 0.264704 0.912033 0.333918 -0.227416 
-0.531743 0.686018 0.424929 -0.488069 -0.381018 0.667674 
1.760442 1.859617 0.297523 0.374805 -0.754328 0.495340 
0.001828 0.483921 0.606263 0.048010 -0.037323 0.995121 
1.226785 0.922970 -0.373403 0.751674 -0.173396 0.621401 
-0.839398 0.312383 -0.410316 0.716500 0.231258 -0.541048 
0.426065 1.477302 0.909665 0.784753 -0.400980 0.346430 
-0.081330 -1.205968 0.105302 -0.391984 -0.326292 0.766930 
0.081938 3.009523 0.463528 -0.582001 0.395489 0.679755 
0.255025 0.871722 0.152514 0.701936 0.429354 -0.527629 
-0.579226 -0.762915 -0.130940 -0.615740 0.055468 0.771735 
1.129384 0.754747 -0.296154 0.763631 -0.176553 0.611317 
1.843834 2.261355 1.071412 -0.258459 0.893553 -0.358347 
0.384852 -1.412635 -0.001359 -0.448472 -0.859001 0.215288 
-0.008748 -1.037025 0.057392 -0.525168 -0.061409 -0.828509 
0.273952 -0.313584 0.054814 0.451453 -0.041057 -0.870483 
-0.144591 0.593167 -0.028204 -0.494712 0.118504 -0.825724 
0.095634 0.526015 -0.060128 0.490384 0.119894 -0.847529 
0.522837 -0.215625 0.045683 0.762624 -0.179221 0.617135 
-0.656882 1.137542 0.348640 0.727655 0.357278 -0.549402 
0.245445 0.101276 -0.000848 0.577487 -0.035080 -0.812861 
-0.965998 0.736849 -0.518597 0.817345 0.291602 -0.430466 
1.905935 2.011326 0.474309 0.311063 -0.848900 0.423596 
0.526700 0.984618 0.450493 -0.809290 0.135799 -0.551773 
1.441813 1.964963 0.708999 -0.360401 0.751917 -0.528209 
-0.993008 0.385044 -0.594897 -0.741956 -0.185452 0.476968 
-0.347682 0.788101 0.297026 -0.909327 0.354721 -0.144882 
-1.359678 1.458422 -0.673026 0.844805 0.312079 -0.426642 
-0.670698 1.939970 0.306808 0.805976 -0.289820 -0.475641 
0.432418 -1.004275 0.006184 -0.388763 0.027904 -0.916139 
-0.316411 0.643146 0.016972 -0.698198 0.152266 -0.694793 
-0.047053 2.484318 0.679111 0.823785 -0.462032 -0.317059 
-0.697714 1.012465 0.292635 -0.958413 -0.045696 0.253498 
0.550198 1.508796 0.845264 0.669873 -0.492786 0.371242 
0.071873 -0.506371 0.349299 0.085250 -0.279615 0.948737 
-0.526974 2.612980 -0.106233 -0.783738 0.397916 0.460301 
0.646267 1.329744 0.550024 0.776736 -0.346576 0.425207 
0.955384 1.625649 0.615628 0.564281 -0.621503 0.516266 
0.504003 1.017344 0.592044 0.363596 -0.541284 0.687178 
-0.665137 1.360586 0.585041 -0.957670 0.075864 0.237166 
-0.583554 2.269844 0.150233 -0.665384 0.552079 0.492704 
-0.173430 2.898196 0.174108 0.768203 -0.356679 -0.523942 
-0.800152 0.677206 -0.263371 0.733265 0.253165 -0.532322 
-0.108429 3.242887 0.044975 0.764467 -0.329279 -0.553241 
1.092213 1.528545 0.180290 0.456108 -0.732708 0.426395 
-0.643277 1.221429 0.435247 0.725599 0.307063 -0.574333 
0.783809 -0.127424 -0.160781 0.673867 -0.113693 0.716905 
-0.466943 1.771146 0.924326 -0.603390 0.701452 0.363296 
-0.902826 1.349439 -0.011520 0.798648 0.085024 -0.532562 
-0.131692 0.628627 0.586065 -0.086867 0.248438 0.955665 
0.885051 0.853964 0.015307 -0.658266 0.342451 -0.648956 
-0.596691 1.498096 0.724501 0.718461 0.141846 -0.657211 
2.072530 2.463918 1.445914 0.236540 -0.908081 0.339359 
1.087004 1.169134 -0.070401 0.648301 -0.472216 0.547798 
0.686310 0.323639 0.102061 0.770184 -0.286575 0.562805 
-0.339470 3.012065 -0.126357 0.798196 -0.327085 -0.500086 
-0.561561 1.120914 0.490684 0.875027 0.233232 -0.375217 
0.302016 0.510269 0.527522 0.368685 -0.070158 0.914219 
-0.652495 2.404606 -0.107244 0.745836 -0.424488 -0.504636 
-0.810531 0.881569 -0.042719 -0.914986 -0.139210 0.341718 
-0.988964 1.574612 -0.042240 0.810840 -0.044656 -0.541637 
-0.281484 2.507138 0.331871 0.794894 -0.403089 -0.446472 
0.807005 0.269031 -0.091311 0.775365 -0.201146 0.594934 
1.375383 2.266043 1.390771 -0.361057 0.910915 -0.159228 
1.854112 2.123636 0.770119 0.281067 -0.904598 0.307367 
0.404082 -0.773803 0.039386 -0.212380 0.048280 -0.932570 
-0.371692 -0.222005 0.253388 -0.774274 -0.209491 0.585211 
0.915281 -0.157024 -0.272536 0.555794 -0.010639 0.818328 
-0.878630 2.238233 -0.221737 -0.399048 0.761190 0.454614 
-0.381794 1.955192 0.770382 0.765546 -0.334140 -0.536442 
-0.367717 0.278912 0.082123 -0.104600 0.164100 -0.950582 
-0.177459 1.120090 0.589749 -0.828876 0.258059 -0.386295 
-0.372701 2.651336 0.076036 0.486695 -0.577856 -0.650201 
-0.296866 3.205321 -0.195257 -0.767898 0.351131 0.534458 
-0.369855 -0.519125 0.126901 -0.772842 -0.168418 0.593470 
0.844726 0.336543 -0.109018 0.777895 -0.204584 0.591054 
-0.474117 -0.026631 0.129368 -0.857227 -0.231875 0.442975 
-1.200223 2.105999 -0.525629 0.691507 -0.438961 -0.528909 
-0.163167 0.377282 0.601862 -0.278469 -0.099768 0.954607 
-1.172775 1.171100 -0.563079 0.845501 0.293900 -0.436339 
-1.218048 2.160866 -0.608246 0.707766 -0.434712 -0.525357 
0.189041 0.495058 -0.025311 0.569845 0.064221 -0.802773 
-0.419596 -0.387427 0.063496 -0.837180 -0.129741 0.520543 
-0.000349 1.211241 0.177955 -0.547118 0.272700 -0.746825 
-0.876197 1.277260 -0.003636 0.795107 0.125640 -0.529522 
0.055265 1.189538 0.538514 -0.146911 0.668068 0.712815 
0.690854 1.413684 0.528317 0.736539 -0.440330 0.422937 
0.245339 -0.158319 0.005078 0.575188 -0.080610 -0.811735 
0.082650 -0.970443 0.066356 0.077150 -0.113484 -0.976718 
-0.483727 1.596559 1.110857 -0.822809 0.178296 0.486923 
-0.796870 0.195136 -0.339104 -0.815187 -0.194900 0.481659 
-1.099528 0.843436 -0.738627 0.810372 0.353684 -0.353579 
1.077930 1.601717 0.395436 0.251533 -0.920161 0.160030 
0.727592 1.779405 1.127287 0.557694 -0.673600 0.435892 
0.279403 0.890057 0.223594 0.814631 0.378703 -0.364148 
-0.465038 0.102428 0.236081 -0.829785 -0.281222 0.455211 
2.152825 2.461561 1.381238 -0.217413 0.913886 -0.341602 
1.414117 2.201036 1.219845 -0.310287 0.857720 -0.407461 
0.042914 0.468314 -0.090093 0.465204 0.128981 -0.870752 
-0.590124 1.078433 0.544214 -0.575769 -0.481475 0.618910 
-0.182305 0.081105 0.511928 -0.337681 -0.257020 0.888554 
0.784408 1.201610 0.340982 0.742977 -0.284273 0.488711 
0.750922 1.725009 0.948073 -0.232498 0.725331 -0.622953 
0.030005 0.296942 -0.136472 0.508642 0.066166 -0.856712 
0.086919 1.235002 0.480276 0.107371 0.843718 0.523217 
-0.611839 2.734179 -0.330793 0.708016 -0.443188 -0.538864 
-1.309908 1.393938 -0.608035 0.841396 0.293000 -0.451322 
-0.976914 2.148678 -0.262605 -0.834738 0.257641 0.462295 
1.294136 1.299658 -0.410010 0.617033 -0.493792 0.599784 
-0.835272 1.725468 0.413333 -0.897597 0.168300 0.366178 
-0.117433 0.458814 -0.049771 -0.537439 0.091019 -0.824373 
-0.350366 0.031444 0.407224 -0.662275 -0.246428 0.689005 
0.311111 0.176654 0.048084 0.450796 0.024819 -0.862788 
-0.059885 -0.513163 0.347376 -0.090526 -0.276178 0.947216 
0.881147 1.464214 0.292803 -0.498717 0.636016 -0.578972 
-0.309698 0.394317 0.053930 -0.473402 0.058355 -0.823451 
1.092855 1.990003 1.068826 -0.375433 0.848884 -0.361693 
-1.113100 1.759968 -0.121758 -0.835998 0.104302 0.512228 
-1.156892 1.233871 -0.450691 -0.862020 -0.215946 0.435489 
0.151253 0.349160 -0.051360 0.534303 0.048517 -0.837428 
-0.524195 2.234468 0.251003 0.709040 -0.516937 -0.475642 
0.522893 0.417848 0.413291 0.558007 -0.269889 0.750679 
-0.217726 -0.174873 -0.009431 -0.590627 -0.065884 -0.800371 
-0.492299 2.819984 -0.214597 0.655267 -0.461991 -0.571570 
-0.020820 2.567284 0.654901 -0.558393 0.489151 0.658651 
-0.533368 1.771858 0.803090 -0.763981 0.593893 0.159709 
0.342787 1.426058 0.958954 0.180035 -0.528123 0.679636 
1.948081 2.383657 1.297756 -0.235368 0.895604 -0.374621 
-0.160836 -0.957171 0.126893 -0.153923 -0.259157 0.949349 
-0.714584 0.677183 0.150899 -0.907689 -0.211018 0.270695 
0.975754 0.177449 -0.317341 -0.516721 0.047930 -0.828474 
0.905348 1.578753 0.542635 0.356182 -0.838656 0.145950 
0.213898 1.131342 0.313900 0.852476 0.473708 -0.191187 
1.134176 1.748940 0.638587 0.468759 -0.719959 0.500197 
-0.716670 -0.063061 -0.294165 0.630714 0.172925 -0.644049 
-1.122392 2.008587 -0.307095 -0.843540 0.213804 0.489026 
-0.855746 0.730979 -0.306270 0.835798 0.257281 -0.482270 
1.755042 1.920846 0.394335 -0.296485 0.850928 -0.428144 
-0.502269 -0.323302 -0.020633 -0.815181 -0.123924 0.544347 
1.223356 1.821101 0.624112 -0.351669 0.857407 -0.342315 
0.078583 -0.654747 0.301088 0.258017 -0.365964 0.889194 
-0.162727 -0.747658 0.059602 0.123123 -0.112127 -0.976200 
0.662245 1.740906 1.121419 0.578847 -0.656713 0.438898 
0.087284 1.143405 0.178218 0.445682 0.404717 -0.786027 
-0.355631 -1.167797 0.053090 -0.102117 -0.179500 0.954413 
-0.601614 1.711543 0.680905 0.624611 -0.166919 -0.642038 
-0.145493 -0.820337 0.061124 0.097443 -0.116906 -0.980949 
0.115568 0.277361 -0.086852 0.539850 0.033648 -0.838470 
0.918311 1.836717 1.021577 0.503821 -0.685975 0.486913 
0.858769 0.279332 -0.152366 -0.596729 0.183114 -0.721228 
0.559929 1.659319 1.082158 0.618454 -0.621528 0.442994 
-0.649002 1.636693 0.708855 0.729859 0.040512 -0.669505 
1.622601 1.720392 0.160174 -0.274763 0.862361 -0.404789 
-0.134071 -0.666688 0.281274 -0.214383 -0.384009 0.896226 
1.395954 1.531898 0.026244 -0.266286 0.759698 -0.505982 
-0.401799 -0.516669 0.038300 0.169159 0.059127 -0.892985 
-0.415923 3.083548 -0.283183 -0.740903 0.386290 0.539446 
0.564786 1.587375 0.884942 -0.171446 0.792599 -0.532258 
-0.094568 -0.213280 -0.068150 -0.472296 -0.125876 -0.850867 
0.248792 1.516226 1.035932 -0.725852 0.424566 -0.485854 
0.673277 -0.337036 -0.111720 -0.455508 0.080116 -0.853727 
-0.759713 0.754244 0.005576 -0.932219 -0.204485 0.288383 
0.422238 -0.473009 0.092182 0.723346 -0.170428 0.658991 
0.244978 1.061876 0.291749 0.871449 0.428790 -0.224436 
-1.102628 1.697190 -0.154362 0.822150 -0.064210 -0.533252 
-0.890731 0.734227 -0.376746 0.840367 0.256871 -0.467110 
1.942103 2.126685 0.715860 0.280122 -0.892683 0.341365 
0.387686 0.586029 0.297844 0.547889 0.483415 -0.488971 
1.019022 2.006776 1.232036 0.446408 -0.771759 0.424080 
-0.817650 1.802048 0.287529 0.669575 -0.275032 -0.580803 
-0.422716 1.728303 0.987705 0.881402 -0.391105 0.042681 
1.687889 2.064970 0.750282 0.297020 -0.904536 0.287747 
1.838083 2.408954 1.430958 -0.262063 0.921651 -0.264521 
-0.489931 -0.849604 -0.055717 0.467509 -0.004606 -0.869671 
0.569520 0.238463 0.003537 -0.079173 0.149668 -0.857090 
-0.821909 0.806463 -0.191068 0.816752 0.274583 -0.493708 
0.507655 -0.284463 0.014891 -0.130643 0.089998 -0.873625 
2.064233 2.165456 0.711466 -0.265001 0.870598 -0.410729 
0.765871 0.911171 0.177519 -0.617261 0.392033 -0.664831 
-0.755975 1.936114 0.206947 0.495682 -0.634454 -0.529227 
-0.201522 1.133297 0.276226 -0.789282 0.473533 -0.321895 
-0.740003 1.488597 0.416026 0.747941 0.114839 -0.600398 
1.476289 2.234015 1.236909 -0.289193 0.862476 -0.414584 
-0.675267 -0.032659 -0.206258 0.653958 0.153966 -0.660496 
0.174661 -0.884538 0.161307 0.164202 -0.290122 0.938273 
-0.119068 0.102239 0.537547 -0.235300 -0.253379 0.933836 
0.546065 1.651053 1.004256 -0.269773 0.883749 -0.369284 
0.655319 -0.782421 -0.116024 -0.456784 -0.013004 -0.887602 
0.647437 0.737386 0.296678 0.575263 -0.244345 0.746715 
0.846042 1.635507 0.733213 0.595291 -0.634889 0.429991 
-0.704112 0.642721 0.061144 -0.911816 -0.256507 0.306376 
0.460091 0.594149 0.306752 0.041527 0.582147 -0.485746 
-1.069831 2.167797 -0.410970 -0.796940 0.321382 0.478068 
-0.329346 2.926307 -0.047260 -0.650234 0.449725 0.590606 
0.431868 -0.568468 0.068664 0.696553 -0.150075 0.689395 
0.785467 1.104312 0.243234 -0.571475 0.491417 -0.637292 
0.942370 0.793236 -0.077857 -0.686601 0.300971 -0.645409 
1.966202 2.298997 1.077903 -0.247718 0.893745 -0.369625 
0.413843 0.121358 0.080515 0.138910 0.126820 -0.933573 
-0.903229 0.930316 -0.219167 -0.881552 -0.149133 0.411792 
-0.903324 0.652343 -0.381242 -0.868965 -0.243246 0.405842 
1.291610 1.394102 -0.180226 -0.259191 0.789303 -0.428108 
0.585391 0.314944 0.242157 0.761083 -0.341783 0.547017 
0.066411 0.380692 -0.095596 0.497393 0.087426 -0.857528 
-0.003560 -0.058359 -0.121044 -0.414576 -0.114654 -0.877383 
1.604192 1.458050 -0.227294 -0.147014 0.865193 -0.405095 
-0.028099 0.896780 0.602804 -0.162109 -0.122690 0.967569 
-0.615855 0.583698 -0.034593 0.467190 0.291077 -0.659458 
1.016248 0.689211 -0.164909 0.792569 -0.224709 0.565803 
-0.743399 1.009520 0.093656 0.769230 0.309338 -0.522797 
-0.278394 2.868075 0.058813 0.829415 -0.299543 -0.465563 
0.695829 0.177395 0.003985 0.776995 -0.223303 0.584664 
0.039463 0.798298 -0.011147 0.421125 0.341738 -0.827716 
-0.755294 0.492342 -0.166218 -0.873311 -0.243961 0.414590 
1.463278 1.524500 -0.030728 -0.250041 0.780214 -0.488464 
0.302675 0.060249 0.448901 0.515083 -0.255571 0.789210 
1.167640 0.733628 -0.381316 -0.658712 0.128602 -0.718275 
0.194487 0.037427 -0.031523 0.561559 -0.031446 -0.822322 
-0.425589 0.029385 0.268500 -0.792132 -0.237578 0.537716 
-0.956310 0.924924 -0.353611 0.839584 0.216447 -0.482901 
0.731386 -0.341989 -0.170076 -0.437409 0.036734 -0.878748 
-1.148464 1.870420 -0.214310 0.779605 -0.240819 -0.548002 
-0.178468 -0.607395 0.298946 -0.277425 -0.377141 0.877207 
-0.025318 0.963028 0.062981 -0.375369 0.511206 -0.763381 
-0.525454 1.351360 0.708445 0.911208 0.188228 -0.295771 
-0.063312 1.339027 0.309607 -0.634966 0.665252 -0.052782 
1.863864 2.062220 0.621308 0.297498 -0.876932 0.363201 
1.736029 2.370286 1.423134 0.274702 -0.896312 0.325136 
-0.282135 0.865241 0.456473 -0.822058 0.181466 0.491135 
-1.094335 1.413851 -0.269538 -0.852319 -0.060935 0.468987 
0.357664 -0.660543 0.157666 0.648853 -0.208409 0.723976 
1.751930 2.139157 0.868042 0.299105 -0.774568 0.537589 
-0.784944 0.782159 -0.132953 0.801391 0.316833 -0.496418 
-0.857334 -0.098542 -0.423051 -0.640463 -0.033798 0.645494 
-0.772342 1.359478 0.258707 0.753458 0.189501 -0.557684 
-0.380170 0.478255 0.487992 -0.476884 -0.141425 0.855721 
1.629312 2.204880 1.085009 0.304467 -0.834395 0.443132 
-0.249683 -0.690562 0.058013 0.171807 -0.119024 -0.963226 
-0.168303 -0.539828 0.328138 -0.217677 -0.339949 0.903500 
-0.645022 0.423623 -0.152093 0.420312 0.192594 -0.683233 
2.022591 2.379078 1.239475 -0.233145 0.898022 -0.371072 
0.431240 -1.307126 0.014520 0.849638 0.114612 0.384910 
0.994617 1.869216 0.944358 -0.385886 0.731662 -0.549561 
-1.058927 1.725782 -0.060888 -0.836732 0.137966 0.515924 
-0.656258 0.944314 0.226582 0.739805 0.408273 -0.528485 
0.222941 -0.045857 0.460560 0.417488 -0.263669 0.836255 
1.577694 1.966525 0.610517 -0.340901 0.777225 -0.507473 
-0.367765 2.938739 -0.111827 -0.664736 0.442340 0.580685 
1.127801 1.945441 0.942509 -0.398371 0.796254 -0.452486 
-0.535086 0.390368 0.333619 -0.757575 -0.364364 0.495723 
-0.319195 -0.023590 0.108455 -0.211228 0.099610 -0.961748 
1.181938 1.570318 0.204290 0.332192 -0.820065 0.340267 
-0.185503 2.672209 0.320884 -0.684299 0.468888 0.548800 
0.787953 0.578916 -0.068878 -0.435748 0.254222 -0.742470 
0.478234 1.550473 0.859967 -0.240937 0.913496 -0.299075 
0.000939 3.136310 0.258181 0.751171 -0.339052 -0.563891 
0.268978 0.956138 0.262515 0.831093 0.365814 -0.312607 
1.416577 1.437562 -0.122898 0.023742 -0.964095 0.245224 
0.568766 0.999111 0.553053 0.531576 -0.411660 0.654006 
-0.680741 0.619119 0.126279 -0.921300 -0.252159 0.270581 
-1.096588 1.057023 -0.509227 0.844875 0.282888 -0.445882 
0.777847 1.265454 0.372007 0.731074 -0.339719 0.475200 
-0.028482 -0.783581 0.075202 -0.271715 -0.131031 -0.949547 
-0.713634 1.446674 0.531164 -0.941391 0.097345 0.272623 
0.880175 1.309856 0.268045 0.673489 -0.420173 0.496926 
0.640248 0.518250 0.322287 0.679221 -0.249124 0.623544 
-0.301731 0.888010 0.380095 -0.905619 0.252741 0.179762 
1.153993 1.440181 -0.095854 -0.547619 0.610080 -0.565918 
1.264536 1.541821 0.120173 0.217296 -0.880956 0.292012 
-0.437839 -1.133031 -0.013431 0.628347 -0.000903 -0.773704 
0.622083 1.572094 0.845082 0.701153 -0.580063 0.329425 
-0.428838 -0.890525 -0.002789 -0.676151 -0.060172 0.727586 
0.808083 -0.171584 -0.216601 -0.461959 0.041645 -0.862712 
-0.547728 -0.173025 -0.081446 0.403963 0.114392 -0.764582 
-0.035224 0.585529 0.599795 -0.008120 0.318070 0.943577 
-0.320651 -1.109344 0.032481 0.404484 -0.000313 -0.895198 
1.619734 2.104620 0.845681 -0.297292 0.845704 -0.428856 
-0.789668 0.355286 -0.258717 -0.844122 -0.189743 0.473258 
0.225411 -1.142274 0.076286 -0.014172 -0.192079 0.819578 
-0.367432 0.433906 0.208973 -0.302002 0.392527 -0.801566 
-0.448022 0.367940 0.405135 -0.621426 -0.250899 0.693562 
-0.234382 -0.659170 0.248310 -0.430491 -0.335029 0.807830 
-0.716907 1.531665 0.494430 0.743561 0.092774 -0.619333 
-0.585648 -0.388440 -0.120970 -0.762961 -0.093548 0.612177 
-0.760908 2.106574 0.042688 0.844330 -0.264421 -0.456642 
-0.040824 -0.275507 -0.082175 -0.388613 -0.204679 -0.878540 
-0.470508 -0.777809 -0.049317 0.471373 0.056099 -0.846180 
-1.203065 1.440201 -0.413061 -0.852878 -0.150870 0.455939 
1.896403 2.352582 1.245958 -0.241394 0.889522 -0.385890 
0.021221 -0.562755 0.341219 0.230643 -0.280567 0.912548 
1.522167 2.304841 1.354483 -0.263761 0.868939 -0.418434 
-0.566186 -0.460668 -0.132283 0.546375 0.101687 -0.763032 
0.536825 -0.916524 -0.052788 0.616616 0.059564 0.751462 
-0.222947 0.994756 0.198715 -0.698846 0.385396 -0.551083 
0.112558 1.274849 0.365397 0.656044 0.676173 0.161053 
-0.988528 1.642750 0.001476 0.804600 -0.058158 -0.547931 
0.254020 0.623679 -0.002554 0.616500 0.155727 -0.747066 
-0.637495 1.141511 0.558444 -0.849284 -0.243444 0.430095 
-0.779286 1.259051 0.178769 0.760423 0.223487 -0.540827 
0.216358 0.651337 0.561392 0.299283 0.311595 0.868060 
-0.633929 0.532547 0.147921 -0.888198 -0.303236 0.328857 
0.669069 0.382142 0.160611 0.766201 -0.319692 0.551799 
-0.641998 2.163380 0.142856 0.816221 -0.332023 -0.444841 
-0.097475 -0.629997 0.056247 0.016298 -0.176465 -0.979485 
-0.663611 1.313002 0.455666 0.730612 0.244134 -0.588149 
-0.739321 1.351927 0.323055 0.746579 0.201919 -0.568481 
-0.787767 1.611957 0.470039 -0.915107 0.140538 0.327784 
0.889023 1.521350 0.355900 -0.491193 0.639068 -0.584446 
-0.408369 -0.102558 0.218743 -0.805198 -0.197426 0.541524 
-0.463100 -0.957904 -0.029827 0.500563 -0.011061 -0.856668 
-0.235819 -0.258058 0.003838 -0.593507 -0.084150 -0.798197 
1.076804 0.845269 -0.236100 -0.695585 0.306825 -0.629418 
1.058533 1.589220 0.325623 -0.506192 0.633251 -0.583286 
0.168367 0.010201 0.500454 0.293970 -0.263194 0.905334 
-1.047171 0.896533 -0.596157 -0.879297 -0.316679 0.323915 
0.387506 -0.040031 0.350433 0.674286 -0.240707 0.694610 
-0.499967 1.718534 0.877800 0.569923 -0.218525 -0.774592 
-0.203302 3.025639 0.059479 -0.696739 0.407730 0.571668 
-0.229033 2.546015 0.368242 0.765163 -0.424155 -0.478447 
0.663418 1.498656 0.649013 0.661604 -0.552607 0.313204 
0.605472 0.029173 0.048380 0.774531 -0.217283 0.589979 
-0.411851 -1.253927 0.018345 -0.785493 0.197759 0.523547 
0.115291 -0.816074 0.063208 -0.045881 -0.135178 -0.987564 
-0.605088 1.588411 0.862538 -0.963941 0.152086 0.202777 
-0.201027 -0.172384 0.432466 -0.379520 -0.256993 0.846112 
0.287037 0.129401 0.474846 0.469567 -0.250286 0.817921 
-0.577953 1.658085 0.913435 -0.682802 0.575507 0.397965 
-0.273500 -0.204008 0.393540 -0.586177 -0.259804 0.727734 
-0.492425 0.328232 0.318746 -0.784186 -0.334183 0.474910 
-0.227552 -0.567322 0.067728 0.193272 -0.204284 -0.955371 
1.254662 1.014051 -0.399437 0.721220 -0.238949 0.620584 
-0.112411 0.529566 -0.049362 -0.516678 0.098259 -0.828139 
0.307175 0.258017 0.500241 0.474693 -0.180942 0.832544 
-0.780904 -0.292438 -0.339996 0.607127 0.007947 -0.708167 
-0.211824 1.139230 0.391334 -0.877094 0.475679 -0.005828 
0.279997 0.008608 0.026284 0.536251 -0.038672 -0.827321 
-0.947923 0.444898 -0.567601 -0.824926 -0.272156 0.395994 
-0.962811 2.464035 -0.576366 -0.689218 0.516238 0.496428 
0.344008 0.711405 0.189534 0.841870 0.400818 -0.304104 
0.726337 0.476931 0.130784 0.771637 -0.314818 0.547116 
1.129593 2.139900 1.346335 -0.453809 0.862291 -0.186513 
0.602927 0.444415 0.316824 0.706941 -0.300666 0.592714 
-0.127962 1.263788 0.411895 -0.594747 0.751253 0.194005 
-0.761076 0.806222 -0.070140 0.789886 0.335253 -0.501813 
0.468783 1.500249 0.786574 -0.400238 0.615264 -0.673837 
-0.789590 1.863309 0.309135 -0.899224 0.185824 0.376158 
-0.713792 0.718004 -0.049792 0.727587 0.367388 -0.524139 
0.451905 0.340446 0.076833 0.060107 0.180365 -0.923051 
-1.180001 1.909732 -0.280928 -0.830525 0.208171 0.514035 
-0.533069 0.500746 0.464514 -0.481204 -0.372294 0.760668 
0.835330 0.444796 -0.042305 0.779239 -0.247822 0.571116 
-0.073271 0.450529 0.604235 -0.147963 -0.054162 0.977772 
-0.672893 0.352404 -0.176112 0.474045 0.180482 -0.650560 
-0.179627 3.103012 0.039248 -0.728261 0.380349 0.557335 
-0.607522 2.111603 0.297102 -0.630079 0.604567 0.474298 
-1.116164 1.132222 -0.443295 -0.866223 -0.230829 0.428153 
-0.766282 1.683441 0.563003 -0.917767 0.164726 0.315194 
2.147946 2.426064 1.288736 0.233804 -0.905681 0.352729 
-0.627695 0.815612 0.241304 0.962609 0.154400 -0.010720 
0.807377 0.433715 -0.113931 -0.413120 0.187185 -0.741728 
-0.375330 -0.169786 0.073167 -0.085030 0.085838 -0.912612 
0.396321 1.254701 0.708316 -0.842092 0.129377 -0.519751 
0.925510 0.617594 -0.074245 0.784244 -0.255445 0.561278 
-0.849579 0.382472 -0.407870 0.736556 0.236276 -0.527966 
1.326593 2.067064 1.030897 0.371248 -0.777511 0.495211 
-0.385291 1.856718 0.939515 -0.453090 0.522140 0.657511 
-0.151504 0.165315 -0.058607 -0.582563 0.006577 -0.806620 
1.053601 0.642296 -0.268846 -0.689593 0.189873 -0.679766 
0.040443 2.758463 0.562460 0.876426 -0.341715 -0.301093 
1.273335 1.626947 0.267356 0.166410 -0.944561 0.203139 
-0.218470 0.565952 -0.007064 -0.589731 0.084114 -0.771990 
1.503976 1.692145 0.214419 0.508006 -0.532923 0.628957 
-0.299413 0.923762 0.303924 -0.918325 0.357945 -0.140592 
-0.710329 1.267983 0.425906 -0.949677 0.042745 0.265289 
-0.594712 0.522821 -0.071395 0.366134 0.238258 -0.714202 
-0.614296 -0.355136 -0.190733 0.566167 0.124363 -0.727508 
-0.056882 0.424538 -0.090266 -0.507097 0.105344 -0.847481 
-0.107084 3.070443 0.149103 0.749015 -0.357459 -0.556158 
-0.383224 0.700918 0.340295 -0.905735 0.368664 0.009791 
0.561620 -0.799753 -0.064358 0.562451 -0.044791 0.819519 
0.174024 1.152867 0.254852 0.700408 0.490385 -0.432031 
-1.206499 1.210462 -0.619984 0.849106 0.311958 -0.411655 
-0.061517 1.186794 0.541425 0.170028 0.666021 0.711527 
0.645406 0.674512 0.180431 -0.618301 0.345032 -0.240673 
0.194068 0.965559 0.558107 0.518827 -0.111829 0.791861 
-1.390633 1.685547 -0.610381 -0.834430 -0.054637 0.478140 
-0.675394 1.965719 0.382118 -0.595834 0.666136 0.397950 
-0.599339 0.462326 0.179279 -0.869823 -0.333889 0.351612 
0.252557 0.183942 0.508113 0.412720 -0.215178 0.856014 
1.105406 0.340110 -0.390979 0.627065 -0.035472 0.766029 
0.345892 -0.736010 0.152950 0.603179 -0.211940 0.758162 
0.988640 1.886850 1.054722 0.481276 -0.712335 0.464142 
0.161222 0.533308 0.592535 0.251738 -0.031005 0.964428 
-0.829742 2.284530 -0.200424 -0.418496 0.740101 0.458353 
0.338227 0.464745 0.131408 0.524962 0.248504 -0.745120 
-0.842663 1.243796 0.115069 -0.908364 0.005192 0.360676 
0.627713 0.319904 0.184164 0.764847 -0.319149 0.553456 
1.169601 1.375935 -0.138780 0.589027 -0.565876 0.556999 
0.556628 0.107337 0.163718 0.766792 -0.276526 0.570929 
1.640673 2.126504 0.914003 0.308333 -0.745867 0.576988 
-0.393481 2.846876 -0.073716 -0.735793 0.409963 0.528356 
1.159041 1.160672 -0.237047 -0.619249 0.460840 -0.603888 
-0.723323 -0.558872 -0.256423 0.565220 -0.094961 -0.793562 
-1.028353 1.733123 0.009948 -0.847025 0.152998 0.494999 
-0.629262 0.361314 0.037602 -0.861807 -0.290283 0.403148 
0.353478 -1.276010 -0.009758 -0.217354 0.164140 -0.959594 
0.813777 0.529880 0.037571 0.774157 -0.293061 0.555586 
-0.890934 1.609156 0.181337 0.780155 0.003359 -0.571304 
0.410258 0.635198 0.378301 0.185315 0.477242 -0.231988 
-0.604410 0.674632 0.283389 -0.441408 -0.313366 0.799090 
-0.525064 2.037654 0.498620 -0.717445 0.563126 0.358525 
0.169295 0.604525 0.587525 0.154400 0.327514 0.912326 
-0.503154 1.902321 0.694096 -0.760467 0.569690 0.227994 
-0.482443 2.422850 0.108573 0.651067 -0.516966 -0.538616 
-1.161023 2.246238 -0.622894 -0.732723 0.439015 0.494174 
0.397839 -0.045109 0.087060 0.168348 0.099799 -0.927294 
1.698931 1.857610 0.338331 0.401771 -0.708589 0.519887 
0.877134 0.008858 -0.239456 0.664965 -0.087593 0.733627 
-0.102179 0.829581 0.023666 -0.482068 0.402573 -0.759379 
0.790954 0.711082 0.170919 0.814744 -0.171592 0.484730 
0.055786 1.063200 0.601233 -0.085325 0.155995 0.945206 
-0.773310 0.671193 -0.081882 -0.901190 -0.248809 0.342995 
1.086444 0.268362 -0.378079 -0.559358 0.025647 -0.810743 
-0.753769 -0.022850 -0.352011 0.632298 0.190222 -0.621452 
-0.202730 -0.970539 0.059655 0.176165 -0.076103 -0.970051 
-0.703736 0.835722 0.248148 -0.887614 -0.249960 0.332128 
0.095558 -0.577108 0.322502 0.138872 -0.336472 0.924455 
1.853507 1.724366 0.015659 0.352056 -0.796844 0.485382 
0.563720 0.645267 0.270938 -0.410287 0.498634 -0.324527 
1.713464 1.560939 -0.142528 0.245779 -0.848602 0.411768 
-0.142328 2.862547 0.236771 -0.722203 0.415370 0.546146 
-0.225670 3.099900 -0.021657 0.794638 -0.316824 -0.512847 
1.624970 1.809724 0.315019 0.440131 -0.644818 0.558339 
-0.407791 2.403987 0.241026 0.590511 -0.553341 -0.576202 
-0.577013 0.443402 0.250257 -0.851040 -0.334082 0.361810 
-0.003586 2.938426 0.361292 0.731279 -0.371338 -0.571219 
-0.587185 1.185057 0.625584 -0.524653 -0.483040 0.619353 
0.447209 -1.376595 -0.026042 0.722696 -0.247084 -0.379584 
-0.345937 0.509336 0.201593 -0.525883 0.365455 -0.698344 
0.681036 1.814576 1.205795 0.178169 -0.591017 0.738943 
0.277440 0.976924 0.426970 0.920089 0.306497 0.219368 
1.208530 2.163521 1.313760 -0.358207 0.846540 -0.388767 
-0.390486 0.398222 0.476066 -0.487002 -0.189004 0.844175 
1.650006 1.555602 -0.105414 0.213064 -0.870947 0.374954 
-0.406667 -1.404507 -0.012699 0.428598 -0.862463 0.145899 
-0.780175 0.115397 -0.335894 -0.805412 -0.187492 0.493991 
0.189700 0.214111 0.548445 0.312258 -0.192284 0.915091 
-1.261998 1.474548 -0.489295 0.835703 0.202556 -0.477311 
0.874760 0.384325 -0.153884 -0.564128 0.190854 -0.710852 
0.146520 -0.742447 0.061870 -0.097157 -0.122992 -0.979145 
-0.016932 1.044315 0.611207 -0.058622 0.157810 0.954838 
0.497222 0.083077 0.235842 0.753501 -0.290212 0.579447 
-0.183907 -0.647931 0.064983 -0.032257 -0.075109 -0.989138 
-0.599785 -0.483460 -0.190118 -0.743631 -0.101752 0.612804 
-0.171591 2.786817 0.249175 -0.686302 0.444921 0.563237 
-1.339406 1.703029 -0.518703 -0.834461 -0.022158 0.485075 
-0.215060 0.636469 -0.012336 -0.576860 0.151577 -0.770756 
0.505989 -0.554295 -0.004861 -0.309739 0.077771 -0.885919 
-0.399169 -0.667739 0.035320 0.249057 0.046672 -0.897994 
-0.055909 2.721631 0.452502 0.731306 -0.418790 -0.535143 
-0.779624 -0.094305 -0.373830 0.624850 0.136871 -0.640249 
-0.356700 -0.338327 0.085399 -0.068646 0.064553 -0.927376 
-0.031067 -0.459471 -0.023184 -0.182223 -0.434831 -0.869496 
1.160053 0.813926 -0.345931 -0.703916 0.172887 -0.677003 
1.853683 1.766597 0.082754 0.346467 -0.805123 0.477012 
0.410441 -0.119711 0.080083 0.154516 0.088215 -0.913404 
0.383539 0.084798 0.415456 0.640243 -0.249881 0.723014 
-1.317383 1.371552 -0.713028 0.851493 0.333833 -0.388690 
0.486249 0.015649 0.212582 0.756800 -0.272031 0.584156 
-0.710926 2.548360 -0.314635 0.748497 -0.407130 -0.517596 
-0.703221 2.017377 0.283229 -0.560246 0.678740 0.455533 
-0.551395 0.119783 0.050785 -0.861488 -0.237123 0.434275 
-0.680603 1.153815 0.420227 -0.962205 0.010700 0.241808 
-0.242225 -1.031682 0.079838 -0.196231 -0.205612 0.954144 
-0.604209 1.486547 0.800293 -0.968401 0.120857 0.199281 
-0.911943 0.135187 -0.499410 -0.703233 -0.121335 0.551452 
0.834840 0.041839 -0.190469 -0.536390 0.109448 -0.796477 
-0.316321 3.078521 -0.134824 -0.715515 0.395586 0.559101 
0.015284 -1.094999 0.110308 0.548672 -0.231179 0.763678 
0.163029 -0.483151 0.352131 0.175594 -0.305686 0.925613 
1.214223 0.791081 -0.403843 0.727076 -0.115834 0.665368 
1.471693 1.901575 0.562584 -0.356367 0.829215 -0.425825 
1.860235 2.322378 1.190176 -0.247719 0.884517 -0.394159 
-0.803859 2.075848 -0.005266 0.640429 -0.543682 -0.512377 
-0.842915 2.017584 0.021270 0.515633 -0.636389 -0.525089 
0.299972 -0.233220 0.086478 0.363638 0.017766 -0.911886 
0.661802 1.557176 0.692140 -0.439607 0.612936 -0.650500 
1.066608 0.566347 -0.283191 0.738174 -0.153242 0.642987 
1.730450 1.763810 0.166477 0.400330 -0.713728 0.525947 
0.494172 0.262159 0.041507 0.022726 0.151450 -0.901467 
-0.497438 3.039303 -0.372352 -0.762378 0.383958 0.519485 
0.737180 -0.006097 -0.081100 0.731065 -0.169826 0.646167 
0.058498 -0.521575 0.016985 0.088647 -0.391573 -0.906740 
1.339650 1.020329 -0.490542 0.730093 -0.100228 0.667394 
-1.083665 1.806377 -0.057482 -0.832959 0.161649 0.523471 
0.355030 0.378805 0.498746 0.425005 -0.144188 0.883223 
-0.534727 0.655468 0.274506 0.477412 0.499311 -0.189853 
-0.704931 1.776380 0.466778 0.624404 -0.271232 -0.603444 
0.250192 -0.878432 0.062221 -0.200136 -0.044854 -0.962219 
0.301403 0.527321 0.020121 0.665499 0.078399 -0.730743 
0.420629 -0.231168 0.169239 0.744442 -0.196589 0.633610 
1.005194 2.056180 1.315533 0.284575 -0.721755 0.609693 
-0.430139 -0.029294 0.221900 -0.816261 -0.228461 0.506600 
1.790310 2.027512 0.592301 0.306899 -0.873172 0.361895 
-0.941825 0.704367 -0.444403 -0.869505 -0.263190 0.384646 
1.697941 2.112531 0.817549 -0.299027 0.809693 -0.489757 
-0.103379 1.114112 0.585748 0.252684 0.233043 0.911749 
-0.199247 2.359417 0.641788 -0.685979 0.541421 0.461621 
0.480559 -0.029313 0.045745 0.054579 0.104521 -0.882403 
-0.527281 2.860077 -0.290866 -0.771933 0.389703 0.494358 
0.817080 1.418290 0.344129 -0.496487 0.616708 -0.597682 
-0.088451 1.069843 0.153513 -0.413220 0.449651 -0.770468 
0.428094 1.418100 0.838529 0.856714 -0.341364 0.345629 
-0.540921 2.750272 -0.238005 0.660883 -0.467619 -0.564547 
1.687606 2.040654 0.683952 -0.315925 0.728241 -0.584505 
-0.233470 0.926215 0.156795 -0.697140 0.419733 -0.566594 
-0.035701 0.493838 -0.087942 -0.477654 0.137743 -0.861920 
0.078518 0.505771 0.603101 0.146113 -0.025523 0.981119 
0.418092 0.451321 0.183445 0.251222 0.387719 -0.785129 
0.438834 1.325085 0.722404 -0.436698 0.562603 -0.691117 
-1.151296 1.540481 -0.302676 0.829003 0.064997 -0.506930 
0.666835 0.788775 0.230889 -0.919099 0.203928 -0.255088 
-1.383183 1.603526 -0.615655 -0.843161 -0.163889 0.459286 
-0.310228 2.713601 0.127167 -0.560125 0.523327 0.635226 
0.574259 1.332756 0.576100 -0.464838 0.573324 -0.660124 
-1.036459 1.224405 -0.281759 -0.860454 -0.105897 0.452568 
-0.304944 -0.903832 0.040825 0.203039 0.003558 -0.967313 
-0.302258 0.268013 0.050286 -0.489868 0.042106 -0.827658 
-1.266021 1.326859 -0.581070 0.841443 0.288274 -0.454309 
0.814308 1.339864 0.314025 -0.516420 0.590142 -0.605808 
-0.674375 1.700078 0.676029 -0.939540 0.168963 0.266099 
0.002031 -1.177093 0.085589 0.384201 -0.162397 -0.878265 
0.033920 0.043680 0.529170 0.115080 -0.276268 0.951852 
-0.031932 0.576673 -0.076630 -0.421301 0.159265 -0.880985 
1.017790 1.529168 0.265203 0.465960 -0.736157 0.378925 
0.364611 -1.100808 0.031076 0.125647 0.161460 -0.863794 
0.356711 -0.801783 0.123390 0.573314 -0.194988 0.784596 
-0.725030 1.617159 0.613209 -0.931326 0.148590 0.285231 
-1.316893 1.514727 -0.544025 0.836797 0.231555 -0.470213 
1.395884 1.637396 0.234636 0.371321 -0.774057 0.444636 
0.952836 0.848744 -0.018713 0.781915 -0.219110 0.545913 
-0.081660 2.489982 0.609580 0.738693 -0.472980 -0.479457 
0.732894 0.619787 0.026129 -0.446240 0.346679 -0.730882 
1.226507 1.194117 -0.344221 -0.614157 0.467556 -0.612750 
0.933104 1.680097 0.720485 0.544041 -0.675816 0.450925 
-0.326869 0.203055 0.085399 -0.239082 0.119226 -0.938274 
0.248575 0.967417 0.505823 0.795661 -0.027432 0.569590 
-0.385503 0.537976 0.281610 -0.400422 0.550268 -0.679896 
-1.017765 2.163291 -0.348106 0.579896 -0.594551 -0.521923 
-0.964807 2.309744 -0.432138 0.743693 -0.412958 -0.507913 
0.511399 0.961890 0.524190 -0.902439 -0.124852 -0.347692 
1.747998 2.281210 1.171485 -0.264452 0.877099 -0.399163 
1.029351 0.779124 -0.183636 -0.709359 0.279460 -0.630421 
-0.428333 0.363164 0.040551 0.020109 0.186713 -0.889229 
-0.967837 2.203028 -0.309837 -0.808926 0.309639 0.461795 
0.698547 1.609204 0.783244 -0.192753 0.841252 -0.419500 
-0.397834 0.178035 0.056036 -0.046263 0.146835 -0.913657 
-0.585917 1.564604 0.934989 -0.763133 -0.283845 0.552567 
0.018292 3.256928 0.223961 0.765327 -0.318857 -0.555827 
0.756902 0.914453 0.255178 0.836488 -0.088481 0.510456 
1.332681 1.283096 -0.475894 -0.604180 0.457224 -0.628488 
-0.517977 0.437809 0.429753 -0.597148 -0.308437 0.715716 
-0.020597 0.835367 -0.012895 -0.415168 0.361925 -0.828748 
1.315020 1.985482 0.890878 0.380449 -0.859816 0.321452 
-0.387433 -0.075899 0.290216 -0.762219 -0.209243 0.600888 
0.638152 1.289041 0.487058 -0.490518 0.562449 -0.650032 
-0.376447 -0.146451 0.283786 -0.761604 -0.214695 0.600407 
-0.675354 0.566786 0.074628 -0.889112 -0.290396 0.338169 
0.227351 0.950224 0.166050 0.689491 0.410400 -0.576376 
-1.113279 1.503558 -0.251547 -0.848325 -0.031562 0.478050 
0.517301 1.203771 0.584451 -0.485955 0.526484 -0.685196 
1.235702 1.417881 -0.120050 -0.336700 0.747435 -0.462065 
0.042972 2.901718 0.457685 -0.851823 0.328249 0.403356 
-0.373991 -0.758919 0.098647 -0.689095 -0.142022 0.699096 
-0.010503 -0.949044 0.168187 -0.515496 -0.189181 0.820671 
1.179082 0.597793 -0.432864 0.684275 -0.065679 0.722064 
0.541333 0.900937 0.501542 0.531629 -0.466227 0.687853 
-0.009727 -0.951668 0.059304 -0.501939 -0.076669 -0.838767 
-0.447239 0.461272 0.453607 -0.508227 -0.161719 0.829647 
-0.474098 1.903848 0.780211 -0.740269 0.533916 0.405521 
-0.823147 1.634883 0.405599 -0.904886 0.143948 0.352516 
-0.124501 3.136274 0.087934 -0.775012 0.348956 0.522030 
0.369862 0.498974 0.500779 0.458602 -0.075295 0.871468 
-1.047415 0.719291 -0.678365 0.785666 0.329077 -0.393204 
-0.336704 0.347576 0.108297 -0.284586 0.175154 -0.894889 
-0.805101 -0.030611 -0.401328 0.638438 0.147558 -0.621006 
0.531857 0.584003 0.431586 0.128861 -0.335838 0.873861 
0.415144 1.493350 0.832342 -0.388842 0.613406 -0.683669 
0.713875 0.545711 -0.019528 -0.348663 0.263267 -0.772304 
0.856082 1.948946 1.262683 -0.508434 0.825285 -0.087261 
-0.025096 0.653115 0.574728 -0.023876 0.168915 0.972282 
-0.147319 0.877455 0.068237 -0.553216 0.429966 -0.694293 
0.384864 0.498666 0.246508 0.432975 0.494414 -0.704443 
0.605387 -0.547332 -0.095134 -0.395998 0.044008 -0.900681 
-0.409226 3.146598 -0.317652 0.767727 -0.355091 -0.533038 
-0.045419 -0.125665 -0.097158 -0.442399 -0.117620 -0.864879 
-1.107092 2.241797 -0.550046 0.643975 -0.537677 -0.517880 
0.299095 0.792077 0.180840 0.771287 0.402928 -0.412269 
0.630705 0.391451 0.221146 0.762231 -0.345659 0.544050 
0.369649 -0.212046 0.099707 0.214462 0.072379 -0.927800 
0.201147 -0.126157 0.446523 0.367414 -0.262271 0.857883 
0.755255 0.230456 -0.050847 0.780414 -0.209723 0.587321 
-0.639449 -0.411177 -0.228404 0.553160 0.099663 -0.734633 
0.533142 -0.111479 0.071223 0.773449 -0.203779 0.597282 
-0.099821 0.230229 0.573634 -0.201864 -0.183624 0.953669 
-0.828577 0.055327 -0.433794 -0.762722 -0.175446 0.509298 
-0.314331 2.608018 0.205552 -0.568450 0.540708 0.614829 
-0.048973 1.132721 0.160286 -0.380186 0.399641 -0.824557 
1.308941 2.231590 1.373313 -0.377486 0.898503 -0.198008 
-1.108215 1.201126 -0.397021 -0.862777 -0.186770 0.438541 
-0.923754 0.492149 -0.514438 0.749451 0.270993 -0.479375 
-0.700481 1.915186 0.425914 -0.775018 0.433123 0.425547 
-0.616693 -0.282828 -0.172845 0.589431 0.125800 -0.717925 
0.708430 0.948964 0.330767 0.844516 -0.066070 0.500340 
0.340356 0.646490 0.098302 0.718100 0.243225 -0.595280 
1.295372 1.860567 0.623058 -0.367104 0.835472 -0.394673 
1.749442 2.315817 1.242338 -0.253239 0.879360 -0.402044 
0.056876 -0.184640 -0.086567 0.427390 -0.145703 -0.869411 
-0.870160 0.590027 -0.382490 0.798985 0.246721 -0.493845 
1.006754 0.087189 -0.329568 -0.534041 0.019763 -0.827549 
-0.016159 0.823421 0.587661 -0.127367 -0.242599 0.956239 
0.235042 -0.472654 0.338097 0.388296 -0.276959 0.864561 
1.253405 1.259688 -0.349426 0.627507 -0.481688 0.590627 
-0.190561 -0.723795 0.238797 -0.258800 -0.358956 0.892210 
1.365207 1.978509 0.805085 -0.364852 0.710300 -0.583791 
-0.331752 0.816574 0.382852 -0.868612 0.378089 0.213454 
-0.080494 -0.871798 0.065395 -0.073159 -0.119442 -0.975039 
0.289499 -0.627495 0.230949 0.584496 -0.278828 0.739145 
0.312882 0.454159 0.064504 0.582607 0.110082 -0.759878 
0.091940 -0.123509 -0.079878 0.486236 -0.084486 -0.851527 
0.585373 0.076322 0.104488 0.770740 -0.247578 0.580065 
-0.388974 -1.323192 -0.022928 0.273919 0.091017 -0.945308 
0.573299 -0.302270 -0.004600 0.719319 -0.154412 0.663862 
0.586296 0.636553 0.158194 -0.121311 0.521906 -0.673347 
-0.234321 0.013813 -0.001782 -0.611634 -0.041064 -0.785718 
-0.561396 2.061933 0.393177 0.729911 -0.426188 -0.488453 
0.729156 1.670968 0.903388 0.634336 -0.654638 0.312427 
1.422764 1.913783 0.649471 0.378591 -0.821997 0.415088 
-0.296038 -0.456144 0.078163 -0.244230 -0.002368 -0.909036 
-0.684850 1.740119 0.611609 -0.934088 0.173507 0.282776 
1.268596 2.131277 1.222638 0.372482 -0.827006 0.411956 
1.366638 1.872560 0.617787 0.408234 -0.778071 0.459242 
1.406207 1.870857 0.556881 -0.347634 0.838323 -0.409813 
-0.697746 -0.271944 -0.293665 -0.742831 -0.123467 0.578563 
2.026450 2.437644 1.394779 -0.225332 0.905711 -0.355769 
0.215499 0.689799 -0.006338 0.556388 0.233406 -0.759963 
-0.550968 0.001057 -0.031573 -0.866449 -0.177040 0.462372 
0.920873 0.543394 -0.108414 0.783261 -0.237045 0.571863 
-0.839829 2.555241 -0.496467 -0.711383 0.486441 0.501845 
-0.217788 1.067719 0.244113 -0.763287 0.415605 -0.422213 
-1.213097 1.136043 -0.861886 -0.884181 -0.402299 0.231730 
-0.943558 2.007524 -0.089234 0.605164 -0.505622 -0.533717 
