0.243360 1.139285 0.583697 -0.328749 -0.256148 0.800208 
0.465687 1.130918 1.354874 -0.807736 -0.389903 0.157966 
1.681360 -0.270960 1.092441 -0.616786 -0.618236 0.437391 
0.806736 0.901903 1.473716 0.748550 0.350409 -0.458544 
-1.561990 0.269105 1.501159 -0.309199 0.628534 -0.665880 
-1.467270 -0.267951 0.842530 0.647027 -0.332191 0.651951 
0.620016 -0.381740 0.253109 0.653583 0.103497 -0.697391 
-1.079637 -0.533329 0.549917 -0.575495 0.194255 -0.737460 
-0.849507 1.068109 1.761046 0.737988 -0.528194 0.387634 
0.226939 0.575683 0.453245 0.415243 0.036635 0.885798 
0.038412 -0.570966 0.243197 0.226660 -0.316939 0.900208 
-0.769090 0.775990 0.810479 -0.516190 0.644419 -0.535910 
-0.246207 1.195744 0.600871 -0.770567 -0.314769 -0.553199 
-0.180740 -0.215378 -0.125507 -0.512090 -0.100687 -0.844632 
0.574257 0.666343 0.754222 0.556368 0.669971 -0.484243 
0.094698 0.153674 -0.170313 0.459197 0.005909 -0.882289 
0.641199 0.603118 0.884948 -0.729001 -0.577594 0.345935 
-0.349750 -0.605517 0.029625 -0.586008 -0.024538 -0.780740 
1.129954 1.043523 2.051466 0.641073 0.536007 -0.539701 
0.608381 0.052556 0.194828 0.702026 0.126814 -0.679433 
0.018482 0.655310 0.475636 0.015667 0.211156 0.961744 
-0.877578 1.029931 1.708563 -0.845075 0.331606 -0.313397 
0.214765 -0.479395 0.247411 0.282212 -0.309898 0.907291 
1.213880 0.150696 1.120750 0.717121 0.508504 -0.377673 
-0.485701 1.486947 1.402446 0.704055 -0.364575 -0.497590 
-1.309462 0.180110 1.108775 0.610991 -0.596828 0.486392 
0.300890 0.921607 0.235455 0.926341 0.336503 -0.034484 
-1.156434 0.980385 2.203526 -0.762562 0.423885 -0.478420 
0.244144 -0.691734 0.145574 0.183247 -0.307016 0.885205 
0.196401 0.391099 0.503573 0.352653 0.001692 0.933621 
0.344123 0.780095 0.262287 0.916638 0.296102 0.171092 
-0.921326 0.458491 0.630055 -0.698220 0.556436 -0.436274 
-0.739340 0.343943 0.444041 0.275083 -0.588898 0.721851 
0.406801 -0.583519 0.076758 0.602364 0.002914 -0.757400 
1.294496 -0.522322 0.748114 -0.474073 -0.475258 0.654960 
-0.783744 -0.864155 0.260122 0.289004 -0.349736 0.839484 
-0.740788 1.103676 1.396464 -0.891405 0.298899 -0.178064 
-0.006432 0.256481 0.535525 -0.100549 -0.114551 0.979788 
1.124211 -0.270852 0.659414 -0.564487 -0.406337 0.660565 
-0.305985 0.091497 -0.056589 -0.432766 -0.079957 -0.890266 
-0.216245 0.242166 -0.103548 -0.412667 -0.022963 -0.905825 
-1.043723 1.012621 2.030407 -0.808987 0.412117 -0.396626 
0.440126 0.034373 0.262814 0.117946 -0.285200 0.872153 
0.342843 -0.392712 0.035633 0.730564 -0.052100 -0.673034 
1.034351 0.890203 1.805536 -0.597395 -0.572422 0.541187 
-0.484476 0.601540 0.428076 -0.399178 0.869577 -0.150868 
-0.277060 0.639030 0.431129 -0.530869 0.251132 0.770399 
0.220426 1.087551 0.333492 0.268438 0.501510 0.629093 
0.359198 -0.049017 0.302026 0.492106 -0.202351 0.824989 
-1.084494 0.070306 0.542013 0.551886 -0.381000 0.673316 
-1.373665 0.678559 2.254559 -0.609909 0.658187 -0.433523 
-1.036505 0.077244 0.476688 -0.717327 0.280902 -0.615565 
-0.198968 0.329774 0.508424 -0.393030 -0.020211 0.913212 
0.474110 -0.763280 0.101828 -0.170547 -0.185443 0.951156 
1.887733 0.875446 2.494957 0.447215 0.599742 -0.656662 
1.044192 0.091302 0.624884 0.727163 0.366317 -0.562692 
1.449002 1.248011 2.513514 0.529646 0.435239 -0.725304 
0.781393 -0.403669 0.378403 0.592588 0.196889 -0.723106 
0.263116 0.644992 0.435799 0.485560 0.261261 0.792639 
1.313277 1.289303 2.421519 0.567944 0.458299 -0.676035 
-1.200828 0.272585 1.019708 -0.689461 0.530359 -0.451853 
0.714067 0.743724 1.180259 -0.486114 -0.667591 0.546402 
1.383748 0.027757 1.256239 0.716912 0.620184 -0.056894 
-1.510808 1.254268 2.772063 -0.485453 0.642582 -0.565664 
0.383289 0.528180 0.019308 0.598346 0.179893 -0.659399 
1.177638 0.111815 0.960278 0.718553 0.449759 -0.473863 
1.183471 -0.534203 0.672484 0.540514 0.373337 -0.658226 
0.785702 0.246834 0.554502 -0.466570 -0.562993 0.630453 
-0.041193 -1.210955 -0.136416 -0.476739 -0.753846 0.109067 
-0.308342 0.883918 0.247208 -0.914374 0.289450 0.065163 
0.517607 0.957797 1.209886 -0.755413 -0.552019 0.341272 
1.747937 -0.148135 1.626280 -0.657709 -0.515023 0.490777 
-0.440909 0.618783 0.156835 -0.641878 0.580648 -0.356367 
0.786875 0.908772 1.544748 -0.549705 -0.582653 0.480108 
-0.402141 -0.127750 0.237161 -0.352172 -0.190568 0.879911 
1.128901 -0.514001 0.631125 -0.464471 -0.409900 0.699413 
1.300587 0.185888 1.431623 -0.763969 -0.548408 0.140133 
-1.074920 -0.239967 0.518568 -0.629639 0.258232 -0.680668 
-0.977359 1.306773 2.199396 0.786712 -0.269697 0.512802 
-1.515293 0.528635 1.939186 -0.496271 0.833873 -0.225777 
-1.749737 0.157367 1.474421 0.322461 -0.742870 0.460430 
0.801640 0.677192 1.140475 0.823140 0.481657 -0.252535 
-0.765122 1.006216 1.274227 -0.887385 0.355711 -0.138974 
-0.798394 0.375944 0.397120 -0.653979 0.402248 -0.596767 
0.565945 0.436685 0.221412 0.728590 0.354229 -0.481431 
0.126029 0.489472 -0.131635 0.394225 0.043822 -0.912816 
-1.149349 0.775881 1.993468 0.668351 -0.714737 0.180684 
-0.064722 0.977039 0.508861 -0.179019 -0.089053 0.972857 
0.970733 -0.828657 0.369893 0.336236 0.575410 -0.717504 
-1.376903 0.026801 0.749826 -0.717748 0.367377 -0.585771 
0.605908 -0.480709 0.237429 0.601289 0.105304 -0.736233 
-1.007172 0.978548 1.945684 0.707872 -0.396808 0.570949 
0.059501 1.050298 0.501223 -0.029963 0.097280 0.952069 
1.272476 -0.095032 0.790813 -0.648869 -0.457406 0.592485 
-1.083804 1.242063 2.299404 -0.775754 0.420712 -0.468895 
-0.884614 1.342765 2.042103 0.798203 -0.105339 0.527138 
1.515590 0.312772 1.791775 -0.436677 -0.369475 0.799447 
0.094251 0.882583 -0.059362 0.506596 0.387085 -0.749589 
2.017001 0.951981 2.637393 -0.428598 -0.583669 0.689317 
-0.106757 0.367264 0.540346 -0.265258 0.005979 0.952647 
-0.939051 -0.204695 0.411984 -0.628917 0.238005 -0.684926 
-0.296418 -0.223069 0.298388 -0.500360 -0.269936 0.814404 
0.701896 -0.160334 0.337890 -0.274727 -0.308979 0.831824 
0.206795 0.685935 0.455167 0.353545 0.276326 0.859987 
1.101445 0.252346 1.119615 -0.666388 -0.522941 0.513897 
0.775323 1.240787 1.808292 -0.456565 -0.526193 0.710013 
-1.510441 0.164045 1.320256 -0.096368 0.488768 -0.817189 
-0.394760 -0.655543 0.053949 -0.545718 0.001404 -0.803056 
1.307055 -0.283235 0.783209 0.624768 0.428173 -0.593393 
-0.472891 0.034875 0.066597 -0.662779 0.090454 -0.726461 
-0.796352 -0.456819 0.313063 -0.541725 0.179966 -0.761720 
-1.225449 0.304640 1.239854 -0.655342 0.627464 -0.394860 
-0.592273 1.321048 1.506140 0.692074 -0.467424 0.537557 
-0.474124 0.615906 0.220883 -0.656085 0.690380 -0.243287 
0.460247 -0.610161 0.117346 0.571093 0.035760 -0.773809 
0.216312 0.274209 -0.103101 0.420740 -0.021574 -0.903616 
-1.291817 -0.130065 0.684106 -0.687051 0.306213 -0.629102 
-1.170932 0.357065 1.231319 -0.674543 0.618857 -0.373065 
0.699854 -0.006674 0.287999 0.711848 0.158878 -0.656995 
-0.223895 -1.233719 -0.019056 0.735085 -0.364737 0.406899 
-0.047527 -0.465011 0.270567 -0.063805 -0.232596 0.964843 
0.794007 0.585301 1.079500 -0.525495 -0.645081 0.540113 
0.223694 -0.154951 0.360921 0.388274 -0.279446 0.864530 
1.574035 -0.216893 0.988790 0.649081 0.543070 -0.519156 
-1.252859 -0.044338 0.662250 0.646609 -0.367602 0.643018 
-0.083602 1.085712 0.053174 -0.398650 0.464671 -0.774237 
-0.347757 0.766013 0.143491 -0.911206 0.360408 -0.173944 
0.365812 -0.527851 0.135077 0.205070 -0.236167 0.923477 
-1.420645 -0.319754 0.806352 -0.673397 0.278657 -0.648401 
-0.916411 -0.698561 0.433083 -0.516834 0.140005 -0.792426 
-0.614445 1.397624 1.492502 -0.869369 0.412066 -0.229543 
-0.637601 0.704545 0.684941 -0.445778 0.604130 -0.654707 
-1.294512 0.834349 2.283175 -0.663934 0.535982 -0.497464 
-0.084307 0.046287 0.475125 -0.199528 -0.288979 0.930165 
0.036124 0.728086 0.449320 0.052390 0.040098 0.992737 
-0.788133 -0.241557 0.323680 0.285712 -0.275615 0.818830 
0.795864 0.505573 0.806444 0.817841 0.494742 -0.260589 
-0.969045 1.225385 2.074072 0.656605 -0.501378 0.549522 
-0.262135 -0.022495 -0.080631 -0.460158 -0.090845 -0.875055 
-1.225242 0.216576 0.972992 0.648917 -0.536695 0.502354 
0.631301 -0.311892 0.251781 -0.182347 -0.244522 0.886445 
-0.261694 -0.305320 0.286510 -0.427674 -0.294361 0.835514 
-1.012848 1.160633 2.086314 -0.819869 0.374310 -0.406563 
1.263749 0.988281 2.148093 0.588174 0.558781 -0.578730 
-0.021519 0.919602 0.505237 -0.159425 -0.093122 0.972349 
-0.328310 0.682569 0.374211 -0.745733 0.231072 0.576878 
0.857756 0.808310 1.511793 -0.584447 -0.686553 0.348721 
-0.375192 -0.956880 0.064904 0.100558 -0.176186 0.961508 
0.305109 -0.085139 -0.060223 0.508016 -0.096587 -0.845066 
1.932706 0.688904 2.348314 -0.399651 -0.519431 0.749652 
-0.827545 1.358637 1.917098 -0.611685 0.682911 -0.280192 
-0.382101 0.699227 0.157920 -0.545388 0.788712 0.009612 
-0.834845 0.965087 1.440402 -0.825560 0.350097 -0.291585 
1.662114 -0.322669 1.040282 -0.585620 -0.609880 0.523134 
0.218785 0.887975 0.428806 0.638858 -0.012617 0.753999 
0.586689 0.583620 0.651901 0.588388 0.687670 -0.392761 
1.156095 0.914527 1.977873 0.631189 0.441248 -0.628999 
-0.589155 1.142030 1.135693 -0.027299 0.601808 -0.672815 
-1.267655 1.059706 2.437327 0.658103 -0.493997 0.559844 
-1.112646 0.651460 1.660649 -0.680265 0.719232 -0.093108 
-1.078481 0.677022 1.598962 -0.707866 0.634348 -0.291362 
0.405465 0.692648 0.181896 0.497869 0.807932 -0.021770 
1.090171 0.828997 1.812726 -0.642630 -0.522657 0.559594 
0.510762 -0.715476 0.151954 0.495764 0.074724 -0.821957 
-0.800154 0.963719 1.515005 0.628594 -0.583875 0.333370 
0.017411 0.111223 0.502603 0.118052 -0.260538 0.950624 
1.933827 1.254656 2.827343 -0.470496 -0.466886 0.724633 
-0.550625 0.382750 0.373001 0.275754 -0.579446 0.736556 
0.138145 0.372351 0.537528 0.328029 0.015655 0.936178 
-1.054391 0.543239 1.290983 -0.725182 0.586522 -0.282725 
0.575247 1.323015 1.661272 -0.687712 -0.156753 0.639748 
-0.674836 1.111271 1.357045 0.526421 -0.715377 0.454217 
-0.380889 0.514755 0.017934 -0.562163 0.220527 -0.671362 
0.679811 1.188444 1.602139 0.747412 0.425799 -0.474630 
0.907059 0.744065 1.507411 -0.606815 -0.673500 0.344253 
-0.437061 0.508289 0.449403 0.634339 -0.448920 0.602288 
1.608935 0.918385 2.358214 -0.459236 -0.503490 0.723580 
-1.349220 0.777833 2.310088 -0.625604 0.591285 -0.487945 
-0.680519 0.303262 0.355059 0.226579 -0.519130 0.785841 
-0.758293 0.075518 0.356723 0.262665 -0.402709 0.792816 
-0.215872 0.754145 -0.067679 -0.568495 0.462386 -0.636969 
-0.355849 -0.513314 0.038910 -0.634026 -0.028251 -0.747389 
1.030452 -0.308620 0.573555 0.614006 0.309626 -0.663504 
0.022096 -0.712531 0.185526 0.392687 -0.386894 0.831945 
-1.395513 0.104551 1.075842 -0.621526 0.575330 -0.501591 
-1.273100 0.270873 1.283013 -0.635189 0.651095 -0.398296 
-0.370818 -0.738562 0.034377 -0.507920 -0.004389 -0.831473 
-1.470214 0.022634 1.061356 0.565443 -0.588570 0.557881 
-1.723636 1.087851 2.797418 -0.520570 0.424713 -0.731086 
-1.495332 1.025450 2.616058 -0.584090 0.426894 -0.680064 
-1.044114 -0.755392 0.425667 0.372728 -0.472352 0.746371 
-0.589244 0.350759 0.319394 0.150803 -0.556223 0.806397 
-1.642650 0.269030 1.554444 -0.379792 0.692894 -0.593664 
-0.239942 -0.184229 -0.093926 -0.499370 -0.113108 -0.851809 
0.676576 0.802346 1.201504 -0.467990 -0.677168 0.551726 
1.650180 1.238482 2.635322 -0.447190 -0.616154 0.646425 
0.066617 1.197809 0.101831 0.479337 0.329571 -0.797994 
-0.517348 0.579890 0.522798 0.763785 -0.314338 0.557947 
1.315270 1.195315 2.353753 0.558231 0.507594 -0.650941 
-0.287873 0.425814 0.422353 -0.317526 -0.026117 0.946203 
-1.274200 0.109623 0.654191 -0.721091 0.367350 -0.584112 
1.458342 -0.046588 1.391405 0.763636 0.418771 -0.110234 
-0.294881 -0.836162 0.094308 -0.045805 -0.235803 0.918818 
1.432298 0.088864 1.482135 0.685764 0.411951 -0.339682 
-0.647284 0.911184 1.031001 0.805431 -0.505122 0.292767 
0.595775 0.920891 1.234358 -0.429101 -0.697322 0.564381 
0.608169 0.818302 1.089287 -0.436926 -0.688955 0.575224 
1.757997 1.011045 2.523994 -0.451183 -0.587253 0.669585 
0.691208 -0.895396 0.224206 0.371238 0.287661 -0.812878 
1.573123 0.295515 1.840446 -0.459651 -0.394294 0.774894 
-1.417744 0.590336 2.108398 0.510559 -0.832604 0.193826 
-1.836915 0.518207 2.444755 0.485296 -0.621973 0.581545 
-0.468620 1.557298 1.396722 -0.249076 0.332428 -0.801064 
0.381934 -0.040751 -0.001817 0.659122 -0.002983 -0.737130 
0.833337 0.734048 1.317188 0.816545 0.452096 -0.304114 
0.607837 0.287428 0.372516 -0.307786 -0.493136 0.791758 
-1.591741 0.809079 2.519370 0.542572 -0.470739 0.687289 
-1.574703 -0.138146 0.923374 -0.723071 0.349361 -0.590837 
-1.943476 0.990541 2.867393 0.453792 -0.489206 0.743366 
-0.514405 -0.044892 0.111565 -0.682150 0.084517 -0.704788 
-1.252328 -0.479779 0.680293 0.535535 -0.283730 0.730537 
-0.034706 0.388269 -0.181913 -0.399017 0.063738 -0.912316 
-0.128180 0.910614 0.485736 -0.235671 -0.185802 0.950511 
-1.462376 -0.123165 0.821740 -0.717303 0.326460 -0.604125 
1.660502 0.974436 2.434220 0.481168 0.565307 -0.664549 
-0.444308 -0.606113 0.083160 0.001781 -0.178838 0.972918 
0.575201 0.446322 0.539343 -0.812001 -0.243038 0.496022 
0.144844 1.123674 0.395357 0.918382 0.050089 -0.026824 
-1.633742 0.679120 2.441567 0.519047 -0.464147 0.703624 
-0.451173 0.576852 0.486879 0.728269 -0.345635 0.577620 
0.651744 0.508515 0.398437 0.783229 0.552365 -0.271294 
-0.003723 0.576868 0.510196 0.026794 0.394570 0.915793 
1.600920 -0.216503 1.126844 0.674939 0.625947 -0.167686 
1.721198 0.156166 1.875059 0.592668 0.487893 -0.621810 
-0.932871 1.195193 1.958798 -0.843390 0.364008 -0.350884 
1.262923 -0.563629 0.700638 -0.453696 -0.506036 0.656713 
-0.838220 0.881556 1.384768 0.566091 -0.708326 0.403158 
0.795229 -0.952752 0.203749 -0.251396 -0.571559 0.770913 
1.176626 0.530470 1.631466 -0.653052 -0.603873 0.364007 
0.720919 0.853569 1.376388 -0.486770 -0.673375 0.527169 
-0.834846 1.291398 1.896316 0.644290 -0.502133 0.561788 
1.099238 0.483196 1.480137 -0.690479 -0.617959 0.342643 
-0.130514 0.189305 0.507415 -0.285777 -0.167531 0.930607 
-0.273662 0.907727 0.123695 -0.813464 0.382925 -0.353077 
0.345230 -0.548225 0.030216 0.641016 -0.035379 -0.736621 
0.144766 1.247134 0.319485 0.604429 0.763284 0.127136 
-0.823331 1.282988 1.820227 -0.867214 0.363347 -0.279292 
-1.655632 0.380066 1.809485 0.339803 -0.736958 0.479338 
-0.053825 -0.658099 -0.020820 -0.153550 -0.097043 -0.969665 
-0.098408 0.235937 -0.167630 -0.437904 0.020935 -0.894585 
1.534944 -0.135094 1.400823 -0.794435 -0.468131 0.025508 
-0.730142 0.542787 0.600939 -0.224548 0.818584 -0.452917 
0.130298 0.226382 -0.150317 0.441331 0.004809 -0.892778 
-0.871357 0.631313 1.021821 0.554404 -0.666245 0.487809 
-1.824646 0.827764 2.699919 0.480357 -0.521168 0.703219 
0.704779 0.994643 1.541392 -0.444730 -0.468107 0.748543 
0.923014 0.504728 1.207379 -0.585191 -0.619696 0.503444 
-0.379617 -0.060659 0.282247 -0.454821 -0.199452 0.840994 
0.561251 -1.006788 0.085343 0.304486 0.312508 -0.850227 
1.743914 0.043107 1.798585 -0.576677 -0.488983 0.639402 
-0.589140 0.580911 0.334816 -0.577343 0.727548 -0.281639 
0.577804 -0.727907 0.194066 -0.285402 -0.218397 0.892824 
-1.693036 0.131010 1.394963 -0.203731 0.603622 -0.686590 
0.289452 0.332189 0.420944 0.377631 -0.070421 0.910107 
-0.611427 0.953696 0.908898 0.790716 -0.344847 0.223596 
0.215359 0.226797 0.474644 0.412646 -0.115108 0.889425 
-1.526440 -0.038580 1.023370 0.551385 -0.577094 0.590002 
-0.131751 0.437462 0.528252 -0.302358 0.046976 0.942201 
-1.061053 0.426595 1.075917 0.610898 -0.620404 0.460903 
-1.430261 0.493414 1.806468 0.359975 -0.662977 0.547206 
-0.690323 -0.607599 0.240538 0.332439 -0.235022 0.856764 
1.852790 1.052973 2.612996 0.463889 0.525852 -0.706092 
1.379586 -0.067513 1.285604 -0.825999 -0.459175 -0.070879 
0.848060 1.223200 1.852555 0.730572 0.478790 -0.449733 
-0.654679 -0.115141 0.228019 -0.710691 0.112455 -0.664023 
1.461453 0.372755 1.786496 -0.404443 -0.341552 0.836163 
0.620217 0.159507 0.184944 0.688973 0.148240 -0.692754 
-0.622755 1.004914 1.114971 0.815621 -0.449736 0.238028 
1.030207 1.354298 2.211237 0.506721 0.700625 -0.481140 
-1.349253 0.307609 1.414622 0.408079 -0.697936 0.368333 
0.311899 0.724858 -0.041014 0.582746 0.475851 -0.630759 
0.944102 -0.131528 0.518515 0.699168 0.261968 -0.629187 
-1.890092 0.110481 1.498138 0.338345 -0.767854 0.487714 
-1.014778 0.770285 1.727291 0.683496 -0.522375 0.488523 
-0.749998 -0.920726 0.201006 0.252850 -0.423529 0.830842 
-1.156392 0.104938 0.560593 -0.725470 0.325912 -0.595019 
-1.116552 0.992209 2.126185 0.673910 -0.431274 0.588867 
-0.705352 1.339922 1.637428 -0.900676 0.350128 -0.197844 
1.551156 1.128669 2.485745 0.506537 0.489579 -0.704265 
1.361269 0.881923 2.141728 0.552162 0.639300 -0.523169 
1.311299 0.747679 1.957180 0.598773 0.528635 -0.587759 
-1.040655 0.128507 0.527904 0.521362 -0.412158 0.680372 
-0.674497 -0.846272 0.235540 0.287515 -0.192538 0.901049 
-0.355932 -0.111567 -0.018626 -0.614299 -0.009180 -0.770850 
1.536029 -0.173248 1.160867 -0.696697 -0.660360 -0.025716 
1.632245 -0.250633 1.033937 -0.613312 -0.586020 0.522562 
-0.276494 -0.550609 -0.060413 -0.439882 -0.128785 -0.860310 
0.666696 0.263649 0.420090 -0.354430 -0.498473 0.756392 
-0.588723 -0.880104 0.184441 -0.427193 0.064107 -0.873368 
-1.292659 -0.580010 0.647141 0.495278 -0.438305 0.692378 
-0.378708 -0.348532 0.062772 -0.716317 -0.028965 -0.688830 
0.797763 0.019910 0.451156 -0.400654 -0.390042 0.759511 
-0.276468 0.265401 0.440997 -0.452303 -0.085285 0.874712 
0.179032 1.093291 0.467219 0.785485 0.418493 -0.333710 
-1.600926 0.512329 2.154973 0.466902 -0.849116 0.215064 
-1.020284 0.340043 0.612716 -0.690666 0.502024 -0.509558 
-0.538609 1.456342 1.461060 -0.654079 0.730651 0.032327 
1.131011 0.105815 0.905834 -0.678444 -0.456606 0.564470 
-0.403498 0.572781 0.417427 0.395522 -0.184601 0.628858 
-0.316638 0.637336 -0.083296 -0.593609 0.184491 -0.776095 
0.033634 -0.419513 0.285851 0.019477 -0.190127 0.981107 
1.076034 -0.600706 0.587019 0.517554 0.326849 -0.693379 
1.825751 0.429524 2.133977 -0.463664 -0.505827 0.717149 
-1.346688 1.009963 2.502586 -0.628710 0.451033 -0.630494 
-0.305953 0.205592 0.414433 -0.500532 -0.129040 0.844792 
0.501570 -0.041905 0.117355 0.711007 0.064710 -0.682471 
-0.773688 0.545107 0.663141 0.773001 -0.361873 0.475790 
0.168893 0.620957 0.487064 0.203013 0.334385 0.894434 
0.017658 -0.216383 -0.185511 0.337809 -0.189038 -0.904813 
-1.693941 0.512701 2.338383 -0.534153 0.707222 -0.453844 
-0.879040 0.663824 0.948166 -0.830639 0.492489 -0.189772 
-1.511076 0.691496 2.363914 -0.571387 0.632915 -0.496632 
-0.854301 0.053987 0.345818 -0.701464 0.217032 -0.649857 
-0.676283 0.738764 0.771303 0.774139 -0.444746 0.353949 
0.858010 0.112411 0.517678 -0.474645 -0.432464 0.717459 
0.610206 0.409753 0.274827 0.732697 0.351321 -0.484396 
0.301805 0.502813 0.399260 0.345158 -0.022779 0.917868 
0.418139 0.453206 0.018779 0.622641 0.149848 -0.692247 
-0.378524 -1.207853 0.033371 -0.314786 0.019367 -0.918077 
0.582735 1.253232 1.523100 0.742429 0.488834 -0.451407 
-0.265400 -0.597334 0.174192 -0.363223 -0.290829 0.880488 
-0.227382 -0.105871 -0.100153 -0.485101 -0.093403 -0.861010 
-1.181145 0.198137 0.623493 -0.728202 0.386587 -0.552793 
-1.748587 0.290824 1.705403 -0.437423 0.824829 -0.322063 
-0.391314 0.113335 0.331161 -0.460118 -0.210500 0.825512 
-0.621130 0.284353 0.317597 0.171041 -0.513329 0.810707 
1.560474 -0.391065 0.947159 0.574980 0.581366 -0.542380 
0.778377 0.411256 0.594637 0.468598 0.743273 -0.353845 
0.722100 1.037702 1.484585 0.774787 0.437767 -0.296568 
-1.417746 0.887630 2.459148 0.598848 -0.463992 0.646469 
1.707956 0.920661 2.421774 -0.455135 -0.531238 0.707754 
-0.114658 -0.967639 -0.067528 -0.190112 0.151831 -0.955537 
0.910179 -0.478448 0.471093 0.556681 0.256840 -0.716194 
1.686195 1.297131 2.705433 -0.510369 -0.352008 0.754436 
-0.911018 1.158994 1.895252 0.623674 -0.464967 0.621295 
-0.856541 0.414352 0.506794 -0.666239 0.492792 -0.525390 
-1.090927 0.951203 2.062634 0.704272 -0.403858 0.571685 
1.100214 0.008758 0.678470 -0.654267 -0.407923 0.626088 
-1.619921 0.948037 2.645727 -0.547375 0.458915 -0.689373 
0.029960 0.799589 0.476096 0.123051 -0.229061 0.957343 
1.048606 0.593839 1.483474 0.656320 0.429805 -0.564154 
-0.495241 -0.558131 0.120904 -0.568739 0.044047 -0.776037 
2.006899 0.689223 2.393302 -0.398044 -0.542969 0.735233 
-1.125374 0.549121 1.548396 0.665005 -0.718042 0.054681 
1.820289 1.166140 2.683012 0.476868 0.505225 -0.712605 
0.437083 0.513256 0.080706 0.662545 0.282413 -0.552812 
1.080251 1.061627 2.002631 -0.527015 -0.458238 0.706132 
0.811376 0.334371 0.555934 0.767485 0.449645 -0.404154 
1.660471 0.202628 1.852571 -0.510716 -0.438939 0.716865 
-0.101388 0.119568 -0.166899 -0.462274 -0.002332 -0.879535 
-0.915316 -0.618476 0.417714 0.410002 -0.244997 0.814916 
1.793318 0.762164 2.333036 0.452262 0.636126 -0.606214 
-1.834441 0.047089 1.371310 -0.193787 0.637821 -0.643818 
0.200314 0.789589 -0.054234 0.543179 0.446621 -0.681524 
0.574180 0.353311 0.458847 -0.434744 -0.526712 0.680845 
1.410408 -0.126472 0.899868 0.683644 0.490482 -0.465095 
-0.765399 1.335959 1.839049 0.772013 -0.398231 0.489281 
-1.512584 0.398836 1.703584 0.287251 -0.621691 0.656308 
1.755981 0.653346 2.207896 -0.398327 -0.455370 0.792593 
-0.774564 1.274853 1.717722 -0.885038 0.354163 -0.240595 
-0.206915 1.143032 0.305104 -0.504029 0.015414 0.799692 
-0.843362 -0.199875 0.354127 -0.659717 0.190269 -0.674795 
1.095780 0.249518 1.039401 0.732605 0.465945 -0.467490 
1.469725 -0.117492 1.157057 0.718576 0.632186 0.070083 
-0.864921 1.158840 1.822334 0.634666 -0.453308 0.615667 
-0.103890 -0.503256 0.254457 -0.112894 -0.321270 0.934703 
-0.123720 -0.537666 -0.063191 -0.088461 -0.320790 -0.933476 
-1.207155 1.166758 2.434206 0.667588 -0.516756 0.522099 
0.952793 0.699945 1.465701 0.707068 0.411581 -0.496026 
-1.595370 -0.129871 0.991408 -0.668456 0.432231 -0.582594 
1.403345 1.350095 2.554585 0.411424 0.772698 -0.476133 
-0.698095 0.107350 0.220565 -0.674286 0.179931 -0.691201 
0.243989 -0.621323 0.173342 0.304037 -0.313294 0.884520 
-0.865749 0.437164 0.675906 0.409012 -0.695252 0.588009 
-0.637442 0.982849 1.007911 0.861436 -0.201979 0.001501 
1.558764 -0.077904 1.479791 -0.756190 -0.499674 0.152207 
-1.161630 -0.304897 0.594960 -0.632201 0.253480 -0.681371 
-0.541897 0.371796 0.090615 -0.612032 0.221192 -0.741241 
0.219597 1.035910 0.453533 0.616083 0.733232 -0.192984 
1.459692 -0.087033 1.239618 -0.730264 -0.631900 -0.070848 
-1.052689 0.481689 1.118230 -0.737570 0.568348 -0.298408 
-0.720623 0.702200 0.815152 0.829317 -0.445113 0.307583 
-0.066699 0.679572 0.466420 -0.062821 0.163722 0.973009 
1.340387 0.433891 1.708263 -0.382163 -0.316355 0.855421 
-1.409004 0.354027 1.518546 -0.310589 0.586024 -0.718030 
1.510503 0.469449 1.935015 -0.499754 -0.445932 0.721376 
0.538101 0.379760 0.144048 0.698209 0.234706 -0.608130 
-0.857624 -0.666843 0.373809 0.382239 -0.233624 0.834304 
0.544961 0.166362 0.116307 0.686126 0.115549 -0.705286 
-0.215431 -0.833137 0.101293 0.073942 -0.321623 0.895135 
-0.714900 0.531835 0.425519 -0.677782 0.629807 -0.345055 
0.712545 -0.696020 0.307101 0.482870 0.170581 -0.794176 
-0.809035 0.689786 0.965317 0.538054 -0.665437 0.511348 
1.368542 -0.054130 1.056414 0.718911 0.560372 -0.125198 
1.536289 0.947865 2.337740 -0.471467 -0.498748 0.719487 
-0.788438 0.349923 0.493618 0.315454 -0.611713 0.687447 
1.278309 1.349205 2.448553 -0.613100 -0.216210 0.742423 
1.078126 0.901261 1.863354 0.654390 0.489128 -0.554764 
0.947652 0.997527 1.806764 -0.504940 -0.673088 0.505540 
0.842543 0.921689 1.611055 -0.457655 -0.572101 0.639929 
0.646743 0.317396 0.478903 -0.358650 -0.589028 0.685137 
0.498557 1.238576 1.518251 -0.474633 -0.601998 0.612531 
-1.342521 0.420151 1.587087 0.518078 -0.840555 0.130740 
-0.621417 -0.354191 0.209919 -0.641743 0.091634 -0.712114 
-1.316691 1.081039 2.510109 -0.645875 0.423078 -0.626178 
-0.446655 -1.167497 0.053889 -0.409585 -0.060868 0.731912 
0.336012 0.148143 0.377866 0.537729 -0.174815 0.820924 
0.412176 0.603180 0.071584 0.664045 0.355500 -0.527789 
1.291713 0.405089 1.658280 -0.597999 -0.527587 0.555255 
0.239164 -0.693410 -0.022352 -0.098397 -0.167302 -0.969756 
0.359717 -1.106256 0.021954 0.348876 0.021325 -0.917850 
0.753864 0.577610 0.803513 0.749999 0.546704 -0.310985 
-0.151960 1.113593 0.082970 -0.529319 0.443215 -0.718225 
-0.114080 -0.363267 -0.141212 -0.401186 -0.215917 -0.875691 
0.109610 0.418682 -0.137627 0.381177 0.036856 -0.920335 
0.166107 0.495877 0.506028 0.347534 0.046236 0.934536 
0.527403 0.360955 0.402172 -0.410027 -0.488447 0.725784 
0.297177 -0.896707 0.079113 -0.017923 -0.214539 0.937290 
0.471070 -0.680439 0.101260 -0.132953 -0.186401 0.957867 
0.119274 0.767194 0.454965 0.165240 -0.046086 0.971107 
-1.751144 0.896340 2.698555 -0.508487 0.475402 -0.709800 
1.204744 0.322117 1.426510 0.693334 0.510322 -0.440772 
1.549177 0.410927 1.908381 0.610903 0.519413 -0.551509 
-1.828318 0.574754 2.486925 -0.495972 0.652785 -0.547892 
-0.690371 1.292440 1.527207 -0.861830 0.395986 -0.294653 
0.428761 1.266672 1.459924 -0.841126 -0.390298 0.108076 
-0.681751 -0.979356 0.130908 0.212962 -0.454988 0.840562 
0.378593 0.646661 0.317463 0.352554 0.469052 0.750734 
-0.189694 -0.254767 0.330585 -0.274130 -0.306918 0.894029 
-1.291091 0.675966 2.145890 0.601658 -0.737482 0.223123 
0.873761 0.353514 0.708240 0.789135 0.495421 -0.343179 
0.192259 0.104114 -0.117649 0.454171 -0.043278 -0.882808 
0.191879 1.154555 0.324145 0.636212 -0.049785 0.614534 
0.443767 0.559534 0.468188 -0.796493 -0.201274 0.549559 
-1.043040 0.425909 0.995853 0.608885 -0.596836 0.490372 
-0.830173 0.761086 1.005464 -0.852688 0.466559 -0.156266 
0.298484 0.801624 0.064815 0.736289 0.451766 -0.407833 
0.932349 0.965685 1.738511 0.714774 0.445275 -0.485922 
0.047923 0.551423 -0.156594 0.352272 0.085829 -0.927026 
-1.127962 0.911729 2.111069 -0.781201 0.439120 -0.440189 
0.373544 -0.789108 0.041094 0.494917 0.004435 -0.837676 
-0.053852 1.179022 0.086264 -0.457089 0.376000 -0.791126 
-0.288722 0.952952 0.278222 -0.924568 0.326611 0.082216 
-1.055062 0.910310 1.961811 -0.800589 0.423347 -0.403197 
-1.525626 0.854618 2.507745 -0.573553 0.526332 -0.610172 
0.733969 0.431952 0.749578 -0.732931 -0.471211 0.396398 
0.418375 0.625582 0.448649 -0.713506 -0.075719 0.555838 
0.273900 0.991284 0.220111 0.902390 0.379855 -0.106602 
-0.024603 -0.344069 -0.175246 -0.311032 -0.253161 -0.907942 
-1.092663 1.080739 2.175603 -0.800801 0.382746 -0.454211 
-0.278903 0.360317 -0.062135 -0.368159 -0.028021 -0.928032 
-0.443772 0.311745 -0.003800 -0.573157 0.125676 -0.798882 
-0.753877 0.338833 0.298258 -0.647067 0.318433 -0.656650 
0.713562 0.468287 0.471492 0.787982 0.544012 -0.279983 
-0.981680 1.152945 2.003495 0.610549 -0.479624 0.627762 
-1.232619 0.563832 1.663322 -0.606460 0.772453 -0.143904 
-1.670414 -0.278617 1.004993 -0.723511 0.315130 -0.605748 
1.805600 0.602464 2.192638 -0.439486 -0.589043 0.658788 
-1.727798 0.033014 1.282178 0.068878 -0.562174 0.716437 
0.145934 -0.888119 0.061615 -0.085668 -0.392631 0.883853 
1.517410 0.899900 2.285710 -0.458177 -0.469631 0.746467 
-1.827549 0.106319 1.449501 -0.282256 0.687898 -0.590737 
-0.192633 1.200649 0.540042 0.535990 0.534620 0.615638 
-0.344060 0.299216 -0.037940 -0.413362 -0.021998 -0.900742 
1.141174 -0.640192 0.594203 -0.412087 -0.479749 0.696237 
-0.599677 1.394658 1.421530 -0.803145 0.417196 -0.382731 
0.785864 1.352360 1.919294 -0.718049 -0.064737 0.654093 
-1.092783 0.765782 1.843750 0.715606 -0.571268 0.374425 
0.299077 0.268345 -0.058113 0.410088 -0.056589 -0.908160 
0.194988 0.182072 -0.115495 0.440020 -0.029931 -0.891823 
-0.308945 -0.158552 -0.062503 -0.536748 -0.077513 -0.826318 
0.817989 0.228533 0.437166 0.719896 0.318615 -0.569351 
0.029806 1.327549 0.276417 0.410980 0.674703 0.550771 
-0.513197 0.285441 0.297053 -0.017670 -0.466504 0.827988 
-1.260845 0.417733 1.507468 0.570914 -0.780989 0.199532 
0.629460 -1.040459 0.113469 0.274835 0.403151 -0.824013 
-0.774887 0.841912 0.987456 -0.883786 0.425647 -0.127975 
0.278836 -0.568143 -0.060308 0.469992 -0.118275 -0.859520 
-1.363909 0.623708 1.955354 -0.539356 0.803266 -0.242534 
-1.059805 0.592794 1.541622 0.710175 -0.680000 0.023722 
0.139766 0.918908 -0.009490 0.563064 0.437690 -0.674009 
-0.477360 0.560683 0.177186 -0.646176 0.582926 -0.356546 
0.014496 0.332272 0.551024 0.115527 -0.036475 0.988844 
0.255018 -1.255178 -0.021940 -0.136511 0.087187 -0.979114 
-1.306621 -0.526617 0.698187 0.528100 -0.344455 0.710575 
1.069534 0.013522 0.614853 0.719100 0.327587 -0.603059 
0.380055 0.111366 -0.025044 0.574965 -0.004208 -0.799924 
-0.292499 0.780775 0.368059 -0.710321 0.238995 0.589692 
-0.433503 1.638316 1.439651 -0.606909 0.585969 -0.381281 
-1.021526 -0.292607 0.480217 -0.610714 0.240796 -0.698372 
0.377944 -0.201399 0.037288 0.727670 -0.014732 -0.678887 
-1.100923 0.691818 1.720911 -0.686594 0.702655 -0.128001 
0.348611 -0.467685 0.036635 0.686007 -0.041429 -0.704169 
-1.869605 0.683288 2.610225 0.472710 -0.562926 0.661233 
0.895399 -0.878260 0.301877 0.312369 0.561899 -0.740427 
1.417980 -0.033674 1.209476 0.717651 0.623033 -0.007872 
0.872427 0.458109 1.012337 -0.561307 -0.598799 0.549238 
-0.537673 0.168617 0.090781 -0.645179 0.143385 -0.734713 
-0.174660 -0.038781 0.424014 -0.315435 -0.278726 0.899135 
-0.275766 -1.288177 0.026238 0.327343 -0.170787 0.775958 
-1.128376 -0.703476 0.494055 -0.427042 0.465081 -0.719673 
-1.933605 0.126396 1.557304 0.368128 -0.793327 0.474033 
-1.043441 0.431351 0.838800 -0.777134 0.450216 -0.360723 
1.044119 0.402255 1.216471 0.746577 0.523095 -0.382299 
-1.750703 0.521647 2.386192 -0.518998 0.693954 -0.482371 
-0.361544 0.633924 -0.000161 -0.614395 0.325218 -0.628426 
-0.582433 0.383360 0.149613 -0.619987 0.263473 -0.706696 
0.522744 0.501767 0.513303 -0.813588 -0.215980 0.511794 
1.092926 0.941529 1.922860 0.657180 0.423613 -0.598450 
-1.063003 0.365093 0.855334 0.621372 -0.537527 0.540061 
0.573697 -0.027239 0.179073 0.711082 0.099243 -0.673466 
-1.343293 0.628267 2.155498 0.533324 -0.826706 0.163436 
-1.021625 -0.218228 0.473319 -0.624662 0.257159 -0.683794 
0.786533 0.027031 0.359091 0.709928 0.202802 -0.648450 
-0.658244 0.031757 0.204498 -0.683876 0.148979 -0.687213 
-1.354527 0.904402 2.425455 -0.624063 0.515471 -0.575121 
1.161141 1.176589 2.190521 0.632240 0.491104 -0.598274 
-1.014755 0.452129 0.768780 -0.797875 0.419992 -0.353337 
1.921319 0.748306 2.397554 0.430232 0.600414 -0.660615 
1.535029 0.703938 2.136638 0.441512 0.292323 -0.844109 
1.327042 0.838667 2.088194 -0.537602 -0.485569 0.679361 
-0.886149 0.583162 0.906202 0.564170 -0.618014 0.528758 
0.144891 -0.025106 0.438282 0.258960 -0.283214 0.919162 
0.012301 -0.854868 -0.055748 0.449460 0.080159 -0.851739 
-0.282274 -0.340652 -0.061101 -0.575603 -0.119310 -0.799935 
0.185266 -0.659122 0.178616 0.198901 -0.357864 0.895623 
1.261257 -0.168836 0.756937 0.662308 0.409471 -0.588417 
-1.048870 0.624110 1.466808 -0.696295 0.506771 -0.444806 
-1.416129 -0.074134 0.779645 -0.718634 0.332160 -0.600930 
-0.164109 -0.134225 -0.134753 -0.504019 -0.074587 -0.851684 
-1.148074 0.246043 0.778174 0.651245 -0.479176 0.564425 
-0.670013 0.145966 0.319536 0.194412 -0.442492 0.814347 
1.618803 -0.080335 1.544486 -0.717161 -0.513451 0.284946 
0.213650 -0.619940 -0.025451 -0.069965 -0.190193 -0.967821 
-0.933340 0.662826 1.244878 0.576438 -0.689507 0.426249 
0.825828 1.272645 1.904997 -0.491228 -0.544346 0.667266 
0.370720 -0.638253 0.045951 0.581935 -0.012072 -0.775940 
-0.855566 0.599440 0.689684 -0.659913 0.591984 -0.452452 
-1.144089 0.275458 0.710733 -0.752199 0.398547 -0.480774 
0.922042 1.280706 1.995383 0.690996 0.497829 -0.492599 
0.741051 0.438528 0.648762 0.336872 0.835170 -0.386109 
1.091097 0.541343 1.527206 -0.702099 -0.641353 0.272400 
0.870517 -0.143874 0.469707 -0.421740 -0.328250 0.753734 
0.777675 0.668692 1.068508 0.829477 0.489567 -0.227718 
-0.234664 -0.497906 0.230414 -0.315262 -0.297135 0.899308 
-1.921414 0.163705 1.623208 -0.395891 0.805224 -0.427394 
0.218542 -0.763743 0.126022 0.042037 -0.321613 0.890619 
-0.608070 0.443242 0.225947 -0.639817 0.390982 -0.574865 
0.624636 -0.005252 0.313963 -0.247665 -0.366866 0.841037 
-1.106107 1.291403 2.377030 -0.678976 0.587471 -0.428444 
0.656568 -0.763044 0.260268 0.460174 0.146107 -0.817019 
-0.116332 -0.866167 -0.053797 -0.115602 0.054193 -0.966932 
-0.222483 0.320426 -0.098135 -0.393184 -0.011253 -0.916922 
0.961916 0.448172 1.187956 -0.603255 -0.602367 0.503044 
0.267593 -1.305499 0.028227 -0.169815 -0.180044 0.874546 
-1.546450 0.785319 2.467646 0.550363 -0.453928 0.692447 
-0.800806 0.517088 0.725221 0.494351 -0.654619 0.516057 
-0.505972 -0.125378 0.119650 -0.696124 0.062434 -0.693436 
-1.657462 0.339594 1.709246 -0.460176 0.828529 -0.280308 
0.568430 -1.090611 0.096632 0.123757 -0.298855 0.749944 
-1.028881 1.244997 2.193285 -0.796221 0.406723 -0.428258 
-1.358334 -0.063537 0.731793 -0.710805 0.328143 -0.606861 
0.656572 -0.527701 0.268546 -0.301917 -0.247405 0.858848 
0.025860 1.024452 0.008369 0.312522 0.478149 -0.807449 
-0.088708 1.303503 0.198279 -0.680141 0.624177 -0.183556 
1.745375 0.724143 2.269168 -0.409044 -0.468275 0.777152 
-0.502202 -0.942881 0.112398 -0.392013 0.061984 -0.894544 
0.537943 -0.943850 0.133538 0.377937 0.153912 -0.864129 
-0.729735 -0.469025 0.268792 -0.547784 0.153658 -0.763778 
-0.842352 1.131309 1.731610 -0.861756 0.384763 -0.271214 
1.756161 0.823790 2.370442 -0.424132 -0.495631 0.749446 
-1.161825 0.589175 1.675676 0.475674 -0.538298 0.647115 
0.704435 0.480128 0.797176 -0.668215 -0.581305 0.402234 
1.365632 -0.097567 0.991081 -0.697032 -0.567475 0.171530 
0.374516 0.030202 0.310240 0.442194 -0.176929 0.846597 
-0.687967 1.263418 1.601570 0.614536 -0.462356 0.630186 
-0.995313 -0.360243 0.470488 0.497199 -0.297579 0.749648 
-0.072848 1.259073 0.351368 -0.182714 0.812538 0.540122 
-0.029510 -0.808490 0.114758 -0.349622 -0.412961 0.833666 
1.384825 0.294542 1.611019 0.572033 0.399379 -0.671747 
-1.572613 0.421511 1.812445 0.319685 -0.693640 0.534416 
0.763791 0.508062 0.873989 -0.511224 -0.622241 0.578135 
0.857751 -0.070784 0.476398 -0.429030 -0.357288 0.747502 
-0.184226 -0.145803 0.377034 -0.300013 -0.292103 0.894833 
0.757220 0.731267 1.247082 -0.505763 -0.660005 0.531940 
1.203735 0.927944 2.037047 0.611101 0.541427 -0.574263 
-0.954195 1.111895 1.935594 -0.834870 0.388688 -0.347766 
1.238233 1.062501 2.166682 -0.523142 -0.489243 0.690756 
-1.089506 0.197787 0.515519 -0.703436 0.344475 -0.607704 
0.550348 -0.455751 0.176812 -0.140115 -0.216129 0.925053 
-1.416121 0.063546 0.988982 -0.625454 0.540269 -0.534421 
-0.441837 -0.742250 0.073666 0.064903 -0.171305 0.971275 
-1.881598 0.402894 2.240337 0.436854 -0.809640 0.362894 
0.737331 0.815708 1.235705 0.846465 0.435336 -0.252275 
0.620412 -0.147549 0.278842 -0.208824 -0.308174 0.866172 
-1.176246 1.156155 2.369626 -0.724134 0.436462 -0.523734 
1.105818 0.412577 1.419004 -0.672515 -0.588536 0.435956 
-0.276216 -0.460019 -0.060846 -0.546489 -0.126636 -0.818768 
0.162033 -1.098988 -0.068261 0.362409 0.123113 -0.896046 
0.043584 -0.134563 -0.180852 0.386793 -0.130887 -0.892180 
0.404130 0.571637 0.404778 -0.512679 -0.042727 0.624033 
1.198807 1.349608 2.371194 0.494593 0.701400 -0.502312 
1.381570 0.030574 1.381074 -0.813902 -0.502795 -0.041443 
0.256298 0.192900 -0.082039 0.429451 -0.053053 -0.896910 
0.535647 0.824541 0.921643 0.367256 0.657164 -0.563748 
-0.796898 0.008970 0.311299 -0.703447 0.187831 -0.654520 
1.311921 1.111225 2.282745 0.571783 0.509452 -0.638228 
1.446616 -0.189026 1.250218 -0.866170 -0.424810 -0.218576 
-0.969674 0.824932 1.554460 -0.763557 0.560034 -0.227344 
0.335378 0.522956 -0.062504 0.540805 0.060216 -0.810346 
-0.207839 -0.550234 -0.038525 0.068236 -0.269577 -0.944978 
0.007174 -0.334404 0.306101 -0.054985 -0.365629 0.927571 
-1.436419 0.024886 0.910344 -0.628495 0.508703 -0.564704 
-0.048247 -0.654478 0.216814 -0.328142 -0.387798 0.857542 
-1.106101 0.436163 1.217806 -0.702893 0.611626 -0.319917 
-0.868004 0.661404 0.874330 -0.844622 0.461072 -0.198743 
1.341035 0.512299 1.756768 0.692188 0.588363 -0.391643 
-0.311738 0.714917 -0.049121 -0.615082 0.422169 -0.634240 
-0.299292 -1.177617 0.038760 0.089363 -0.092317 0.966958 
0.937542 1.152418 1.909383 -0.475941 -0.499243 0.717131 
-0.003895 -0.907061 0.065944 -0.568625 -0.364224 0.722438 
-0.661895 0.564475 0.599616 0.703139 -0.386725 0.564480 
-1.258274 0.385257 1.433954 -0.511315 0.630985 -0.512697 
-1.906154 0.601453 2.564969 -0.474376 0.626460 -0.596372 
0.477329 1.317972 1.544242 -0.688881 -0.147585 0.639339 
0.877891 0.016392 0.442857 0.713673 0.242139 -0.632909 
-0.902744 -0.124804 0.394755 -0.682778 0.214192 -0.652395 
-1.182339 1.097154 2.331214 -0.733866 0.422667 -0.520518 
0.160670 -1.173889 -0.077842 0.357338 0.103852 -0.859047 
0.492083 -0.455353 0.125501 -0.067307 -0.198078 0.959038 
-1.493496 0.912374 2.533431 0.583492 -0.487002 0.643196 
1.006660 0.281921 0.879049 0.760403 0.438412 -0.429054 
-1.125271 -0.584856 0.583537 0.474760 -0.258962 0.772947 
-0.759773 1.011539 1.433176 0.577730 -0.707487 0.324902 
0.714740 1.251153 1.714794 0.769609 0.476265 -0.386349 
0.272020 0.580431 -0.092712 0.497842 0.100742 -0.844198 
-0.417383 0.203478 0.343254 -0.379059 -0.279132 0.812562 
1.529365 0.367645 1.842767 0.641526 0.533044 -0.493900 
-1.616409 0.880891 2.595549 0.547462 -0.499944 0.663461 
1.251070 0.935131 2.091599 0.594435 0.589835 -0.540106 
-0.076052 1.240748 0.133928 -0.592382 0.376499 -0.690283 
0.071621 0.014311 0.463756 0.172137 -0.296207 0.933735 
0.515097 0.215630 0.280266 -0.209547 -0.449350 0.853935 
-0.935487 0.393241 0.671311 0.469939 -0.647680 0.583620 
-0.106788 -1.177145 -0.110751 0.068802 -0.492621 0.614505 
0.816433 -0.293608 0.415318 -0.405715 -0.302328 0.779626 
0.444911 -0.168682 0.090935 0.725353 0.020209 -0.673230 
1.466352 0.024355 1.463194 0.710523 0.421248 -0.275053 
0.123704 1.150934 0.090655 0.503298 0.418908 -0.747167 
-0.470957 -0.278296 0.120938 -0.720571 0.014402 -0.675838 
0.996191 0.752308 1.561426 0.594485 0.336444 -0.692631 
-0.709141 0.990613 1.234082 0.528414 -0.700112 0.473726 
-0.075410 -0.130423 -0.169282 -0.422779 -0.110897 -0.879893 
-1.562798 0.524265 2.055833 0.470403 -0.848578 0.220795 
-1.670423 0.220548 1.505092 -0.326779 0.669583 -0.617277 
-1.887797 1.039623 2.864150 -0.474649 0.466849 -0.741468 
-0.636224 1.265702 1.274041 -0.641511 0.621755 -0.399639 
0.053843 0.475646 -0.156171 0.364219 0.064138 -0.926861 
0.701689 0.537854 0.851495 -0.511956 -0.668632 0.523320 
-0.800695 1.091433 1.633261 0.595625 -0.656254 0.412235 
-0.770338 1.158028 1.680013 0.680349 -0.512478 0.489399 
-1.620085 0.435505 1.875052 -0.465950 0.857646 -0.205874 
0.406667 -0.428274 0.083927 0.691081 -0.012506 -0.694155 
-0.762764 0.761886 0.970955 0.528481 -0.668487 0.519457 
-0.311931 0.865775 0.166798 -0.900092 0.348010 -0.208426 
-0.076554 1.206006 0.417152 0.108372 0.725566 0.645768 
-0.578316 -0.402311 0.180815 -0.628445 0.073805 -0.726032 
-1.003131 0.486276 0.856266 -0.791450 0.456635 -0.321162 
1.837452 0.641925 2.244807 0.431356 0.611337 -0.638725 
0.110489 1.276323 0.252608 0.670008 0.657718 0.149670 
0.776215 -0.481401 0.370218 0.554565 0.199499 -0.748844 
-1.188368 -0.388647 0.625479 0.541633 -0.298997 0.722968 
-0.021790 0.002672 0.465139 -0.099112 -0.310857 0.944937 
-0.610630 -0.707683 0.182558 0.275537 -0.210881 0.893378 
0.252083 0.425760 -0.084303 0.424313 -0.008979 -0.900598 
-0.861849 0.246452 0.447939 0.379529 -0.480583 0.727855 
0.772815 1.187659 1.735489 0.749642 0.499445 -0.395211 
0.532663 1.174445 1.308891 0.608467 0.667794 -0.422396 
1.043095 1.164333 2.040315 0.672428 0.490216 -0.535890 
1.057115 0.086703 0.715168 -0.644219 -0.461543 0.594726 
-1.141488 0.323701 1.038956 0.637532 -0.578646 0.471010 
0.341930 -0.147248 -0.031029 0.615110 -0.053474 -0.770032 
-1.318844 0.980413 2.439166 0.633064 -0.476057 0.609277 
0.675305 -0.839040 0.268939 0.435138 0.153531 -0.823136 
-1.203669 0.910766 2.218020 0.701575 -0.411493 0.571431 
-0.504826 0.355027 0.309500 0.000494 -0.438165 0.847244 
1.230019 -0.605422 0.652323 -0.433020 -0.535910 0.659038 
1.354880 -0.168832 0.841468 -0.624952 -0.487132 0.582923 
-0.960516 0.766900 1.461729 -0.748031 0.438913 -0.389869 
-0.938107 0.757136 1.589314 0.674192 -0.627999 0.312859 
-0.059302 -0.407953 -0.145745 -0.275771 -0.301925 -0.904608 
1.523709 1.320641 2.624989 -0.528419 -0.327740 0.762271 
-1.262149 1.164800 2.492777 -0.676713 0.397711 -0.603817 
1.107891 -0.133378 0.644217 0.672763 0.344127 -0.620365 
0.759101 0.527615 0.748784 0.450729 0.730623 -0.449292 
0.665927 0.893035 1.204762 0.869368 0.415923 -0.220542 
0.313544 0.662958 -0.084769 0.576676 0.223600 -0.782923 
-1.847628 0.919234 2.769941 0.470541 -0.513043 0.715585 
1.356670 0.331687 1.664526 -0.582812 -0.506753 0.612835 
0.872798 0.240276 0.659902 -0.551920 -0.620092 0.528274 
1.922127 1.202944 2.779100 -0.442947 -0.581559 0.680610 
-0.397791 0.592506 0.071981 -0.606656 0.398201 -0.525224 
0.648534 1.248882 1.634008 0.788062 0.481962 -0.348972 
-0.282643 -0.966119 0.049390 0.183978 -0.240103 0.924906 
0.553114 0.037194 0.269137 -0.197557 -0.378969 0.866085 
0.038419 -0.650500 0.220935 0.340434 -0.383864 0.854067 
-0.237933 1.032901 0.359864 -0.838656 0.463990 0.268081 
0.647953 -0.597240 0.264882 0.522096 0.140590 -0.788068 
-0.936688 0.693415 1.307759 0.579850 -0.696215 0.412065 
-0.441889 0.473269 0.057703 -0.599472 0.301063 -0.626142 
0.639302 0.059060 0.339529 -0.276033 -0.394339 0.823973 
-0.121951 0.861633 -0.062132 -0.505704 0.416870 -0.740163 
-0.002922 -1.027241 -0.013878 -0.631475 -0.373481 0.667371 
0.293714 -0.375950 -0.033244 0.630770 -0.112974 -0.753724 
0.830163 -0.462469 0.419308 -0.461989 -0.303826 0.769690 
-1.674243 1.044850 2.745106 0.498426 -0.524072 0.686077 
0.302592 -0.655635 -0.033240 0.491359 -0.076983 -0.851214 
0.277826 -0.885447 -0.013452 -0.031187 -0.080230 -0.980404 
-1.767874 0.950022 2.741378 -0.504989 0.463367 -0.719836 
-0.348934 0.038252 0.342004 -0.545572 -0.205617 0.808850 
1.473360 -0.117126 1.348648 -0.828411 -0.460939 -0.090944 
-0.736284 -0.276433 0.287448 0.234199 -0.261272 0.843523 
-0.300376 0.072252 0.383300 -0.485254 -0.216704 0.836468 
-0.439444 0.363554 0.334341 -0.155467 -0.277716 0.882246 
-0.784371 -0.746784 0.330555 -0.485383 0.114903 -0.820160 
-1.125937 -0.480446 0.582493 -0.593261 0.210966 -0.720691 
-0.858430 0.299157 0.371286 -0.664584 0.332681 -0.637326 
2.032161 0.809698 2.523646 0.419615 0.577420 -0.698981 
0.363091 0.591169 -0.012505 0.602221 0.223306 -0.686194 
-0.096168 0.441016 -0.141028 -0.368168 0.046360 -0.925918 
-1.164700 0.330414 1.163826 0.639154 -0.617103 0.425242 
-0.970098 -0.615880 0.468853 -0.541435 0.164078 -0.768799 
-1.099368 -0.416310 0.555755 0.510765 -0.290495 0.743451 
-0.198718 -0.754824 -0.015010 -0.063949 -0.091976 -0.989931 
0.950784 0.631685 1.449459 -0.607946 -0.637206 0.424145 
0.860520 0.651198 1.323677 -0.553906 -0.638707 0.504934 
0.552228 1.001667 1.280081 -0.407770 -0.709239 0.568644 
-1.686160 1.225456 2.853963 -0.494764 0.522828 -0.675918 
-0.400999 -0.240732 0.201458 -0.321200 -0.207265 0.886791 
1.021281 0.453315 1.321311 -0.630443 -0.600983 0.474004 
0.795340 0.968702 1.506859 0.748153 0.448661 -0.347264 
1.024333 0.728219 1.656316 -0.535766 -0.457865 0.697779 
0.040661 0.117951 -0.196898 0.452465 0.004919 -0.882090 
1.161076 0.425887 1.467162 0.653852 0.485042 -0.545178 
-1.667649 0.497399 2.268097 -0.518950 0.686485 -0.484520 
0.273736 0.788821 -0.025082 0.610796 0.516959 -0.588129 
0.055243 -0.410796 -0.145451 0.263130 -0.312474 -0.906457 
1.281703 -0.022066 0.924947 0.719674 0.486770 -0.302305 
-0.101541 -0.841397 0.078820 -0.048435 -0.434031 0.877443 
1.241989 0.213350 1.310874 0.715317 0.571493 -0.289220 
-0.814106 1.038314 1.506575 -0.838998 0.484629 0.003311 
0.908862 0.616787 1.286517 0.790931 0.487481 -0.323093 
1.585281 1.049115 2.446664 0.495124 0.529162 -0.685806 
-0.699402 -0.021830 0.244540 -0.698358 0.149233 -0.669879 
1.470053 0.697804 2.074277 0.493402 0.369816 -0.759690 
-0.570341 -0.613911 0.163165 -0.516474 0.085309 -0.803097 
-0.148576 1.224490 0.353879 -0.440995 0.815785 0.201284 
1.532775 0.210911 1.716735 -0.467009 -0.386990 0.762020 
-1.796349 0.996062 2.786197 0.478412 -0.511304 0.710091 
0.898920 1.063650 1.816633 -0.528835 -0.444574 0.710658 
0.637889 0.595567 0.732345 0.464939 0.697110 -0.508417 
-0.444844 0.240089 0.004865 -0.610475 0.126100 -0.773583 
0.768511 0.312232 0.469067 0.743874 0.383368 -0.481737 
0.205592 0.514270 -0.112189 0.443891 0.029833 -0.887604 
1.154023 0.739710 1.804253 -0.599146 -0.500020 0.618029 
-1.896669 0.756021 2.691992 0.464686 -0.542312 0.693951 
-0.009254 0.272906 -0.215643 -0.447900 0.061990 -0.891593 
0.832747 0.462222 0.933909 -0.542704 -0.597077 0.569855 
0.346610 0.726548 0.310101 0.867508 0.257059 0.354697 
0.800335 -0.792788 0.350699 0.438202 0.244943 -0.782375 
-1.611476 0.746137 2.482140 0.527807 -0.453103 0.711211 
0.904243 0.576854 1.204201 0.790652 0.505039 -0.302564 
-0.901282 0.823637 1.531316 0.672122 -0.687227 0.083236 
1.381769 1.036734 2.299796 -0.535452 -0.497396 0.677624 
-0.857394 0.872724 1.464280 0.620077 -0.697807 0.233734 
-0.279584 -0.006537 0.373339 -0.465697 -0.237838 0.840679 
0.035466 1.397518 0.235869 0.494799 0.758304 0.406835 
1.363431 0.971122 2.220919 0.548771 0.582779 -0.587215 
-1.109824 0.511459 1.482711 0.674821 -0.690762 0.141707 
0.849025 1.159210 1.804683 0.726608 0.506254 -0.426887 
-0.778068 1.080902 1.463648 -0.835670 0.368306 -0.188714 
-0.713993 1.334380 1.712556 0.618055 -0.497901 0.596599 
-0.830064 0.715246 0.900432 -0.856859 0.471192 -0.159074 
-1.312581 0.157708 1.040357 0.616017 -0.569581 0.510226 
-0.377046 0.413198 0.357902 -0.260726 -0.110428 0.936426 
-0.181953 1.225730 0.453243 0.320702 0.869615 0.299426 
-1.512387 0.448601 1.782342 -0.495184 0.844041 -0.194271 
0.498595 -0.541500 0.129043 -0.110578 -0.198120 0.950106 
0.208089 0.008234 0.423496 0.384037 -0.256535 0.878058 
-1.584328 0.316118 1.570291 -0.439497 0.743084 -0.494317 
-0.395164 0.450831 -0.019596 -0.558738 0.125133 -0.779040 
2.052047 1.061179 2.747405 0.439203 0.571005 -0.693219 
-1.050583 1.310911 2.325178 -0.682953 0.616020 -0.388470 
2.083698 0.564836 2.320682 -0.377919 -0.538693 0.751121 
-0.950594 0.334178 0.619294 0.450007 -0.634634 0.602995 
-1.423644 1.235612 2.721655 0.570874 -0.407288 0.703690 
-0.138699 0.511624 -0.132245 -0.418019 0.051822 -0.901681 
-0.275319 0.960682 0.173406 -0.862444 0.373404 -0.253484 
-0.993262 1.049560 1.963646 0.669078 -0.429643 0.593656 
0.506405 -0.139209 0.194085 -0.114251 -0.303131 0.915789 
-1.009953 0.918648 1.882690 -0.799011 0.420226 -0.364229 
-0.937690 0.869795 1.617953 -0.787870 0.505822 -0.154959 
-1.019064 0.649764 1.543405 0.707388 -0.678535 0.025750 
-1.250784 0.265309 1.177361 -0.654865 0.603366 -0.422066 
1.057840 0.466043 1.414433 -0.647691 -0.597200 0.454007 
-0.514284 -0.491226 0.129086 0.045012 -0.196910 0.947361 
0.299016 -0.496068 0.203060 0.443242 -0.282881 0.844541 
-0.727547 0.194206 0.226920 -0.661459 0.210270 -0.699197 
0.480901 -1.142213 0.069559 0.301380 0.185168 -0.872455 
-1.263219 0.629096 1.848812 -0.572948 0.786141 -0.220192 
-0.625141 1.081791 1.096699 -0.023941 0.613001 -0.702134 
