0.515851 0.675502 0.399863 0.020388 -0.208978 0.870125 
0.687549 0.130567 0.104586 0.641508 -0.241772 0.720116 
-0.482106 -1.341144 0.110447 -0.856425 0.217077 -0.264122 
-0.896371 0.152707 -0.182279 -0.737024 -0.152887 0.649028 
-1.586173 1.297698 -0.998135 0.766584 -0.461935 -0.418248 
-0.526282 2.765728 -0.638944 -0.904485 0.208879 0.358019 
0.344063 0.457868 0.115675 0.583042 0.273850 -0.720499 
1.018196 -0.206049 -0.262607 0.590557 -0.092192 0.782444 
-0.861974 0.897007 0.005311 0.630664 0.150489 -0.734532 
0.652406 1.646090 0.412744 0.753017 -0.246343 0.589058 
-0.006429 0.555435 0.581590 -0.043816 -0.207388 0.976573 
-0.058913 -0.681772 0.298859 -0.301776 -0.211411 0.921766 
0.566384 1.506966 0.448050 -0.114981 -0.222608 0.825091 
1.417025 0.653413 -0.402327 0.488000 -0.392314 0.754265 
2.190384 1.987181 0.117582 0.060922 -0.541310 0.833290 
1.913895 1.526853 -0.066675 0.281878 -0.176579 0.895051 
0.621336 -0.321725 0.024383 0.613428 -0.108460 0.771029 
-1.432472 0.665267 -0.607492 -0.761076 -0.129324 0.633655 
-0.646771 0.026963 0.022940 -0.725425 -0.201019 0.648516 
-1.163769 1.026817 -0.316677 -0.815530 0.106206 0.515099 
-0.626506 2.225065 -0.211401 0.836384 -0.400270 -0.358220 
-0.903972 -0.358309 -0.328304 0.482371 0.069636 -0.792071 
-1.173926 2.063503 -1.210598 -0.793266 0.443081 0.415610 
-0.590102 0.002880 0.080544 -0.715946 -0.217735 0.651111 
-0.004614 -1.015980 0.230591 -0.609618 -0.006429 0.779003 
-0.736005 -0.843261 -0.095703 -0.412114 0.258572 0.870681 
-0.789559 1.499471 0.310898 -0.954927 0.060160 0.259256 
-1.176768 0.309575 -0.481712 -0.744502 -0.228745 0.611755 
0.244237 0.856939 0.118053 0.646574 0.467004 -0.583219 
1.435488 0.272911 -0.540189 0.644888 -0.154018 0.728387 
-0.744466 2.980582 -1.101983 0.815858 -0.265136 -0.510473 
-0.046978 1.189547 0.532911 0.128268 0.675138 0.710500 
-0.242923 0.509276 0.531798 -0.234074 -0.204129 0.947886 
-0.505315 -0.655110 0.040171 -0.634930 -0.023961 0.758469 
0.637349 1.396614 0.327067 -0.288740 0.216911 -0.915675 
-1.211447 1.740945 -0.855553 -0.584265 0.744263 0.184853 
0.481650 -0.014187 0.232614 0.612180 -0.255533 0.736286 
1.997857 1.859603 0.053602 0.105203 -0.514781 0.840635 
0.633837 0.925482 0.329103 0.475210 -0.150640 0.851580 
0.826998 -0.584372 -0.134551 0.485653 0.027077 0.849237 
-0.132879 -0.663528 0.282847 -0.204134 -0.266720 0.940172 
-0.735961 1.876967 0.165896 0.649561 -0.440642 -0.572452 
-0.211169 -0.647935 0.069879 -0.020926 -0.221291 -0.961398 
-0.744632 0.776788 0.103810 0.557839 0.297324 -0.770548 
-0.671778 0.386333 0.180713 -0.713258 -0.325450 0.605229 
1.071272 1.485960 0.107524 -0.265826 0.257047 -0.918471 
0.584615 1.867579 0.453804 -0.209316 0.427887 -0.876960 
-0.768128 1.751142 0.214981 0.693121 -0.236206 -0.561587 
0.253664 0.954875 0.227243 0.776400 0.361390 -0.422760 
-0.398919 0.066974 0.080047 -0.249426 0.125943 -0.904249 
1.783907 1.600857 -0.013251 0.291549 -0.207891 0.893159 
-0.269991 -0.248097 0.023519 -0.527644 -0.083901 -0.823119 
1.177835 1.848557 0.264717 -0.213051 0.309694 -0.904442 
0.294194 -1.069986 0.143843 -0.021895 -0.152510 0.820649 
0.092838 -0.203223 0.395495 0.153219 -0.134758 0.974934 
0.245010 -0.383216 0.329714 0.468997 -0.155070 0.835677 
-0.839110 1.718927 0.247023 -0.956087 0.120735 0.236515 
-0.903348 0.788513 -0.065448 0.648508 0.151834 -0.721950 
-0.994796 1.614553 -0.014517 -0.912327 0.177830 0.323054 
0.839396 -0.429907 -0.146130 0.560970 -0.058185 0.809220 
-1.096657 1.777413 -0.666825 -0.596779 0.745877 0.172226 
-1.431097 1.505665 -0.990915 0.707405 -0.597951 -0.335571 
0.938443 2.060824 0.433634 -0.140726 0.483787 -0.859126 
-0.826762 2.733379 -1.105986 0.817654 -0.295526 -0.489788 
-0.736711 2.071884 -0.228353 0.662461 -0.571149 -0.436840 
-0.793994 1.969292 -0.167172 -0.849224 0.463320 0.149164 
-0.202480 1.225091 0.590098 -0.837542 -0.412922 -0.309096 
0.144473 0.041123 0.427624 0.183007 -0.228466 0.954606 
0.098772 -0.565240 0.019902 0.101510 -0.339975 -0.930700 
-0.860855 1.105086 0.115989 -0.913986 0.024867 0.376412 
0.412336 0.594016 0.381269 0.135503 0.662215 -0.617377 
-0.080669 -0.241986 -0.107102 -0.464878 -0.196779 -0.837880 
0.927765 -0.173701 -0.178531 -0.432318 0.073049 -0.850489 
1.177431 0.380999 -0.242562 0.661057 -0.189683 0.720602 
-0.250571 1.052544 0.399514 -0.906291 0.387482 0.085944 
0.066476 -0.020896 -0.152219 0.504210 -0.073825 -0.839930 
2.008778 1.795055 0.017419 -0.134165 0.278432 -0.939217 
-0.195944 0.406264 -0.071032 -0.669877 0.111743 -0.710820 
1.472157 2.338614 0.398452 0.246219 -0.398150 0.874011 
-0.103633 -0.768997 0.265538 -0.203190 -0.189528 0.951250 
1.919521 2.574545 0.446744 0.078214 -0.490840 0.858526 
-0.589252 -0.680151 -0.012733 -0.608872 0.000586 0.779835 
-0.681201 1.742714 0.415036 0.850830 0.073260 -0.243620 
-1.016405 2.558597 -1.300336 -0.796550 0.353801 0.479778 
-1.260203 0.537336 -0.464733 -0.761048 -0.162282 0.625296 
-0.626100 0.059474 -0.064977 0.114881 0.106847 -0.826823 
2.490106 2.446130 0.360610 0.008462 -0.515094 0.855746 
1.576674 0.903663 -0.222227 -0.106527 -0.507534 0.798265 
-0.490579 2.750691 -0.564305 0.939925 -0.134452 -0.268946 
-0.956125 -0.450073 -0.321901 -0.518762 0.069713 0.777885 
1.177256 1.917501 0.292627 -0.169507 0.229290 -0.937888 
0.078950 0.680006 0.561043 0.074305 0.064744 0.986892 
-0.528585 -0.780204 0.024618 -0.598527 0.015539 0.792021 
-0.669999 1.827972 0.398945 0.742041 -0.460053 -0.461690 
0.208969 -0.305304 0.352329 0.371912 -0.145123 0.878787 
1.175085 0.214000 -0.313699 -0.544158 0.151262 -0.791019 
-0.367986 0.533112 0.221531 -0.591562 0.413569 -0.668523 
-1.092308 1.668170 -0.581078 0.796959 -0.454815 -0.388699 
0.054905 1.084611 0.140914 0.357716 0.425253 -0.818335 
-1.488151 1.330505 -0.834049 -0.830569 0.301557 0.458166 
0.648674 1.083134 0.338574 0.289167 -0.203458 0.899790 
0.387037 -0.647979 0.156456 0.573602 -0.103442 0.803591 
1.182180 0.560815 -0.188845 0.616541 -0.239989 0.733088 
-0.128520 0.949944 0.104343 -0.536383 0.447931 -0.690524 
0.822857 0.533767 0.018319 -0.369419 0.233631 -0.843807 
1.196653 2.242764 0.452696 0.282052 -0.358890 0.886482 
0.959098 0.193070 -0.105405 0.650312 -0.171870 0.733309 
-0.649138 0.317543 0.181789 -0.682736 -0.344897 0.635215 
0.038829 -0.876884 0.127105 0.245899 -0.297747 -0.913437 
0.093753 0.954409 0.597285 0.202954 -0.107877 0.966272 
-0.809298 2.081471 -0.482339 0.745108 -0.570731 -0.323245 
0.044961 0.431521 0.551694 0.067269 -0.251089 0.962301 
-1.196922 1.489448 -0.457771 0.723238 -0.487103 -0.387666 
-0.874932 2.130273 -0.718212 0.716800 -0.564893 -0.382126 
-0.513988 2.397921 -0.127868 -0.604321 0.620884 0.452562 
0.012293 0.704066 0.555448 0.041359 0.002868 0.995476 
-0.413921 -1.224182 0.123941 -0.700852 0.321545 0.632765 
-0.653269 2.064926 0.029670 0.834054 -0.351743 -0.408155 
-0.524979 -0.465796 0.030974 -0.676540 -0.070950 0.718563 
-0.696792 0.699554 0.225952 -0.600454 -0.056873 0.769319 
2.567919 2.615605 0.469151 0.020807 0.540600 -0.840846 
-0.655910 -0.334745 -0.060532 0.376235 0.032021 -0.844205 
0.863661 1.353209 0.223238 0.642533 -0.215272 0.665920 
0.944748 -0.058364 -0.138250 0.605694 -0.119764 0.769957 
1.584915 0.706481 -0.560463 0.444184 -0.448085 0.758718 
1.276958 2.097206 0.328142 -0.198287 0.501461 -0.836324 
1.800958 1.953736 0.129757 0.136733 -0.532259 0.822723 
-0.122545 1.151640 0.186081 -0.518859 0.397735 -0.750884 
1.988099 2.534091 0.401545 -0.047508 0.477264 -0.876757 
0.905942 1.324188 0.148716 -0.264027 0.279522 -0.914513 
0.168672 -0.603066 0.299095 0.239042 -0.288218 0.924988 
1.696047 1.671470 0.030296 0.286159 -0.252693 0.893115 
0.672203 -0.855617 -0.021231 -0.295147 -0.151670 -0.937360 
-0.190568 0.712741 -0.011309 -0.527009 0.389192 -0.706029 
-0.712738 0.002309 -0.073456 -0.744299 -0.155254 0.647896 
-1.063806 2.546937 -1.373250 0.807408 -0.327588 -0.490120 
0.827467 -0.263502 -0.105302 -0.402727 0.056747 -0.868351 
0.537745 0.365861 0.377091 0.517760 -0.306738 0.773956 
1.898689 1.989494 0.128980 0.094985 -0.584725 0.800447 
0.950809 1.262826 0.149273 0.590286 -0.216925 0.700410 
1.016937 0.865526 -0.019422 -0.437177 0.251361 -0.848776 
-0.172522 0.189038 0.465457 -0.211939 -0.256611 0.938865 
0.163747 0.963140 0.574428 0.319780 -0.105546 0.909463 
-0.695119 1.255330 0.269301 0.729438 0.179993 -0.632979 
0.094706 -0.376538 -0.078214 0.430781 -0.276700 -0.842680 
-0.745593 1.737514 0.444648 -0.542408 -0.110201 0.765177 
-0.772534 1.412004 0.313981 -0.953732 0.036112 0.272629 
-0.803718 0.907443 0.155409 -0.905611 -0.064707 0.401883 
-0.631594 -0.137848 -0.028233 -0.730797 -0.135440 0.663805 
-0.708959 2.842031 -0.982636 -0.861155 0.232991 0.439641 
-0.928488 1.999295 -0.686433 0.802262 -0.480135 -0.353946 
0.313028 0.246485 0.001512 0.619875 0.052800 -0.753669 
0.012821 0.051741 0.437792 0.080708 -0.217008 0.971821 
1.876829 2.260246 0.264089 0.122950 -0.386748 0.904516 
0.946013 -0.366131 -0.224486 0.554648 -0.049969 0.806933 
-0.728121 0.255437 -0.109154 0.252090 0.159655 -0.791328 
-0.732660 -0.322127 -0.090980 -0.660762 -0.061688 0.726460 
-1.232152 0.873548 -0.410286 -0.788140 0.033218 0.565231 
-0.795560 0.248605 -0.152688 0.360844 0.152568 -0.768361 
0.528674 -0.032669 0.178928 0.636299 -0.235691 0.725064 
-0.030676 -0.044390 0.422371 -0.095569 -0.184607 0.974887 
-0.389404 -0.038011 0.286535 -0.580117 -0.240929 0.764448 
0.648703 0.203776 -0.002495 -0.011418 0.150190 -0.866860 
0.831961 0.276269 -0.079415 -0.240264 0.164532 -0.828895 
0.474119 0.334005 0.392113 0.455369 -0.291971 0.819377 
2.196090 1.753738 -0.013135 -0.094360 0.360031 -0.919368 
1.029055 1.578851 0.171681 -0.280094 0.209734 -0.925848 
1.159374 1.677054 0.189544 -0.096342 0.518167 -0.814262 
-0.673400 0.637497 0.200527 0.719996 0.486738 -0.314959 
0.960872 1.918251 0.401378 0.428680 -0.367551 0.806297 
-0.922357 0.625067 -0.060545 -0.828673 -0.136988 0.519224 
-1.413880 1.579437 -1.068201 0.783418 -0.441770 -0.415863 
1.211431 0.823943 -0.137032 0.503172 -0.280694 0.784187 
-0.904011 -0.077817 -0.239339 -0.692540 -0.124550 0.683075 
-1.081655 1.346468 -0.181718 0.728413 -0.161160 -0.612154 
-0.682073 2.440003 -0.648392 0.844517 -0.348853 -0.393262 
-0.769765 2.220459 -0.580502 0.654432 -0.652883 -0.374782 
0.351515 0.695249 0.189972 0.862841 0.364603 -0.272529 
0.630955 0.503221 0.368317 0.511704 -0.139682 0.802563 
-0.576061 0.714419 0.363882 -0.419693 -0.194404 0.761091 
-0.726711 0.850636 0.137997 0.594018 0.265774 -0.739270 
0.526420 0.600059 0.413434 -0.025380 -0.184031 0.917528 
0.871638 -0.355796 -0.156360 0.570148 -0.070167 0.801084 
-0.042122 -0.483879 0.352243 -0.115286 -0.225746 0.958890 
-0.565637 0.353392 0.033578 0.036251 0.210497 -0.845475 
0.190454 1.089576 0.208888 0.668562 0.406614 -0.570880 
0.302832 0.320998 -0.020580 0.683289 0.054533 -0.714636 
-0.695598 1.368906 0.297406 0.715861 0.200384 -0.647424 
0.275609 -0.401455 0.036347 0.476984 -0.107677 -0.854712 
-0.137001 -0.650928 0.062509 -0.052321 -0.248092 -0.960860 
-0.692864 1.963380 0.076732 0.725416 -0.534964 -0.406175 
0.475172 -0.246587 0.118384 0.652128 -0.166642 0.735475 
-0.609544 -0.597853 -0.037905 0.389916 -0.010087 -0.878246 
-1.086429 1.753032 -0.589447 -0.607289 0.750733 0.165875 
0.755309 0.077015 -0.063498 -0.160891 0.107752 -0.839090 
1.003141 1.893564 0.344499 -0.097722 0.222051 -0.948962 
1.243076 0.280077 -0.343785 0.651067 -0.170426 0.728717 
-0.864203 2.001070 -0.498215 0.798711 -0.510292 -0.305493 
-0.485225 2.694694 -0.476395 0.957869 -0.119440 -0.181257 
-0.689752 2.013766 -0.006199 0.807330 -0.424442 -0.392647 
0.062751 -0.943025 0.139518 0.147536 -0.298323 -0.924704 
-0.825681 0.758754 0.024018 0.612520 0.217444 -0.755719 
-1.019140 0.395392 -0.279127 0.699127 0.181275 -0.691599 
-0.939996 -0.143776 -0.311338 -0.681526 -0.134606 0.684565 
-0.806065 0.992671 0.168197 -0.917447 -0.029809 0.381591 
-0.321635 0.792791 0.226165 -0.841257 0.386190 -0.313869 
0.932158 1.678748 0.322468 0.527634 -0.231357 0.753660 
0.232179 -1.213480 0.178072 -0.355832 -0.238957 -0.876301 
1.513299 1.717644 0.078487 -0.174605 0.489379 -0.839306 
-0.846710 1.353965 0.127208 0.647698 -0.028053 -0.717175 
-0.304142 -0.586403 0.035743 -0.290057 -0.128192 -0.860391 
1.244257 -0.061307 -0.399130 0.546341 -0.043761 0.790289 
-0.533736 -0.257533 0.028535 -0.725478 -0.125642 0.672113 
0.787329 0.555485 0.181114 0.742491 -0.171307 0.630648 
-1.526128 1.509452 -1.192038 0.740248 -0.557627 -0.361778 
0.508252 0.180537 0.306552 0.581274 -0.321423 0.737977 
-0.200623 0.779969 0.537855 -0.365640 0.087484 0.896813 
0.651702 0.458336 0.078651 -0.131113 0.219965 -0.878851 
-1.374555 0.934504 -0.536049 -0.785098 0.033699 0.577020 
-1.532492 1.163775 -0.731080 0.792603 -0.275316 -0.516369 
-0.235780 1.030589 0.478816 -0.816928 0.281348 0.371109 
0.116437 0.353821 -0.135041 0.589665 0.108424 -0.782948 
-1.044631 2.484655 -1.300077 0.819548 -0.313025 -0.475701 
-0.454306 0.520919 0.207377 -0.310088 0.429667 -0.717451 
-0.816001 2.269310 -0.720050 -0.881891 0.279825 0.358013 
-0.633132 1.898446 0.377768 0.880710 -0.388938 -0.238189 
-1.035622 0.510463 -0.279653 0.705000 0.136376 -0.677977 
0.273378 0.151920 0.415735 0.316520 -0.276939 0.894872 
-0.875291 1.718530 -0.061459 0.642975 -0.500277 -0.381051 
0.609893 -0.892033 0.009859 0.437151 0.096172 0.884563 
-0.544261 0.006835 0.140192 -0.704791 -0.242957 0.652142 
1.106107 0.339743 -0.212134 -0.567642 0.182918 -0.785906 
-0.682627 2.145017 -0.083389 -0.778170 0.556549 0.206952 
-0.581463 2.281866 -0.178155 0.830654 -0.411964 -0.360738 
0.829656 1.081037 0.209571 0.730289 -0.068465 0.624359 
0.325022 -0.154911 0.337638 0.543010 -0.231209 0.786881 
-0.781185 1.622707 0.352194 -0.964381 0.078056 0.227987 
1.453639 2.443471 0.444308 0.151941 -0.239434 0.952765 
0.995031 1.252953 0.081807 -0.283542 0.294849 -0.905226 
0.085015 1.308629 0.353053 0.628110 0.691321 0.284316 
1.166981 2.126062 0.376161 -0.180862 0.457219 -0.865829 
-0.606853 2.584857 -0.645305 -0.829074 0.383463 0.397026 
0.585372 0.457283 0.399130 0.475818 -0.178513 0.824944 
1.117484 1.338300 0.042164 0.435944 -0.338150 0.789074 
0.655016 0.431744 0.284247 0.655695 -0.272730 0.677687 
-0.168822 -0.055184 0.405708 -0.254894 -0.206217 0.925650 
1.339413 1.266944 -0.083473 0.228777 -0.451040 0.838599 
-1.264049 1.137559 -0.442125 0.779001 -0.174426 -0.560885 
0.743375 -0.855685 -0.049260 -0.339657 -0.178281 -0.922815 
-0.921588 0.570999 -0.128101 0.654671 0.201926 -0.723844 
-0.750019 2.485711 -0.812514 -0.736222 0.488238 0.444530 
-0.001802 0.276577 -0.229713 -0.534920 0.064963 -0.841867 
1.105502 0.401214 -0.162043 0.662458 -0.195542 0.720012 
-0.438192 0.028508 0.268012 -0.621173 -0.272197 0.715958 
-0.801947 2.573734 -0.958942 0.843895 -0.267124 -0.456627 
1.967109 2.055535 0.148254 -0.073807 0.508905 -0.845471 
1.291721 0.320267 -0.398355 -0.579000 0.170641 -0.770077 
0.164540 1.150367 0.563201 0.901969 0.048184 -0.337640 
-0.762408 1.919330 -0.004881 0.691507 -0.470322 -0.483481 
0.354134 -0.800327 0.068163 0.054429 -0.120185 -0.919877 
0.389928 -0.814410 0.150780 0.499325 -0.069029 0.852021 
-1.176598 1.655872 -0.712563 0.804877 -0.362744 -0.454497 
-0.766879 3.117495 -1.191226 0.821734 -0.227067 -0.520803 
-1.091014 1.185777 -0.231101 0.722278 -0.097394 -0.616427 
2.085928 2.287672 0.271899 0.083216 -0.436928 0.888046 
-0.079414 0.627463 0.573449 -0.056461 0.158307 0.978537 
0.139743 -0.098824 -0.106901 0.553594 -0.073979 -0.819102 
-1.404245 1.715514 -1.225890 -0.768389 0.510830 0.371333 
-0.188816 -1.075215 0.181606 -0.198602 0.016738 0.972912 
-0.551571 2.443074 -0.294744 -0.814305 0.484913 0.295432 
0.158313 0.531024 -0.066388 0.567322 0.199380 -0.768721 
-0.010186 0.924360 0.032966 -0.368767 0.506473 -0.774520 
-0.976102 -0.132602 -0.373310 0.544346 0.133011 -0.753724 
0.323698 -0.856563 0.178203 0.372857 -0.106514 0.900647 
0.942299 0.616000 0.027663 0.738321 -0.133971 0.654872 
-0.362553 0.609211 0.173665 -0.678016 0.352655 -0.594113 
-0.842261 -0.241815 -0.210552 -0.669130 -0.098556 0.706325 
1.185266 1.977625 0.339942 0.336061 -0.240855 0.899459 
0.306426 -0.462759 0.276900 0.631870 -0.183243 0.751648 
0.088000 0.162874 -0.163657 0.561924 0.016032 -0.816860 
1.140325 1.494165 0.120855 0.274365 -0.538360 0.704579 
-0.689856 0.988227 0.298695 -0.517509 -0.200763 0.825957 
-0.829028 -0.688188 -0.187037 -0.444401 0.191676 0.840412 
-1.112960 2.033886 -1.066198 -0.796962 0.451796 0.394872 
-0.134442 0.011128 0.423989 -0.183123 -0.215219 0.956661 
0.278910 -0.914535 0.171115 0.212411 -0.128682 0.958063 
-0.114895 0.402139 -0.119616 -0.606119 0.143343 -0.757617 
-0.780109 1.263135 0.267680 -0.942921 0.013239 0.309426 
1.611809 0.784576 -0.342035 0.028199 0.514753 -0.788618 
-0.992267 1.247626 -0.090559 0.688410 -0.059447 -0.657383 
-0.723724 0.331095 -0.098411 0.235042 0.183278 -0.792552 
-0.556177 0.544723 0.145799 -0.008330 0.408720 -0.734581 
1.801010 1.491918 -0.056101 0.347735 -0.089906 0.887464 
0.133234 0.347244 0.531388 0.144913 -0.271554 0.949216 
-1.433145 1.612312 -1.139721 -0.711689 0.592790 0.308268 
-0.995962 1.327084 -0.074779 0.696952 -0.101503 -0.651605 
2.411491 1.886175 0.053374 -0.045458 0.425206 -0.897192 
-0.020436 0.602658 -0.115429 -0.432414 0.299421 -0.839520 
0.451025 0.286932 0.105425 0.225979 0.184663 -0.915754 
-1.133504 1.975173 -1.028807 -0.754246 0.515278 0.356510 
-0.858707 -0.044097 -0.165556 -0.698877 -0.110334 0.685791 
0.342243 -0.412359 0.235056 0.647671 -0.170684 0.741402 
0.436548 0.137647 0.088585 0.254154 0.139243 -0.911684 
-0.528767 2.630656 -0.499771 -0.858931 0.348721 0.340880 
-1.182236 1.872551 -0.981558 -0.664760 0.629269 0.273619 
-0.209545 -0.081477 -0.059488 -0.625483 -0.071613 -0.761187 
-1.380898 0.486157 -0.690587 0.729746 0.254870 -0.625967 
1.693423 1.598455 -0.010245 -0.116386 0.450415 -0.877259 
0.882555 -0.066384 -0.079612 0.605377 -0.121193 0.770925 
0.450201 0.455984 0.185546 0.303501 0.368871 -0.783303 
-1.094287 1.520787 -0.222674 0.724915 -0.346390 -0.515388 
0.933946 1.162972 0.106217 -0.320634 0.274877 -0.900138 
-0.750927 0.221206 0.000585 -0.720533 -0.245176 0.636914 
-0.639378 -0.819171 -0.058978 0.361370 -0.139503 -0.895889 
0.204887 -0.048620 0.393047 0.332861 -0.229744 0.882039 
-1.609479 1.242540 -0.960759 -0.807771 0.380318 0.439290 
-0.637642 0.614798 0.278144 -0.208882 -0.084753 0.908103 
0.240313 1.210673 0.679357 -0.652315 0.493276 0.566046 
0.453588 0.041439 0.279264 0.559523 -0.271873 0.770007 
0.696577 0.532707 0.083614 -0.253329 0.263974 -0.861201 
-0.546145 2.779777 -0.708861 0.806791 -0.344652 -0.479292 
-0.019402 0.429337 -0.173690 -0.524626 0.184237 -0.820430 
-0.531396 2.348079 -0.077412 -0.593917 0.618859 0.447315 
2.118695 2.593596 0.458503 0.050057 -0.492999 0.862134 
1.061739 1.130304 0.020353 -0.323685 0.301093 -0.892007 
0.922506 1.519791 0.175304 -0.204727 0.283875 -0.929470 
0.326643 -0.979272 0.145472 0.254814 -0.078840 0.955968 
0.030829 0.201935 -0.204842 0.530554 0.036072 -0.842550 
-0.877486 2.627084 -1.110433 -0.761359 0.400759 0.482125 
0.302961 -1.231356 0.141680 -0.497348 -0.183691 -0.828053 
-0.762342 1.577941 0.295535 0.638936 -0.091381 -0.743416 
-1.108256 -0.197424 -0.472685 0.569923 0.033118 -0.734108 
1.700989 2.242221 0.286905 0.186185 -0.397693 0.889205 
-0.233518 -0.068595 0.380524 -0.400244 -0.229352 0.849498 
-0.009449 -1.105387 0.177907 -0.492113 -0.274729 -0.787573 
1.261752 0.964570 -0.158235 -0.378611 0.321820 -0.850028 
-0.729131 2.257423 -0.529601 -0.740665 0.578509 0.333103 
-1.196489 1.994692 -1.185726 -0.783530 0.466116 0.400954 
-1.236268 0.724816 -0.444325 0.734508 0.048116 -0.643506 
2.065730 2.541852 0.408611 -0.038490 0.485316 -0.872215 
0.149467 0.714321 -0.024188 0.475033 0.394432 -0.740001 
1.709709 1.162462 -0.151803 -0.129130 0.247102 -0.911203 
1.536081 0.808892 -0.475011 0.378442 -0.479013 0.788705 
1.439374 1.291376 -0.083101 0.117313 -0.508561 0.818899 
-1.477614 1.299892 -0.768748 0.755134 -0.450925 -0.423251 
0.058407 1.350184 0.274024 0.621382 0.672610 -0.260445 
1.489010 1.239465 -0.103385 0.048675 -0.527254 0.808596 
-0.872569 0.325737 -0.093642 -0.733019 -0.235675 0.628937 
-0.250011 -1.037503 0.157539 -0.191352 -0.039515 0.975584 
-0.624289 3.029946 -0.935327 0.880443 -0.155038 -0.423638 
-0.290398 0.844622 0.450910 -0.802004 0.242919 0.479763 
1.457453 2.198691 0.305115 -0.232340 0.467500 -0.849236 
0.291977 0.784533 0.473438 0.653238 0.300355 0.612433 
0.571911 -0.699436 0.035712 0.530576 -0.022296 0.838104 
0.552876 0.477560 0.458656 0.380965 -0.121142 0.903529 
-0.538278 0.092885 0.195609 -0.690609 -0.288954 0.648379 
-1.582870 0.931323 -0.740075 0.758545 -0.016297 -0.620161 
-0.759636 1.178721 0.313043 -0.718129 -0.136665 0.664748 
-0.267142 0.781610 0.497981 -0.550028 0.269915 0.743061 
-0.941620 1.686897 -0.038812 -0.928970 0.156635 0.306693 
-0.772643 2.331245 -0.706320 -0.693835 0.583137 0.410701 
0.864002 0.791602 0.064066 -0.468692 0.216918 -0.848392 
-1.589615 1.416637 -1.183107 -0.778584 0.488224 0.383304 
0.283412 0.394747 -0.032779 0.707378 0.072241 -0.699870 
0.200853 1.155686 0.362511 0.856993 0.495148 -0.067042 
1.772342 1.122105 -0.174996 -0.116895 0.264334 -0.910563 
1.253039 1.838113 0.242858 0.384514 -0.362422 0.825020 
-0.650296 -0.650363 -0.086434 -0.611815 -0.020940 0.769172 
-0.977983 2.542434 -1.223629 -0.777018 0.386991 0.476872 
0.727086 0.091985 0.043441 0.651566 -0.209897 0.723242 
-0.096961 -0.086097 0.412413 -0.153413 -0.177186 0.967762 
-0.483403 0.583522 0.277262 -0.076940 0.549197 -0.534254 
1.862863 2.356672 0.312168 -0.092340 0.455374 -0.885117 
-0.832912 2.431077 -0.899331 -0.689224 0.541270 0.460804 
-0.135270 0.558748 -0.066475 -0.543159 0.205427 -0.776288 
-0.501636 0.348050 0.078100 -0.056735 0.214899 -0.867179 
1.911291 2.424817 0.345132 -0.073833 0.463095 -0.882573 
-0.601137 2.038846 0.233765 0.901396 -0.323327 -0.170952 
0.660164 0.282350 0.214272 0.620708 -0.316566 0.711070 
2.017486 1.998637 0.124081 -0.126988 0.194475 -0.956953 
0.920259 -0.429272 -0.201690 0.527805 -0.020195 0.821963 
1.047955 0.088107 -0.224175 -0.503828 0.127839 -0.814778 
-0.358770 0.731110 0.259441 -0.901790 0.360476 -0.216558 
-0.690663 0.922652 0.196999 0.882283 0.143127 -0.405258 
0.654956 0.796958 0.272520 -0.807335 0.126466 -0.533771 
-0.846043 1.811214 -0.074481 0.768022 -0.321052 -0.483870 
1.841075 0.941655 -0.239409 -0.098034 -0.485799 0.823680 
-0.174208 1.059847 0.510992 -0.673982 0.653901 -0.121264 
-0.377519 -0.001335 0.086455 -0.274604 0.106489 -0.911793 
-0.738855 0.339777 0.081740 -0.700108 -0.310497 0.631831 
0.341350 0.307347 0.051581 0.510122 0.120846 -0.817965 
1.983302 2.442999 0.358575 0.098584 -0.573722 0.803235 
1.397694 1.878404 0.198517 -0.293375 0.316490 -0.893303 
-1.134590 1.226935 -0.278486 0.739819 -0.140599 -0.594707 
0.511383 0.610197 0.314236 -0.152174 0.576170 -0.548860 
2.063125 2.219087 0.235418 -0.051326 0.540067 -0.833966 
0.384418 0.432500 0.208622 0.465161 0.384609 -0.761967 
1.113257 1.626955 0.151168 -0.190488 0.450668 -0.855026 
-0.151136 1.067437 0.609929 0.053258 -0.058355 0.921785 
0.944575 -0.554592 -0.184500 -0.398215 -0.111172 -0.883407 
1.591986 0.641422 -0.591575 0.554514 -0.341528 0.728710 
0.372968 0.565319 0.504311 0.492824 -0.069883 0.841329 
-0.532436 0.578894 0.206067 0.029003 0.469786 -0.481396 
-0.438039 0.212986 0.356394 -0.544181 -0.327801 0.760509 
-1.455749 0.728231 -0.632007 0.734598 0.096470 -0.662997 
-0.973007 2.005469 -0.745900 -0.789187 0.500589 0.348659 
-0.827906 1.769235 0.034796 0.781124 -0.184415 -0.548157 
-0.508270 -0.181962 0.080160 -0.724586 -0.166949 0.661695 
1.017282 0.484983 -0.059438 0.681495 -0.206882 0.696352 
-1.328221 1.326572 -0.489829 0.800163 -0.275901 -0.522887 
1.717595 1.472831 -0.045858 0.392504 -0.033582 0.882260 
0.300567 -0.604993 0.029889 0.307202 -0.150086 -0.861532 
0.127488 0.014412 -0.124755 0.563882 -0.036385 -0.812798 
0.120105 1.249952 0.434642 0.344244 0.820889 0.362233 
-0.706478 -0.252893 -0.089359 0.433001 0.049483 -0.824521 
-0.503220 0.274438 0.331022 -0.624168 -0.377557 0.675775 
1.669250 1.098897 -0.157306 -0.153706 -0.589648 0.773816 
-1.029428 0.057993 -0.365252 -0.709973 -0.171126 0.654221 
0.206756 -0.732394 0.081188 0.039065 -0.188308 -0.962021 
1.279284 0.246749 -0.406310 -0.560747 0.154357 -0.778080 
0.040902 -0.253364 0.388368 0.096357 -0.109740 0.985343 
-1.074827 1.259941 -0.148725 -0.871960 0.158246 0.423330 
-0.672369 2.320849 -0.390583 -0.788566 0.499476 0.305581 
-0.569543 2.221437 -0.008141 0.844821 -0.381368 -0.359377 
0.228384 0.998459 0.528994 0.746466 -0.096667 0.647609 
-1.132298 1.403041 -0.233217 0.751129 -0.219074 -0.586500 
-0.856965 2.785141 -1.186923 -0.807353 0.311276 0.494512 
0.922953 0.933847 0.060161 -0.413841 0.242762 -0.866630 
-1.246176 0.964575 -0.417529 -0.794493 0.080168 0.550930 
0.339518 -0.079032 0.101946 0.374069 0.066182 -0.915920 
-0.779843 0.413892 0.058397 -0.741304 -0.275788 0.595771 
0.959131 0.526823 -0.065222 -0.496422 0.228941 -0.812526 
1.680206 1.281751 -0.110351 -0.231248 0.173065 -0.942493 
0.142989 1.118741 0.472605 0.849638 0.133990 0.086409 
1.260225 0.390871 -0.348378 -0.592806 0.188111 -0.766519 
0.382176 1.974158 0.626419 0.146156 -0.244783 0.913360 
-0.725648 -0.524327 -0.146890 -0.629073 -0.050324 0.747699 
1.422476 1.132018 -0.142997 0.138090 -0.443961 0.841140 
0.692377 0.247049 0.162372 0.629330 -0.288967 0.713830 
-1.432803 1.061115 -0.591407 0.770539 -0.093396 -0.592189 
-0.839064 1.498170 0.174599 0.658228 -0.096017 -0.713129 
-0.227603 -0.604259 0.273546 -0.417541 -0.252800 0.850419 
-0.780552 -0.516320 -0.221248 0.427646 0.029934 -0.834012 
-0.770453 1.951836 -0.096270 0.705454 -0.492483 -0.442936 
1.494496 1.533555 0.016143 -0.079956 0.556581 -0.816936 
-0.954643 2.618244 -1.238447 0.820642 -0.293956 -0.485997 
0.490661 -0.792543 0.067802 -0.222459 -0.052636 -0.949040 
0.812216 1.824429 0.401451 0.615691 -0.380032 0.646667 
1.601902 1.391698 -0.036380 0.394538 -0.075988 0.898884 
0.567168 1.432331 0.438861 -0.005931 -0.203872 0.821917 
-0.484414 0.009806 0.216844 -0.690554 -0.274792 0.653588 
-1.421823 1.244740 -0.598476 0.795488 -0.265893 -0.523866 
0.692385 1.673993 0.336792 -0.152150 0.254985 -0.951549 
-1.168123 1.559536 -0.459393 -0.866800 0.227391 0.435486 
-0.487151 -1.413351 0.117078 -0.602398 -0.668387 0.381445 
1.026004 -0.039297 -0.217575 0.609726 -0.120889 0.765890 
0.346742 0.642122 0.528339 0.617289 0.008054 0.782499 
2.120335 1.664648 -0.056729 0.126311 -0.407986 0.900788 
1.243554 0.456465 -0.314218 -0.606712 0.203810 -0.762017 
0.591523 -0.259002 0.004609 -0.068913 0.037892 -0.885837 
-0.605377 2.156328 -0.001609 0.826876 -0.378808 -0.399254 
1.622999 1.473071 -0.043263 -0.055372 0.500647 -0.859040 
-0.537510 0.020845 -0.012791 -0.021681 0.101497 -0.857167 
1.110986 0.020914 -0.303955 -0.493523 0.109820 -0.815024 
-1.571302 1.212441 -0.823923 -0.818810 0.335666 0.462167 
0.738975 0.807294 0.145410 -0.460187 0.265460 -0.830527 
2.104980 1.538612 -0.099067 0.167816 -0.328750 0.911029 
0.615929 1.016347 0.330804 -0.859573 -0.009534 -0.493152 
-1.091733 0.945307 -0.273992 0.724510 -0.028878 -0.629206 
2.120369 1.959695 0.100425 -0.105913 0.257734 -0.940830 
-1.378861 0.797956 -0.548221 -0.774179 -0.042628 0.602542 
-0.764513 -0.292627 -0.149072 0.486564 0.057598 -0.814703 
0.763296 -0.334376 -0.062114 -0.380656 0.043248 -0.881024 
-1.349773 1.368327 -0.546086 -0.826358 0.292141 0.479049 
-0.134272 0.220960 -0.135196 -0.627025 0.027915 -0.762443 
1.465941 1.851825 0.160055 -0.273330 0.342533 -0.891848 
1.338301 1.046510 -0.191871 0.357611 -0.378287 0.839800 
0.764878 0.392898 0.160166 0.635225 -0.301847 0.702981 
-0.065977 -0.413521 0.371490 -0.065554 -0.171098 0.980985 
2.215766 1.922957 0.078149 -0.086385 0.316588 -0.925846 
2.222594 2.380753 0.318181 0.056087 -0.539732 0.832028 
-0.454630 0.427352 0.445750 -0.377297 -0.232759 0.881568 
-0.920409 1.916944 -0.521491 0.837675 -0.398809 -0.339064 
0.741089 1.957701 0.499851 0.464481 -0.262186 0.828688 
-0.646804 -0.219055 -0.066042 0.287917 0.050670 -0.837440 
-0.771201 1.846105 0.109622 0.689328 -0.400554 -0.544056 
0.249887 -0.507675 0.300972 0.468617 -0.180531 0.853795 
-0.194648 0.639525 -0.039826 -0.577712 0.252974 -0.744818 
2.000068 1.655039 -0.043246 -0.129913 0.395062 -0.906882 
-1.249642 1.346604 -0.401177 0.786627 -0.259093 -0.536778 
-1.517573 1.334295 -0.903018 -0.819862 0.339660 0.444295 
1.579613 0.852094 -0.271483 -0.054193 -0.500054 0.796471 
-0.610502 0.093706 0.105558 -0.707135 -0.252735 0.646434 
-0.262250 -1.236284 0.163394 0.404560 -0.223073 -0.859828 
0.112316 -0.886453 0.234470 0.174039 -0.118978 0.968693 
-0.649495 1.826410 0.468573 0.796537 -0.563772 -0.002258 
0.728768 1.736965 0.350143 -0.140956 0.361930 -0.889456 
0.601003 -0.742949 -0.015514 -0.271226 -0.043321 -0.934352 
-0.657059 0.780235 0.272596 0.854366 0.185982 -0.441447 
-0.856461 1.948158 -0.342107 -0.808441 0.526988 0.239945 
0.040929 0.491431 -0.142400 0.516556 0.235983 -0.812501 
-0.292874 -0.732964 0.210263 -0.452389 -0.150682 0.846516 
-1.175368 1.592582 -0.587518 0.651080 -0.666555 -0.283456 
-0.646398 2.507984 -0.629492 -0.811053 0.419824 0.390649 
0.279211 -0.764943 0.083372 -0.123869 -0.215861 -0.959275 
-1.182619 0.542655 -0.385270 -0.764968 -0.137786 0.617446 
1.380773 0.197450 -0.504055 0.631787 -0.139071 0.738654 
1.526520 1.351100 -0.070360 -0.281586 0.167686 -0.940185 
-0.711179 2.908175 -1.021610 0.812586 -0.288285 -0.503310 
-0.649608 1.835706 0.544290 0.182522 -0.887144 0.274319 
-1.332025 1.032412 -0.506939 0.767571 -0.100550 -0.588839 
-0.925292 0.922868 -0.069469 0.656425 0.097456 -0.704822 
-0.684581 2.233356 -0.392156 0.876184 -0.360983 -0.309820 
0.544053 -0.256580 0.058716 0.651848 -0.140465 0.742420 
0.212840 0.113786 0.422036 0.252562 -0.261488 0.922659 
0.895995 1.214526 0.137999 -0.304610 0.269793 -0.905844 
-0.646412 2.545995 -0.694629 0.814717 -0.380441 -0.434115 
-0.339010 0.272001 0.433022 -0.374003 -0.271096 0.873515 
-0.699201 0.197911 0.052432 -0.712076 -0.259778 0.639342 
0.229654 0.676761 -0.020811 0.596476 0.297176 -0.713742 
2.369087 1.940911 0.084104 -0.053281 0.386971 -0.905932 
-1.037250 1.628116 -0.215966 -0.902337 0.191460 0.361767 
-0.766232 0.600977 0.031050 0.551561 0.345460 -0.757404 
1.705933 2.004162 0.163997 -0.199292 0.164218 -0.958657 
0.775352 0.692277 0.096991 -0.442170 0.307573 -0.840483 
1.436888 0.369789 -0.526313 -0.603022 0.175844 -0.751689 
-0.611571 2.655362 -0.723593 0.807058 -0.369612 -0.459162 
0.812726 0.022953 -0.047818 0.647897 -0.157860 0.738872 
-0.469329 0.394143 0.122600 -0.123893 0.284114 -0.838545 
-1.116913 2.189974 -1.207381 0.767516 -0.443994 -0.446122 
-0.221355 -0.570194 0.064020 0.083188 -0.302439 -0.940108 
-0.245777 0.956643 0.503200 -0.776744 -0.004650 0.593117 
1.760481 1.420283 -0.071746 0.383825 -0.034374 0.885532 
-0.476427 -0.979895 0.058608 -0.584382 0.095669 0.793853 
0.177673 -0.180425 0.383340 0.277703 -0.168858 0.921001 
1.841656 1.057599 -0.202425 -0.038699 -0.485670 0.832175 
-0.563854 2.357660 -0.169068 -0.807364 0.512764 0.253317 
-0.158904 0.984736 0.579730 -0.296837 -0.128525 0.915224 
1.187814 1.040593 -0.063999 0.454880 -0.283774 0.794906 
1.839185 1.430171 -0.083411 0.335595 -0.099508 0.892082 
0.408188 -0.076549 0.077319 0.282256 0.072510 -0.907594 
0.383938 0.426701 0.472751 0.280229 -0.205982 0.936074 
1.943475 2.365427 0.316464 0.106502 -0.498879 0.854309 
1.320149 1.836384 0.217073 0.348797 -0.358261 0.853468 
0.089536 0.604377 0.578895 0.055622 0.202327 0.973946 
-0.884462 1.680674 0.195139 -0.942976 0.137729 0.258901 
-0.906199 2.314722 -0.947513 0.649817 -0.597948 -0.439383 
-0.668055 -0.885933 -0.054389 -0.459659 0.224590 0.845912 
-1.417344 1.320434 -0.661473 0.773052 -0.395230 -0.456571 
-0.870649 1.853003 -0.160594 -0.800289 0.538733 0.133559 
-0.504753 -0.054735 0.155416 -0.704845 -0.232254 0.655991 
1.130143 0.458913 -0.203018 -0.597563 0.209150 -0.772565 
-0.633109 0.982404 0.355241 -0.680440 -0.144630 0.711783 
-0.689921 2.663464 -0.848877 0.807892 -0.356471 -0.466250 
-0.560726 0.613655 0.288508 0.323278 0.607934 -0.428367 
-1.389525 1.386095 -0.714352 0.729140 -0.502395 -0.391595 
-0.099008 -0.492646 -0.011191 -0.261614 -0.437580 -0.856098 
-0.528899 0.668199 0.404169 -0.120420 -0.224654 0.858955 
1.102841 2.149820 0.447508 0.393071 -0.321082 0.833115 
-0.959487 0.999814 -0.041167 -0.872651 0.025560 0.440698 
0.618202 0.006702 0.108707 0.645055 -0.216939 0.725170 
-0.673675 0.208451 -0.079524 0.171239 0.149209 -0.810061 
-0.610125 -0.520045 -0.020539 -0.642314 -0.036329 0.747980 
0.000746 -0.389651 -0.114773 0.332674 -0.353630 -0.871383 
2.023149 2.603770 0.458073 -0.009917 -0.199081 0.952492 
1.836387 1.560512 -0.038599 0.293708 -0.183234 0.893296 
2.390876 2.235901 0.236050 -0.013438 0.503719 -0.861535 
0.640637 0.382715 0.045062 -0.049466 0.202642 -0.877548 
1.143255 1.430009 0.079638 0.330869 -0.462063 0.745602 
-1.333325 1.483275 -0.756273 0.674096 -0.633374 -0.312055 
-0.736493 1.318737 0.262082 0.606293 0.053848 -0.768451 
0.708582 1.242271 0.259870 -0.307952 0.229226 -0.915305 
-0.401724 0.391964 0.171377 -0.338961 0.312906 -0.814784 
2.127328 1.728141 -0.023697 0.112107 -0.439759 0.884534 
-1.315707 1.806690 -1.169146 -0.751263 0.524485 0.358499 
-1.620914 1.307149 -1.083672 -0.790595 0.442886 0.410543 
0.960077 0.325397 -0.068799 0.659867 -0.216296 0.716313 
2.199489 2.097560 0.168869 -0.036710 0.546878 -0.830784 
-0.087480 -1.166468 0.221533 -0.373773 -0.041656 0.868949 
1.187426 0.501215 -0.244719 -0.571208 0.248075 -0.771953 
-0.647899 0.383197 -0.008333 0.177841 0.215725 -0.817103 
-0.306540 0.487299 0.506899 -0.263813 -0.208322 0.939229 
-0.677553 1.573317 0.359286 0.820968 0.162945 -0.494913 
0.480833 0.576809 0.258581 0.126476 0.504374 -0.583806 
-1.078120 0.166145 -0.395189 -0.725202 -0.190956 0.637859 
1.000999 0.705137 -0.011492 0.708145 -0.137867 0.669486 
-0.037318 -0.880474 0.128140 -0.249333 -0.297781 -0.912961 
1.489063 0.971277 -0.228970 0.085666 -0.458500 0.822846 
-0.940088 2.183815 -0.882201 -0.851406 0.325889 0.384390 
1.200360 1.410190 0.023676 -0.301232 0.264375 -0.906556 
1.407849 0.504222 -0.461300 -0.631961 0.207803 -0.741975 
-0.762542 1.506570 0.377435 -0.771879 -0.069029 0.602605 
1.864618 1.366767 -0.117382 -0.073478 0.437601 -0.887974 
-0.182337 -0.520478 0.030562 -0.122933 -0.359452 -0.889001 
-0.498922 0.556664 0.472446 -0.110546 -0.222966 0.915454 
-0.211576 0.474440 -0.055053 -0.668770 0.113165 -0.718006 
-0.609063 0.279774 -0.031007 0.058469 0.175947 -0.831830 
0.742837 0.694870 0.167329 -0.862737 0.280012 -0.388614 
0.233265 1.093557 0.377089 0.890140 0.427205 -0.000125 
-0.928003 1.094660 -0.042866 0.656153 0.046185 -0.694251 
1.426173 0.862690 -0.343292 0.398871 -0.416207 0.800009 
-1.578369 1.143382 -0.783577 -0.807933 0.285609 0.488460 
-0.402428 -1.035993 0.117073 -0.485572 0.051928 0.842808 
2.529717 2.549268 0.426300 0.013817 0.528150 -0.848348 
-0.274840 0.781518 0.072350 -0.628201 0.547274 -0.540630 
0.811432 -0.051169 -0.071003 -0.348996 0.096298 -0.848710 
0.310807 -0.390467 0.299288 0.652892 -0.184588 0.732451 
-1.402310 0.370067 -0.774101 0.712842 0.296859 -0.612784 
0.866493 0.713256 0.049526 -0.475477 0.230894 -0.843483 
-1.009190 1.691989 -0.450879 0.842403 -0.377559 -0.377236 
1.822062 1.823262 0.056805 -0.177634 0.311044 -0.922524 
0.157221 -0.623855 0.056613 0.147256 -0.230262 -0.957297 
1.865413 1.926555 0.097853 -0.163033 0.204427 -0.953352 
-0.054590 -0.950570 0.141958 -0.181211 -0.293871 -0.921459 
-0.892671 0.779530 0.009561 -0.860821 -0.084508 0.468339 
1.499480 0.394444 -0.580583 -0.614151 0.178842 -0.743455 
1.438792 1.064195 -0.167023 0.108787 -0.438847 0.839580 
-0.684249 1.411090 0.354778 0.952137 -0.030565 -0.022533 
-1.069641 1.555928 -0.114090 -0.890899 0.205669 0.361618 
0.823375 1.444204 0.219077 -0.226309 0.268997 -0.927576 
-0.508605 0.191511 0.023497 -0.090502 0.156189 -0.866400 
0.063214 1.233494 0.480365 0.031349 0.798704 0.573690 
0.377913 0.206773 0.398669 0.407822 -0.285952 0.860341 
-1.196835 0.236654 -0.534217 -0.732844 -0.233214 0.615951 
-0.273959 -0.440858 0.027475 -0.450227 -0.117319 -0.845126 
0.249257 -0.350496 -0.011008 0.577111 -0.165471 -0.794709 
0.233010 -0.817753 0.214347 0.208057 -0.191679 0.951826 
2.316465 2.031834 0.132032 -0.031356 0.517119 -0.850505 
0.282863 0.928200 0.441218 0.887441 0.201003 0.374503 
0.973713 0.262036 -0.137200 -0.452823 0.162646 -0.804471 
1.931738 1.817716 0.045439 0.137997 -0.468401 0.861303 
0.636212 0.613803 0.315268 0.140420 -0.059281 0.930665 
-1.329264 0.588897 -0.521741 -0.761063 -0.148834 0.628730 
-1.096637 1.924522 -0.881714 -0.713632 0.579447 0.302121 
-0.812973 1.903567 -0.137994 0.763035 -0.456788 -0.387697 
0.261233 0.639980 0.546763 0.370059 0.292624 0.844250 
0.747109 0.995894 0.191869 -0.397749 0.216579 -0.888588 
0.525097 -1.016182 0.058048 0.541265 0.165755 0.789434 
-0.242606 -0.156170 0.362670 -0.461722 -0.214349 0.817730 
-1.341372 1.448040 -0.681222 -0.841169 0.258205 0.468788 
-0.328070 -0.348336 0.279125 -0.678040 -0.182611 0.708868 
0.291895 0.945372 0.365891 0.925248 0.332632 0.039850 
-0.064979 0.247708 -0.184816 -0.578737 0.046105 -0.804270 
0.333341 0.036082 0.369764 0.442083 -0.269743 0.838219 
0.702206 0.616539 0.112100 -0.262383 0.366298 -0.800900 
0.152085 -0.882530 0.114148 -0.115106 -0.290045 -0.941827 
-0.363516 0.449282 0.192894 -0.517603 0.344359 -0.744497 
-0.334887 0.554559 0.512734 -0.405656 -0.122776 0.881847 
0.289933 -0.199719 0.035251 0.488347 -0.065118 -0.844196 
1.259412 0.855187 -0.193320 -0.417883 0.315967 -0.830228 
-0.181413 0.571795 0.562180 -0.209031 -0.184104 0.959116 
-0.155698 1.235143 0.511561 0.169658 0.911526 0.300682 
0.105711 0.288037 -0.160996 0.592472 0.055738 -0.793609 
-0.977647 2.232756 -0.998557 -0.853084 0.305339 0.403214 
0.793869 -0.794368 -0.078241 0.354730 0.171386 0.916112 
0.894539 -0.501015 -0.178121 -0.379792 -0.048763 -0.883601 
0.619634 0.072610 0.142731 0.637974 -0.244156 0.721581 
-0.533469 -0.938589 0.027096 0.317176 -0.154750 -0.928862 
-1.469319 1.511541 -1.069175 -0.799603 0.415948 0.399176 
1.518951 0.503977 -0.562289 0.682882 -0.201835 0.699310 
0.576185 1.229304 0.408797 0.271691 -0.160622 0.821483 
-0.779132 1.134389 0.238254 -0.935379 -0.010262 0.338358 
0.309549 -0.874538 0.093078 -0.132594 -0.164347 -0.970393 
-0.471110 -0.294773 0.016994 -0.034249 0.024866 -0.889334 
1.238372 1.586886 0.085597 -0.215556 0.445608 -0.859421 
0.367024 0.161085 0.110480 0.352466 0.133559 -0.915303 
0.033113 1.254287 0.217458 0.504663 0.206472 -0.831269 
0.929781 0.498399 0.023277 0.690796 -0.205774 0.683745 
1.038659 -0.130088 -0.259864 0.599676 -0.104810 0.774445 
-0.858836 0.649015 -0.039392 0.622426 0.226238 -0.744189 
0.968731 0.880245 0.057306 0.679644 -0.132030 0.671730 
-0.806387 2.326209 -0.817830 0.764537 -0.465087 -0.443346 
0.148091 -0.714048 0.264256 0.189191 -0.235902 0.949553 
1.369333 0.905214 -0.282665 -0.365514 0.388882 -0.828516 
1.653709 0.775706 -0.266780 -0.229820 -0.535530 0.777792 
0.901312 0.284364 -0.030886 0.655800 -0.222202 0.717080 
-0.071939 -0.405700 -0.081214 -0.404052 -0.307938 -0.848076 
0.433819 0.378131 0.157551 0.287455 0.289449 -0.844655 
-1.645678 1.042573 -0.856618 0.783225 -0.233265 -0.529746 
1.530338 1.023621 -0.184271 -0.028955 0.398403 -0.850230 
-0.196583 0.180311 -0.089251 -0.667170 0.006716 -0.727513 
0.209590 -0.094515 -0.061063 0.600361 -0.081940 -0.781856 
0.783814 0.236738 0.063452 0.643861 -0.248518 0.716718 
-1.431191 0.469347 -0.764594 -0.758592 -0.296650 0.574255 
0.645215 1.725729 0.378703 -0.145059 0.239660 -0.957271 
-1.234056 0.267248 -0.588894 0.673954 0.238509 -0.658821 
-0.762099 2.277812 -0.656857 0.803907 -0.445119 -0.379426 
-0.943119 1.849938 -0.389155 -0.745281 0.617442 0.231812 
1.218504 1.641399 0.151177 -0.095044 0.574696 -0.786944 
-1.128769 2.097404 -1.160147 0.761062 -0.468923 -0.434721 
0.295557 0.468768 -0.011423 0.705152 0.110505 -0.695126 
-0.109874 0.873204 0.047907 -0.515381 0.433490 -0.720482 
-0.587636 -0.859740 -0.023073 -0.532973 0.090806 0.824847 
-0.475536 -0.721014 0.057052 -0.626079 -0.012948 0.767818 
-0.971412 -0.385683 -0.349862 -0.556975 0.012693 0.753256 
0.653342 0.995020 0.273445 -0.879877 -0.012963 -0.453472 
1.237253 2.032009 0.317141 -0.189224 0.539628 -0.815817 
-0.325030 0.846800 0.292346 -0.912235 0.349890 -0.155024 
1.550392 1.816956 0.126000 0.264437 -0.367463 0.890570 
-0.318384 -0.279547 0.316982 -0.637547 -0.204612 0.732082 
1.050061 0.256426 -0.148448 0.643954 -0.171506 0.736256 
-0.665910 0.910582 0.275796 0.919692 0.072458 -0.340875 
0.544182 0.581793 0.196417 0.078227 0.441419 -0.662763 
1.093465 0.763444 -0.096363 -0.475645 0.251233 -0.826156 
-0.596262 2.103703 0.203697 -0.422561 0.700882 0.504543 
-1.080245 -0.080560 -0.491220 0.565065 0.168359 -0.726393 
-0.307312 -0.191033 0.335644 -0.572735 -0.219433 0.765417 
0.422167 0.215590 0.104168 0.275125 0.164700 -0.918770 
2.484147 2.379043 0.317815 0.001761 0.500932 -0.864972 
0.227830 1.082892 0.621340 0.561283 0.576788 -0.582265 
-0.947767 1.702183 -0.109232 -0.928139 0.157994 0.317090 
2.115945 2.350770 0.302421 -0.052262 0.470543 -0.879464 
-0.674724 1.316386 0.357206 0.953838 -0.016159 -0.079491 
-1.285701 0.675002 -0.489780 0.729071 0.087060 -0.658335 
2.053932 1.742859 -0.012840 -0.125515 0.311460 -0.932120 
-0.622656 2.047327 0.165674 0.825176 -0.345526 -0.433751 
0.382516 -0.488537 0.078554 0.176689 -0.022272 -0.924496 
-0.382910 0.636149 0.241558 -0.844958 0.278824 -0.359192 
-0.995579 0.424878 -0.200562 -0.772370 -0.192134 0.602149 
-1.458428 1.642483 -1.237401 0.765625 -0.505055 -0.393231 
-0.078633 1.092837 0.150245 -0.396787 0.428381 -0.797704 
0.077323 -1.119164 0.194019 0.029966 -0.353025 -0.923452 
-0.152973 -0.136535 0.399546 -0.213532 -0.168531 0.953711 
-0.025444 1.053581 0.123603 -0.295060 0.443174 -0.838439 
-0.240319 0.875586 0.502453 -0.707796 0.072430 0.668947 
0.050419 -0.168244 -0.133035 0.445917 -0.178168 -0.849425 
1.257971 0.018149 -0.420873 0.594944 -0.097348 0.765365 
-1.081305 2.033415 -1.000832 -0.797739 0.456681 0.386548 
0.740895 1.842690 0.435924 0.655901 -0.390833 0.610852 
0.853466 1.512075 0.210693 -0.199476 0.280441 -0.932025 
-0.426249 -0.772234 0.075785 0.157801 -0.058271 -0.938796 
-1.052837 1.432225 -0.076492 -0.887646 0.178185 0.375667 
-0.121241 0.798063 0.020114 -0.490344 0.434910 -0.735040 
1.195368 -0.005425 -0.393387 -0.494599 0.100241 -0.809450 
-0.545837 0.574621 0.408275 -0.144450 -0.179178 0.913315 
-0.989576 0.784178 -0.122653 -0.832547 -0.049482 0.505639 
-0.772722 2.741636 -1.027832 -0.823767 0.313800 0.465111 
0.309325 0.095437 0.020164 0.557051 0.019220 -0.794929 
-0.808558 -0.435789 -0.245557 0.447600 0.061609 -0.819730 
-1.444431 1.426268 -0.899333 0.714097 -0.566087 -0.354145 
-0.582792 0.494028 0.096645 0.132405 0.341014 -0.790850 
-0.613808 2.405124 -0.359460 -0.808452 0.468686 0.309192 
-0.804748 1.776894 0.270790 -0.846919 0.413758 0.188450 
-0.691478 0.083701 -0.001489 -0.727289 -0.206674 0.644750 
-1.546590 1.377187 -1.030637 -0.801231 0.406856 0.416131 
-0.276466 -0.864289 0.183878 -0.256420 -0.152732 0.937454 
1.390075 1.337621 -0.059786 -0.303318 0.238234 -0.914149 
-0.481609 0.186900 0.307272 -0.625418 -0.340517 0.687862 
0.550894 -0.323525 0.020278 -0.033979 0.023302 -0.895450 
-0.742635 1.079730 0.298299 -0.567064 -0.189155 0.760279 
1.611051 1.137207 -0.145394 -0.078778 0.283157 -0.887040 
-1.050262 0.356611 -0.329660 0.689750 0.188127 -0.688859 
-0.762866 2.581406 -0.900420 -0.768166 0.424940 0.454583 
0.127622 1.252687 0.322150 0.714585 0.622831 0.002173 
1.100573 1.623774 0.235981 0.413419 -0.315797 0.795107 
-0.927718 2.592982 -1.176848 0.829529 -0.280703 -0.477136 
-1.011922 1.593802 -0.158948 0.681580 -0.416547 -0.474541 
-0.451081 0.600558 0.370343 -0.059665 0.670280 -0.560680 
0.170361 -0.032161 -0.092383 0.584603 -0.056900 -0.795479 
-1.581265 1.369574 -1.093532 -0.791102 0.442624 0.404252 
-1.181149 0.160461 -0.538711 -0.721626 -0.225522 0.625072 
-0.488820 -0.186585 0.000374 -0.061984 0.044268 -0.876155 
1.887282 1.618884 -0.036651 -0.117032 0.420543 -0.894428 
1.280043 1.208405 -0.103894 -0.279316 0.356383 -0.890644 
2.017974 2.317916 0.288372 -0.071161 0.467981 -0.878919 
1.220387 1.724803 0.191957 -0.177174 0.470205 -0.833009 
1.055495 1.200781 0.035805 -0.298178 0.304991 -0.898607 
-0.929481 1.632774 0.008938 0.673686 -0.323178 -0.568479 
0.043735 1.003944 0.613713 0.160496 -0.030135 0.981447 
2.416346 2.442296 0.357452 0.021518 -0.529128 0.844223 
-0.146493 1.140959 0.460483 -0.888094 -0.084873 0.200807 
1.980798 1.028114 -0.239912 -0.114922 0.295176 -0.920893 
1.225856 0.180329 -0.357531 0.639313 -0.153597 0.738958 
-0.896960 1.983280 -0.568132 0.811944 -0.486159 -0.319454 
0.701841 1.146164 0.341085 0.608155 -0.096789 0.774033 
0.704303 1.589455 0.368308 0.722520 -0.245991 0.609340 
0.150996 1.194420 0.256714 0.708152 0.519743 -0.406262 
0.334517 -0.663706 0.068197 0.177080 -0.098547 -0.910290 
0.201107 0.590574 -0.041364 0.587868 0.228512 -0.743553 
0.599355 0.563668 0.148227 -0.021510 0.382289 -0.781986 
-0.994876 0.932202 -0.102360 -0.852324 0.010919 0.471356 
-0.977384 2.148029 -0.932991 0.703499 -0.556018 -0.416521 
-0.532150 2.461734 -0.360883 0.843437 -0.432782 -0.316293 
0.580072 1.787221 0.508150 0.065091 -0.266415 0.895080 
1.807904 0.881096 -0.254556 0.099611 0.417486 -0.842804 
-0.365392 -0.596405 0.163573 -0.639813 -0.112927 0.750467 
0.826707 0.922760 0.120477 -0.423912 0.221517 -0.870809 
0.836062 0.672121 0.171498 0.786596 -0.099804 0.603238 
0.493050 0.361816 0.114016 0.112092 0.225032 -0.898899 
-0.353052 0.214522 0.124674 -0.342311 0.174769 -0.919349 
1.103333 1.888711 0.307164 -0.150716 0.247909 -0.933573 
2.309743 2.234679 0.239250 0.045594 -0.415868 0.896727 
-0.248007 -0.134512 -0.028899 -0.644744 -0.092853 -0.744142 
-0.803292 1.086001 0.192604 -0.926655 -0.006978 0.358651 
-0.672075 1.492788 0.407749 0.945886 -0.030013 0.012775 
-1.536056 0.754426 -0.693749 -0.762151 -0.103228 0.635707 
-0.016155 -0.622073 0.327633 -0.407786 -0.205253 0.882635 
-0.370238 0.740061 0.363622 -0.906344 0.368266 0.086265 
1.259983 1.336771 -0.035774 -0.303004 0.293097 -0.899089 
-0.785210 0.333418 -0.137204 0.333065 0.179450 -0.771581 
0.739974 1.737433 0.420969 0.634441 -0.175609 0.698296 
1.618065 2.001698 0.192697 0.222426 -0.470047 0.844141 
-0.679585 1.185176 0.274630 0.899993 0.037403 -0.291590 
1.702674 2.403908 0.362180 -0.139042 0.459985 -0.873767 
0.358398 -0.730377 0.184705 0.534239 -0.106586 0.827777 
1.325808 0.844963 -0.261097 -0.400497 0.358404 -0.821788 
0.900191 0.883456 0.108937 0.733415 -0.088992 0.638670 
-0.717983 1.882274 0.372136 -0.815214 0.547283 0.154031 
-0.667223 2.213742 -0.136824 -0.790879 0.519928 0.230439 
0.996958 0.347902 -0.147944 -0.446077 0.179467 -0.795026 
-0.833685 1.917810 -0.233942 0.794065 -0.466040 -0.332905 
-0.841761 0.566641 -0.040262 0.602868 0.265576 -0.748546 
0.223818 0.003273 -0.060067 0.625610 -0.052789 -0.763354 
2.049566 1.486621 -0.105099 0.204714 -0.277326 0.908322 
0.657369 -0.083376 0.020213 0.660755 -0.163503 0.731120 
1.193034 1.119608 -0.047617 0.426214 -0.293638 0.805554 
-0.506703 -0.858555 0.019455 0.308976 -0.058855 -0.926252 
