-0.395603 0.499027 0.033528 -0.728620 0.186591 -0.649881 
2.605204 0.969103 0.288575 -0.191362 0.037307 0.972054 
-3.193058 0.415799 -0.209984 -0.138344 0.029569 -0.986949 
-0.745424 0.424868 0.211190 -0.221945 0.419856 -0.775509 
-2.438723 -0.213262 0.062679 0.058819 -0.247346 -0.964454 
-1.964743 0.844630 0.169423 0.151913 -0.226845 -0.934523 
1.635266 0.307710 0.196780 0.095026 -0.105230 0.950436 
0.307783 -0.466564 -0.054125 0.538844 -0.127019 -0.817740 
1.178590 0.264571 0.209944 0.069449 -0.100910 -0.986543 
-0.886637 -0.067132 0.198457 -0.246624 0.005414 -0.935921 
-0.006902 -0.661792 0.229172 -0.481775 -0.082686 0.867557 
-0.231762 1.274195 0.455344 0.616399 0.640926 0.421900 
-0.071564 -0.160083 0.268233 -0.152950 -0.078544 0.977393 
-0.764880 0.355274 0.184483 -0.359594 0.113758 -0.875758 
-3.670568 0.491397 -0.146691 -0.183207 -0.099333 -0.975149 
2.622617 0.190168 0.229797 0.246769 -0.129478 -0.954397 
0.293848 -0.384663 0.192405 0.619683 -0.123436 0.759565 
1.420483 -0.108244 0.178026 0.087941 -0.064245 -0.989269 
2.133225 0.158631 0.137162 -0.097721 -0.136673 -0.980613 
0.351488 0.745696 0.328219 0.754440 0.410425 0.396019 
-2.287546 0.275696 0.016867 0.091893 0.027223 -0.982065 
1.890314 -0.083943 0.130278 0.089029 -0.160983 -0.982764 
-3.173119 -0.234787 -0.047470 -0.073400 0.253578 0.955370 
-2.215495 0.045858 0.065564 0.543203 -0.222233 -0.789383 
-2.154904 -0.258433 0.171116 0.318318 -0.292643 -0.872380 
1.965250 0.747402 0.140299 0.013078 -0.224800 -0.969922 
-0.197421 -0.524684 0.207943 -0.305627 -0.156587 0.931944 
1.596494 0.691015 0.172731 0.052796 -0.214725 -0.974463 
0.611706 -0.550316 0.120995 0.252223 -0.075407 -0.937383 
0.195142 -0.988733 0.143242 0.062995 0.054314 0.988449 
-0.205011 0.817825 -0.029010 -0.557448 0.430558 -0.701072 
0.946876 -0.759155 0.160698 0.083531 0.006120 -0.986238 
-1.689600 -0.154471 0.213439 -0.104783 0.078610 0.980574 
1.563535 0.542236 0.174255 0.059079 -0.200031 -0.977203 
2.958084 0.668077 0.372627 -0.355867 0.026661 0.891796 
-0.347005 -0.111973 0.002626 -0.654953 -0.014426 -0.746460 
-2.317843 0.500523 0.033406 -0.462148 -0.088743 0.849327 
0.898394 0.271847 0.215382 0.183293 -0.027595 -0.970815 
-3.673275 0.172134 -0.096018 0.142553 0.164221 0.973276 
1.689001 0.129617 0.155005 0.078137 -0.169900 -0.982020 
-0.031841 0.383227 -0.311430 -0.525495 0.189640 -0.808597 
-0.431279 0.643863 0.132877 -0.745830 0.492221 -0.396572 
0.376809 -0.441925 -0.007329 0.521043 -0.046928 -0.832780 
-1.477212 -0.409955 0.255209 0.024702 0.046354 0.986945 
2.169715 -0.304733 0.280074 -0.508556 0.254086 0.810121 
0.834502 0.482461 0.288137 0.026677 0.278964 0.944523 
-0.485791 0.184891 0.285231 0.041992 -0.294833 0.941860 
2.045367 1.011900 0.209976 0.056922 -0.138006 0.978262 
-1.472291 -0.267701 0.238534 -0.020255 0.033838 0.985910 
-0.132664 -0.316993 0.256984 -0.222977 -0.010383 0.973173 
2.210500 -0.062689 0.196371 -0.056274 -0.272062 -0.952636 
2.784111 0.065254 0.328913 -0.362244 0.158300 0.898293 
-0.463154 0.563880 0.160032 -0.695099 0.330625 -0.611006 
-2.151886 0.536180 0.129555 -0.575235 -0.032405 0.790307 
-2.726686 0.854064 -0.147845 0.221228 0.033972 -0.972660 
-0.409986 -0.894844 0.119668 -0.110019 0.031025 0.986982 
-0.528122 0.558425 0.213328 -0.551660 0.430233 -0.635228 
1.282022 -0.552404 0.186028 0.088517 -0.034879 -0.993132 
-1.540037 0.150004 0.238446 -0.172200 -0.067386 0.957190 
1.871862 0.536511 0.140798 0.061652 -0.214626 -0.973338 
1.355737 0.577729 0.197238 0.055955 -0.192975 -0.979315 
-2.880424 0.035314 -0.116408 0.204297 -0.279391 -0.931645 
2.572601 -0.581761 0.499338 -0.294307 0.358057 0.882106 
-3.006894 -0.051809 -0.103998 -0.059347 0.152805 0.964721 
3.388526 0.573879 0.580159 0.609877 -0.101298 -0.781180 
-1.715517 -0.072707 0.216006 -0.137426 0.056735 0.973224 
0.607617 0.213661 0.301748 -0.035852 -0.282986 0.951516 
-0.819463 -0.154862 0.229198 -0.006345 -0.127449 0.976904 
-0.150021 0.769775 0.430145 -0.201038 0.118571 0.953918 
-2.325213 -0.019368 0.074705 -0.587275 0.219378 0.728287 
0.752492 0.272786 0.295963 0.064646 -0.253821 0.956286 
-1.805897 -0.217901 0.202241 0.095109 -0.148855 -0.974406 
1.407367 -0.310328 0.177895 0.091965 -0.059834 -0.990583 
-0.088691 0.827393 0.446953 -0.173961 -0.024802 0.979219 
2.609038 -0.237044 0.349726 0.393280 -0.286413 -0.868210 
3.508542 0.328003 0.753269 -0.648421 0.132868 0.739438 
2.252571 0.883916 0.231190 -0.072722 -0.159682 0.966692 
-0.143548 -0.124282 0.266692 -0.179467 -0.116660 0.968548 
-0.419602 0.107089 0.055034 -0.646840 -0.004153 -0.730427 
-0.144663 -0.628857 -0.048830 -0.161504 -0.357152 -0.914780 
1.404952 -0.026269 0.206003 0.015642 -0.042745 0.979142 
-1.050969 -0.129953 0.253472 0.027691 -0.095390 0.989428 
-0.757034 0.589607 0.305834 0.004332 0.203227 0.954912 
-2.206470 0.679079 0.076685 0.215084 -0.164805 -0.930895 
3.010035 0.928177 0.342116 0.356332 0.268206 -0.886801 
-2.917360 -0.299392 -0.043967 0.156091 -0.286412 -0.943756 
0.125656 1.252437 0.131645 0.691151 0.645897 -0.081270 
3.304390 -0.079507 0.717913 0.533840 -0.296070 -0.778642 
0.574219 0.557397 0.250564 0.427844 0.507999 -0.659568 
-3.411304 0.859800 -0.239716 -0.222805 0.406294 -0.874572 
-0.648742 0.379237 0.358962 0.007210 -0.064607 0.975597 
0.214294 -0.631008 0.177360 0.286889 -0.150448 0.925592 
-0.618868 0.044934 0.261374 0.020330 -0.226585 0.955895 
-1.810123 -0.287849 0.222879 -0.088170 0.119022 0.979180 
1.278541 -0.295996 0.191029 0.091413 -0.031109 -0.992307 
2.622432 -0.310459 0.387023 -0.121543 0.314317 0.889938 
-1.896827 -0.070870 0.204981 -0.176571 0.102466 0.970028 
0.225184 -0.265032 0.225637 0.421451 -0.108792 0.851706 
-2.679998 0.214908 -0.133087 0.273418 -0.188111 -0.938959 
-2.311343 0.059400 0.035903 0.034102 -0.071260 -0.986553 
-0.253373 -0.957804 0.121308 0.003835 0.009757 0.994034 
-1.942212 -0.237881 0.213467 0.134982 -0.191199 -0.967995 
3.297832 0.368186 0.557778 0.639107 -0.069865 -0.756573 
2.823699 0.579068 0.260959 0.144604 -0.193244 -0.954682 
-1.003674 -0.757995 0.178641 0.092276 -0.100557 0.985254 
0.337723 -0.422002 0.120478 0.489364 -0.115403 0.841810 
1.428622 -0.615983 0.174442 0.096141 -0.079042 -0.991233 
0.208420 0.497059 -0.179906 0.610096 0.181010 -0.741462 
0.015145 0.206866 -0.355331 0.523287 0.045234 -0.842669 
-3.356066 0.812857 -0.247577 0.151048 -0.159404 0.970382 
-2.074080 0.423622 0.108828 0.388389 -0.202001 -0.853066 
-2.162063 0.847666 0.123985 -0.480003 -0.324618 0.778650 
-0.248571 0.162952 0.287075 -0.111108 -0.285921 0.950722 
-3.648259 0.075287 -0.082898 0.120333 0.183819 0.974030 
-0.051727 1.123604 -0.013388 -0.440790 0.158793 -0.870953 
-0.599068 -0.827847 0.138901 -0.219700 -0.107062 -0.961325 
0.721055 -0.251567 0.107911 0.308746 0.005534 -0.911132 
0.167241 -0.909211 0.158587 0.107066 0.007923 0.981669 
-0.152718 1.124612 0.438850 0.120472 0.154281 0.896517 
0.519177 0.500227 0.382486 -0.090546 0.179859 0.970962 
2.027574 -0.634856 0.387321 0.231480 -0.398381 -0.875307 
0.231041 0.598521 -0.141726 0.569336 0.320532 -0.727300 
0.295174 0.931281 0.231997 0.917581 0.322742 0.024559 
0.015665 -0.264703 0.268052 0.122360 -0.001864 0.988204 
1.583207 0.246839 0.200658 0.102395 -0.084920 0.951760 
-2.441732 -0.353949 0.131109 -0.557035 0.322521 0.721985 
0.577532 0.457928 0.143145 0.570634 0.191234 -0.733050 
-2.544844 0.142381 -0.079565 0.193274 -0.120839 -0.964097 
3.389008 0.355293 0.640901 0.634221 -0.120378 -0.754897 
-0.331715 0.605940 -0.080592 -0.646137 0.306593 -0.689165 
-0.289660 0.868497 0.325249 -0.803696 0.305264 0.450823 
-2.051210 0.696938 0.116985 0.026969 -0.061987 -0.987297 
1.482157 0.260457 0.178816 0.071024 -0.161536 -0.982649 
0.249866 -0.797450 0.024728 0.086226 -0.310507 -0.937147 
1.315796 0.178178 0.194247 0.074104 -0.108873 -0.986116 
-1.594612 0.017447 0.228128 -0.140528 -0.006442 0.967582 
-1.567456 0.224663 0.240715 -0.202838 -0.086629 0.950346 
2.384980 -0.383290 0.359370 0.386410 -0.321342 -0.855172 
-0.430965 -0.562662 0.095914 -0.222711 -0.061532 0.959672 
-3.991241 0.544810 -0.056474 -0.282910 -0.063712 -0.956560 
2.559609 0.271534 0.230301 -0.185503 0.064799 0.975025 
-0.263374 -0.525261 0.182162 -0.498790 -0.111075 0.854270 
-2.566411 -0.279043 0.050421 0.090530 -0.265376 -0.955716 
0.952689 -0.679200 0.178399 0.017673 -0.072887 0.993633 
2.007551 1.092763 0.173405 0.313681 0.388474 -0.807657 
1.632300 0.842808 0.148289 -0.198797 0.194180 -0.958898 
0.104134 0.475014 0.432789 0.104374 -0.306821 0.944334 
2.973887 0.425074 0.346024 -0.449655 0.016023 0.866083 
-1.895164 -0.162323 0.203388 -0.147534 0.130093 0.976444 
0.608527 -0.329412 0.071335 0.371881 -0.014452 -0.888738 
-2.067519 -0.246749 0.204197 -0.082891 0.181409 0.971663 
-1.816035 0.419921 0.196546 0.091785 -0.215219 -0.967032 
-0.543831 0.031432 0.089965 -0.537370 -0.000328 -0.788013 
-3.547070 0.087215 -0.100007 -0.117985 -0.162722 -0.974298 
-2.561236 0.650361 -0.068294 -0.374270 -0.096398 0.893407 
-2.146376 -0.045876 0.125608 -0.051010 0.082402 0.983511 
0.134330 1.126648 0.424151 -0.107834 0.216944 0.898000 
0.051517 -0.517695 -0.121393 0.169626 -0.596312 -0.776708 
-0.272645 -0.052407 -0.153565 -0.682079 -0.101571 -0.695745 
0.134787 -0.677007 0.185434 0.170214 -0.138995 0.968280 
3.150468 0.683605 0.405577 -0.437450 0.067683 0.886614 
-0.344989 0.278392 0.042113 -0.736598 0.015145 -0.672915 
1.911695 -0.729106 0.399750 0.307565 -0.408233 -0.857030 
1.049288 -0.590195 0.180964 0.062544 0.043192 -0.993637 
1.095130 0.298500 0.217197 0.093304 -0.096222 -0.986158 
2.023148 0.388545 0.169905 -0.185177 -0.127857 0.912287 
3.226129 0.851967 0.457157 -0.307381 0.373400 0.855882 
0.071243 -0.604651 0.211740 0.267147 -0.154372 0.945424 
-0.354362 0.510903 -0.047843 -0.705663 0.174082 -0.676533 
-3.576285 0.589550 -0.175189 0.186749 -0.031949 0.969648 
-0.284251 -0.467560 -0.081626 -0.546163 -0.184836 -0.804963 
-2.137605 0.707114 0.131216 -0.513430 -0.242093 0.775568 
-0.426662 0.447503 0.100351 -0.728661 0.171839 -0.643324 
2.399585 0.911522 0.215991 0.384052 0.028190 -0.919490 
2.167856 -0.694828 0.454677 0.211588 -0.406095 -0.881214 
0.551581 -0.137084 0.066144 0.471280 -0.001274 -0.831499 
1.513969 0.493682 0.221421 0.176358 -0.206607 0.933725 
0.119777 -0.824770 0.038206 -0.052136 -0.429405 -0.898954 
-0.324054 -0.780054 0.145704 -0.301790 -0.028077 0.923437 
-3.281281 0.628393 -0.237167 0.012175 0.055841 0.993325 
-0.186446 0.575048 -0.163675 -0.540801 0.299864 -0.746093 
-0.345929 -1.430664 0.185730 0.485540 -0.746098 0.366323 
-2.896558 0.838760 -0.156362 -0.239063 0.031893 0.942285 
-0.688841 -0.549250 0.158168 -0.223170 -0.072916 -0.958566 
-1.311708 -0.164649 0.214510 -0.046261 -0.046847 -0.983373 
-0.180339 1.196516 0.451313 0.453055 0.267162 0.804946 
2.453165 -0.534169 0.452090 -0.156751 0.353871 0.889601 
0.929057 -0.909289 0.153805 0.058543 -0.015094 -0.989109 
1.095340 0.444395 0.211070 0.109200 -0.082940 -0.981486 
3.067783 0.889910 0.366861 0.416305 0.229399 -0.853203 
-2.095059 0.555663 0.089098 0.162405 -0.080944 -0.946149 
-2.150284 0.939475 0.159474 -0.446369 -0.173722 0.866976 
1.453800 0.723405 0.263720 0.095315 0.001234 0.984599 
-0.034058 0.746291 -0.129651 -0.398110 0.351754 -0.840817 
-0.324170 0.296058 -0.027883 -0.741681 0.016543 -0.668219 
-0.524812 0.520530 0.150892 -0.608643 0.311431 -0.653613 
-0.730570 0.331707 0.337021 -0.044779 -0.141961 0.970760 
-1.486223 -0.759410 0.278948 0.123957 0.061395 0.987685 
-1.815422 0.263897 0.224335 -0.210649 -0.064128 0.944867 
0.307241 0.826721 0.120107 0.823880 0.381411 -0.357365 
2.168627 -0.118611 0.211160 -0.461739 0.162659 0.841124 
-2.924372 0.734642 -0.148446 -0.179001 0.026221 0.943802 
-0.117631 1.278778 0.172076 -0.619215 0.753257 0.040627 
-2.299460 0.598487 0.044340 -0.449477 -0.157273 0.843182 
-0.106507 1.077953 -0.008104 -0.459154 0.222427 -0.849928 
-0.036488 -0.072695 -0.288922 -0.465802 -0.138159 -0.838634 
2.500356 0.333678 0.218624 -0.144034 0.016696 0.987210 
2.269582 -0.625244 0.448811 0.172692 -0.396999 -0.893981 
2.276413 -0.032990 0.203555 0.469835 -0.164805 -0.853972 
2.534592 -0.037529 0.271525 -0.074965 0.229576 0.928838 
0.325342 -0.973586 0.087869 0.124499 -0.247024 -0.952883 
2.781747 0.679037 0.299976 -0.214361 -0.007359 0.946270 
2.489080 -0.630836 0.503642 -0.263215 0.367996 0.884248 
0.283197 0.048001 -0.145739 0.709137 -0.065903 -0.674310 
-1.128208 0.435626 0.232000 -0.120819 -0.136530 -0.980536 
-1.731490 0.839848 0.201545 0.047272 -0.210234 -0.966000 
0.267906 -0.621469 -0.027711 0.121009 -0.332574 -0.886009 
-0.200712 -0.660120 0.176149 -0.215488 -0.161525 0.947325 
-3.290275 0.731137 -0.254191 -0.046109 -0.068141 -0.994936 
3.294795 0.031699 0.667877 0.489795 -0.319227 -0.790890 
-0.918653 -0.370389 0.225561 0.039113 -0.067581 0.993554 
0.298713 0.605647 -0.116227 0.625272 0.304766 -0.703858 
3.026498 0.282080 0.377658 0.274059 -0.384422 -0.876544 
1.638708 -0.446260 0.153842 0.094440 -0.116674 -0.987828 
-1.486303 0.102526 0.239215 -0.144728 -0.064561 0.962160 
-0.363066 0.689681 0.037291 -0.673376 0.587226 -0.403154 
-0.341958 0.288964 0.310393 -0.085795 -0.249498 0.961225 
-2.484093 0.417798 -0.051238 -0.403465 -0.007907 0.908612 
2.223257 0.290048 0.156472 0.484490 0.027674 -0.871579 
-1.876577 0.393418 0.224985 -0.222924 -0.114531 0.934301 
0.113710 -1.170296 0.209719 0.343015 0.081146 0.878550 
0.083724 0.676874 0.459067 0.068434 0.173019 0.977066 
3.666193 0.512764 0.883772 -0.705028 0.039363 0.695803 
-2.907722 -0.060554 -0.097124 0.187950 -0.289965 -0.933205 
-0.266188 0.373521 0.367239 -0.101830 -0.262339 0.955215 
3.247125 0.779990 0.452843 0.529089 -0.016496 -0.834951 
3.039345 -0.060530 0.506888 0.376542 -0.355836 -0.843679 
-1.655694 0.504118 0.245699 -0.236097 -0.199038 0.927719 
0.126706 0.518897 -0.212099 0.538622 0.259625 -0.770354 
-0.845221 0.183958 0.289510 -0.050000 -0.220663 0.966002 
-0.212097 0.984685 0.042202 -0.680874 0.220909 -0.659880 
-0.308610 -1.235295 0.121055 0.041947 -0.140179 -0.977171 
-2.997981 -0.328817 -0.036457 -0.141995 0.275860 0.947646 
0.034683 -0.110476 -0.282105 0.450774 -0.166714 -0.840276 
2.566061 -0.516744 0.466413 0.329916 -0.359026 -0.867447 
0.323964 0.580846 0.405498 0.330336 -0.117459 0.891128 
-0.519023 0.412360 0.373986 0.081764 -0.037678 0.972893 
-0.148165 0.215856 0.332731 -0.120403 -0.281613 0.949734 
-0.182172 0.119084 0.283769 -0.123001 -0.252078 0.959062 
-1.597273 -0.473837 0.256399 0.018925 0.081132 0.985006 
-3.166448 0.180953 -0.150225 0.045919 0.066623 0.980773 
0.671465 0.115389 0.136834 0.411947 0.000147 -0.842457 
0.554230 -0.126414 0.186342 0.119336 -0.180597 0.952461 
2.322398 0.478194 0.203840 -0.041223 -0.090914 0.966353 
-1.235706 -0.200334 0.243156 0.010069 -0.030046 0.990198 
1.799441 0.368148 0.178289 0.046040 -0.109617 0.954204 
3.496115 0.249196 0.764710 -0.616894 0.207770 0.746623 
-2.564015 0.720032 -0.084559 0.369637 -0.259563 -0.882767 
-2.404593 -0.734022 0.285333 0.249303 -0.355831 -0.891089 
0.935901 -0.529182 0.181405 0.096056 0.002558 -0.987678 
2.476218 -0.306836 0.344095 0.413271 -0.305964 -0.852433 
-3.063936 0.444172 -0.205787 -0.013246 0.064631 0.977792 
0.386810 -1.424516 0.174875 0.613716 -0.706473 0.111120 
0.503773 0.574317 0.354843 -0.105042 0.287405 0.940372 
2.518293 -0.439625 0.417988 0.360957 -0.339061 -0.861606 
1.733363 0.333173 0.152998 0.069535 -0.189968 -0.978281 
1.431741 -0.528588 0.174496 0.094973 -0.075551 -0.990921 
0.191285 0.297025 0.361317 0.122226 -0.317445 0.939695 
-3.086004 0.178820 -0.155269 0.026350 0.058470 0.979741 
-1.305115 -0.235696 0.224615 -0.065689 -0.047398 -0.984147 
0.426688 -1.106256 0.138705 0.133511 -0.213986 -0.964334 
-2.078063 -0.712879 0.374561 -0.056684 0.320393 0.941896 
0.194255 -0.454700 0.229559 0.318808 -0.124394 0.934782 
0.284873 0.937070 0.302125 0.884811 0.270795 0.342739 
-2.958293 0.010454 -0.112269 -0.079721 0.139802 0.964388 
0.156503 0.008607 0.270747 0.163909 -0.195903 0.955731 
3.488930 0.567971 0.688552 -0.680948 -0.034295 0.713216 
-2.184028 -0.680836 0.329616 0.165346 -0.350012 -0.905542 
-2.736103 -0.379487 0.043887 -0.315534 0.300433 0.859766 
0.222008 -0.545498 -0.055207 0.032897 -0.415280 -0.876341 
1.290425 -0.367840 0.203904 -0.041711 -0.014922 0.993791 
0.709479 -0.218975 0.178273 0.121232 -0.128555 0.967416 
1.406215 0.667998 0.251599 0.227950 -0.188218 0.939691 
0.723907 0.047679 0.273329 -0.022802 -0.216834 0.965673 
-2.227157 0.904603 0.061859 0.232298 -0.042898 -0.966732 
0.277820 0.653794 0.435213 0.456768 -0.109024 0.846169 
2.222064 0.961696 0.238649 0.035949 -0.087767 0.958642 
1.213761 -0.415825 0.211056 -0.037441 -0.031286 0.994580 
2.543649 -0.198804 0.317016 0.403545 -0.274149 -0.866908 
1.117891 -0.672099 0.176244 0.043353 0.062284 -0.996361 
-0.326516 0.226404 -0.006690 -0.740030 -0.009936 -0.667282 
1.471396 -0.170178 0.190226 -0.044888 0.016674 0.991486 
-0.358902 0.089704 0.236521 -0.106459 -0.286288 0.945474 
3.504386 0.429834 0.728101 -0.672494 0.048675 0.719140 
-0.674644 0.484106 0.236504 -0.308864 0.470116 -0.721729 
-1.091762 0.266111 0.231145 -0.128041 -0.094090 -0.982978 
0.931205 0.388647 0.243675 -0.104313 0.485898 -0.865051 
-1.789085 0.531500 0.198738 0.078221 -0.222931 -0.966256 
2.239785 -0.801659 0.525229 0.232951 -0.418634 -0.877155 
-0.639101 0.284331 0.313067 0.002597 -0.274683 0.951742 
-3.867681 0.613523 -0.098284 -0.246039 -0.055911 -0.964170 
-2.078392 0.168219 0.138715 -0.114516 -0.033763 0.973447 
-2.209836 -0.388830 0.206038 0.331640 -0.346527 -0.845931 
-2.011606 -0.280700 0.233830 -0.115911 0.189212 0.968418 
-2.224476 0.312417 0.091310 -0.402315 0.024250 0.887769 
-1.030350 -0.508645 0.198341 -0.155032 0.043271 -0.984527 
0.272474 -1.106378 0.146989 -0.133325 0.074689 0.945493 
2.702952 0.149362 0.268123 -0.307413 0.141087 0.930089 
-0.656502 0.443454 0.169104 -0.479261 0.212608 -0.769593 
-2.378077 -0.218962 0.100661 -0.659551 0.318417 0.661042 
-1.684824 -0.528866 0.258272 0.017445 0.107163 0.983659 
3.257998 0.410305 0.516960 -0.484980 0.219041 0.827827 
1.192548 -0.344641 0.199549 0.091829 -0.014712 -0.993636 
0.790369 0.249553 0.184598 0.288241 -0.045549 -0.913627 
-2.444705 0.780491 -0.032200 0.344724 -0.238717 -0.895885 
-0.621381 -0.041574 0.108638 -0.463564 0.001272 -0.828825 
0.772018 0.179718 0.286517 0.032959 -0.235335 0.961849 
0.757197 0.177076 0.168304 0.324607 -0.024262 -0.891004 
-0.576688 0.356158 0.347898 0.040898 -0.143654 0.963908 
-0.445377 0.367923 0.093289 -0.678992 0.103493 -0.687422 
-0.591800 0.476252 0.154623 -0.562881 0.227505 -0.721091 
0.064777 0.936022 -0.048319 0.435653 0.300035 -0.830294 
0.943314 -0.346880 0.219777 0.015425 -0.080121 0.994246 
-1.844095 0.201855 0.193555 0.110542 -0.198364 -0.969117 
3.493168 0.173178 0.785347 0.655636 -0.185042 -0.726804 
-0.020185 -1.130169 0.214595 -0.569414 -0.162833 0.744610 
0.353459 0.672487 0.396850 0.580292 0.040226 0.777217 
1.093718 -0.325042 0.223741 -0.010447 -0.082141 0.994511 
0.372254 0.159797 0.262753 0.067631 -0.310163 0.944687 
-2.496567 0.096029 -0.049303 0.156392 -0.129890 -0.967428 
0.151602 0.131324 0.296221 0.125151 -0.250086 0.959205 
-2.300354 -0.425115 0.193604 0.358509 -0.349117 -0.842808 
-3.129464 0.768184 -0.235285 -0.098538 0.035312 0.980527 
-0.155033 -1.169299 0.200174 0.220457 -0.354236 -0.906438 
0.815527 -0.041331 0.256598 -0.003668 -0.174489 0.974890 
0.379097 -0.129363 0.009090 0.612174 -0.013863 -0.771491 
-1.393163 0.823163 0.255673 0.235533 0.349984 -0.833636 
0.009660 0.137860 -0.343509 0.499271 -0.006994 -0.844126 
0.137918 1.020488 0.438454 0.199239 0.004696 0.978914 
1.004379 0.419292 0.209699 0.002888 0.205719 -0.948505 
2.070645 0.633521 0.204241 0.008749 -0.115471 0.936620 
-0.338857 -0.564359 0.004175 -0.508389 -0.072437 -0.836229 
-0.118075 1.228957 0.368097 0.335079 0.753559 0.533589 
0.392444 -0.877008 0.094655 0.276931 -0.166925 -0.931831 
1.507272 0.597887 0.227253 0.199235 -0.254816 0.927129 
-0.359576 -0.433339 0.073528 -0.342134 -0.111824 0.930752 
2.274587 -0.094951 0.238393 0.168593 0.246111 0.917596 
2.472033 -0.380264 0.378472 0.385118 -0.323391 -0.856901 
-0.853254 0.263123 0.300406 -0.094844 -0.222360 0.965060 
1.012671 0.707661 0.270634 -0.154520 0.160991 -0.972050 
0.380527 0.505647 0.350879 0.173053 -0.039814 0.926641 
-2.954436 0.801839 -0.173053 -0.197327 0.037196 0.952223 
3.250494 0.475152 0.490797 -0.500622 0.162561 0.835357 
0.443046 -0.326579 0.099379 0.257576 -0.127731 0.944783 
2.476415 0.829222 0.263775 -0.074582 -0.051672 0.955622 
-0.346365 0.166167 0.263101 -0.091333 -0.299678 0.948965 
-1.963101 -0.123390 0.181894 0.171972 -0.177449 -0.965863 
-1.218739 0.603830 0.216041 0.204628 0.246736 -0.939463 
-1.151910 0.114406 0.225630 -0.108286 -0.073791 -0.984028 
-0.196500 -0.289531 0.236235 -0.358657 -0.073612 0.892460 
2.630122 0.904910 0.256980 0.366306 0.039614 -0.927798 
3.098849 0.401347 0.398380 -0.358013 0.307508 0.874432 
1.985453 -0.228745 0.193938 0.093243 -0.253079 -0.948309 
-0.174873 0.063335 -0.232843 -0.626634 -0.036683 -0.749574 
-3.275009 0.446546 -0.197691 -0.046846 0.241725 0.952480 
-0.934846 0.239207 0.289230 -0.123509 -0.215271 0.968279 
-1.269507 0.286501 0.222580 -0.076580 -0.132377 -0.980293 
-0.596817 0.518408 0.216100 -0.444560 0.433518 -0.678442 
0.865466 -0.124775 0.235322 0.025061 -0.139593 0.980312 
0.457165 0.412425 0.369172 -0.065723 -0.085620 0.970792 
-1.753523 -0.468641 0.252860 -0.019578 0.124223 0.980370 
0.725999 -0.498658 0.160634 0.176620 -0.060449 -0.965810 
-0.265394 1.002366 0.153607 -0.895908 0.350694 -0.225251 
0.386723 -1.345395 0.195240 0.711389 0.136068 0.496537 
2.029481 0.455681 0.138327 -0.027217 -0.184973 -0.975070 
-2.083592 0.675115 0.179279 -0.473316 -0.076297 0.845035 
2.305277 0.044224 0.197149 0.473659 -0.105989 -0.859044 
-2.222642 -0.051371 0.086261 0.484549 -0.260533 -0.811262 
-0.443609 -0.439560 0.027057 -0.484698 -0.040927 -0.845532 
0.168163 -0.253790 -0.196521 0.523657 -0.183797 -0.813871 
1.581929 0.177814 0.167020 0.075333 -0.162769 -0.982651 
0.325460 -0.861943 0.051578 0.252759 -0.236814 -0.917210 
1.355416 0.101639 0.219353 0.075674 -0.098212 0.966004 
-2.777215 0.280673 -0.155276 0.270009 -0.241185 -0.923368 
-3.032787 0.674145 -0.206615 -0.143989 0.037473 0.967800 
-2.429716 0.539577 -0.017997 -0.414797 -0.085483 0.879873 
-2.482450 0.876802 0.024971 -0.401712 -0.027967 0.858618 
-2.089830 0.894361 0.140163 0.164210 -0.303586 -0.921538 
0.472452 0.230931 0.085693 0.601002 -0.006225 -0.750199 
-2.721423 -0.126346 -0.039867 -0.307705 0.243753 0.886595 
-0.270907 0.985088 0.300762 -0.879788 0.262358 0.302829 
-0.123503 0.520482 -0.213684 -0.533762 0.261171 -0.773809 
-2.807934 0.409598 -0.159808 -0.210624 0.046599 0.959080 
-1.361539 -0.081213 0.237123 -0.056721 -0.032057 0.979977 
1.399410 0.738478 0.204453 -0.335415 0.434616 -0.773207 
-0.941925 -0.180243 0.205641 -0.193098 0.012867 -0.966741 
-0.245369 -1.045246 0.130881 0.005973 0.060077 0.951420 
-2.225448 -0.768257 0.352148 -0.137456 0.333166 0.925333 
2.719954 0.074881 0.282042 0.290540 -0.213356 -0.926872 
1.981110 0.140110 0.157035 -0.168011 -0.007750 0.942135 
3.545538 0.530431 0.744884 0.663756 -0.105354 -0.734924 
0.411668 0.382962 0.087201 0.709426 0.119958 -0.669799 
2.052136 -0.195997 0.207151 -0.337868 0.189467 0.884357 
2.780583 0.261603 0.273029 0.231736 -0.244383 -0.931138 
-0.116647 0.336009 -0.275745 -0.619999 0.116410 -0.743136 
1.428398 0.553017 0.235384 0.219670 -0.245526 0.926275 
3.011481 0.520621 0.347359 -0.317266 0.121308 0.918544 
-2.988878 0.095956 -0.139624 0.195543 -0.337096 -0.916305 
-0.527996 0.046957 0.245970 -0.014935 -0.241887 0.947529 
-2.672347 0.762770 -0.126397 0.162050 0.118367 -0.972836 
-3.253326 0.519629 -0.217123 -0.038496 0.179161 0.968309 
0.054012 1.083181 0.436215 0.020889 0.257389 0.926159 
-0.567534 -0.466418 0.132457 -0.159799 -0.069555 0.967349 
-2.406901 -0.591367 0.228015 0.325319 -0.353891 -0.863125 
-1.744478 -0.627859 0.299348 -0.026012 -0.187671 -0.969551 
-0.690977 -0.132656 0.213972 -0.045855 -0.155558 0.964825 
-1.955548 1.173396 0.250295 -0.030729 0.014460 0.972665 
-0.982940 -0.422964 0.221195 0.062754 -0.086411 0.991272 
0.892445 -0.301923 0.191825 0.130759 -0.005126 -0.981058 
-1.905453 -0.603197 0.332052 -0.040932 0.236121 0.959874 
1.150616 0.667523 0.261888 -0.034386 0.190757 0.970355 
1.717607 -0.284336 0.157077 -0.080537 0.091575 0.990360 
2.307662 0.983690 0.242902 0.017806 -0.066723 0.969700 
-0.454693 -0.212253 0.145164 -0.182960 -0.166954 0.944179 
-3.300012 0.317088 -0.176856 -0.132319 -0.028348 -0.983131 
-0.163384 -0.208362 0.254709 -0.248728 -0.087634 0.942734 
-0.274208 -0.256965 -0.097430 -0.610170 -0.181119 -0.757899 
-0.044525 -0.274417 -0.244211 -0.417734 -0.274863 -0.837356 
2.811321 0.341246 0.277672 0.192640 -0.267495 -0.932843 
1.520060 -0.103995 0.167923 0.088197 -0.085419 -0.987903 
0.342883 -0.006707 0.228679 0.249475 -0.257098 0.888850 
3.038426 -0.191133 0.556282 0.421338 -0.331222 -0.832208 
2.789919 -0.412277 0.468969 0.363820 -0.341173 -0.865890 
2.109409 0.066083 0.167440 -0.387177 0.013090 0.889931 
3.644844 0.306900 0.896167 -0.685305 0.152505 0.709762 
0.018518 -0.916500 0.088837 0.384600 -0.384816 -0.821470 
1.067562 0.113137 0.254263 0.108478 -0.171044 0.968346 
0.297270 -0.263268 0.201020 0.556461 -0.160347 0.769995 
0.408555 -0.777484 0.080098 0.315043 -0.139355 -0.915986 
1.892238 -0.345184 0.231545 -0.234657 0.232877 0.917504 
-3.131905 -0.025770 -0.101752 -0.022329 0.155298 0.967717 
2.824199 0.765622 0.351735 -0.281102 0.011556 0.904998 
0.353407 -1.036447 0.134131 0.106036 0.097789 0.967194 
2.341350 0.546929 0.206842 -0.060739 -0.132467 0.958649 
-2.813392 -0.339499 0.002915 -0.273086 0.291974 0.882282 
0.305884 0.100614 0.255640 0.138051 -0.282939 0.935058 
-0.393558 -0.045195 0.027277 -0.634114 -0.010088 -0.750087 
2.391197 0.464397 0.199697 0.199397 -0.022835 -0.963803 
-0.110480 0.791669 -0.081153 -0.467402 0.396633 -0.776641 
0.402630 -0.521757 0.021609 0.455585 -0.068805 -0.858896 
0.580755 -0.482310 0.133249 0.168005 -0.062324 0.969888 
-1.760727 0.222554 0.198077 0.083333 -0.194114 -0.970781 
-0.278606 -0.906868 0.054452 -0.096399 -0.265014 -0.951300 
2.743148 0.374947 0.250296 0.157642 -0.227369 -0.951094 
3.436387 0.742707 0.610025 -0.446657 0.361963 0.782706 
-2.631307 0.664899 -0.098395 -0.354118 -0.080423 0.906761 
0.043838 -0.726268 0.006073 0.219517 -0.434577 -0.863573 
0.772863 -0.342386 0.180844 0.097393 -0.081373 0.980383 
1.844814 -0.148179 0.147356 -0.082997 0.114017 0.988754 
-0.812131 -0.084455 0.171180 -0.311024 0.009382 -0.903416 
3.121156 0.265758 0.452849 -0.604264 0.044622 0.786226 
1.660422 0.922994 0.206877 -0.207377 0.492561 0.766206 
-1.242636 0.012889 0.249331 -0.061564 -0.096108 0.973964 
0.243804 0.825749 0.003038 0.618779 0.421287 -0.643892 
-0.285850 -0.182792 -0.067683 -0.626827 -0.155973 -0.748396 
-2.956731 0.859038 -0.221121 0.191554 0.046036 -0.975019 
0.300400 0.512411 0.397063 0.112461 -0.179740 0.973187 
2.247595 0.372140 0.197047 0.027284 -0.023479 0.974826 
0.167222 1.068721 0.284205 0.482668 0.827193 0.156064 
0.010574 0.588719 0.471692 0.050909 -0.289091 0.955579 
-1.408392 -0.211051 0.216864 -0.026973 -0.067408 -0.981946 
-1.091773 -0.273632 0.238685 -0.142229 -0.005498 -0.988575 
1.864715 1.003992 0.185299 -0.486921 0.745420 -0.444304 
-0.478931 -1.062989 0.133580 -0.044923 0.093109 0.971837 
-0.362063 0.705508 0.341335 -0.709757 0.405874 0.434737 
3.394430 0.505728 0.609128 -0.618489 0.041927 0.765960 
-1.945164 0.803769 0.233051 -0.258690 -0.295979 0.903169 
0.155681 0.682038 0.452758 0.158280 0.231947 0.943974 
-2.865721 0.124083 -0.135190 0.217827 -0.275015 -0.928993 
-1.574779 -0.192005 0.224044 -0.067336 0.053183 0.983215 
-0.613557 -0.148352 0.194945 -0.085222 -0.162767 0.957925 
-0.623296 -0.621664 0.142991 -0.241219 -0.090377 -0.951400 
2.557283 0.930457 0.247766 0.375810 0.037638 -0.924062 
2.384069 0.823000 0.195794 0.205325 -0.112549 -0.962988 
-2.638191 0.267279 -0.107245 -0.304782 0.107709 0.941834 
2.253629 0.579259 0.199941 -0.008808 -0.161302 0.949305 
-2.270096 1.054851 0.082113 0.193441 0.573397 -0.764749 
-0.410597 0.266242 0.067148 -0.673290 0.012247 -0.710145 
-2.139874 0.288360 0.070984 0.512405 -0.180518 -0.804570 
1.996627 -0.150128 0.176007 -0.233745 0.157563 0.928169 
-0.845425 0.383577 0.241762 -0.043962 0.475175 -0.829699 
-0.067046 0.100882 -0.310413 -0.540221 0.000376 -0.828963 
3.636721 0.435188 0.861790 0.689748 -0.126785 -0.708203 
1.000206 0.135840 0.263893 0.112566 -0.178377 0.971303 
0.646982 0.022109 0.252464 0.013683 -0.218455 0.959076 
-2.014862 0.700454 0.190031 -0.202270 -0.266804 0.923268 
0.073393 1.001285 -0.017731 0.397488 0.222424 -0.866904 
2.894376 0.387587 0.318656 -0.384580 0.044125 0.896404 
-1.592559 0.286335 0.207351 0.027448 -0.187450 -0.973863 
0.316779 -1.378060 0.169069 -0.265495 -0.268686 -0.900329 
0.349743 -1.283221 0.172725 0.858385 0.393887 -0.036429 
-0.196349 0.883525 0.411069 -0.505146 0.123031 0.828376 
0.495477 0.318773 0.098893 0.598549 0.067250 -0.744831 
1.278201 0.799835 0.244127 -0.202253 0.254953 -0.905545 
-2.217994 0.272150 0.028344 0.120072 -0.007442 -0.984143 
1.943631 0.530156 0.137304 0.036464 -0.209173 -0.973209 
3.550921 0.382174 0.784954 -0.676189 0.087054 0.716420 
-3.082193 -0.279851 -0.042746 0.094232 -0.281270 -0.948730 
-1.888359 0.279049 0.219556 -0.211439 -0.060048 0.943041 
-0.335450 0.394768 -0.036877 -0.718735 0.075771 -0.684586 
-0.861956 0.322122 0.207580 -0.251040 0.091246 -0.945274 
0.101420 1.252666 0.278373 0.039456 0.924824 0.325460 
3.011116 0.689605 0.328908 0.386681 0.015889 -0.910627 
2.747510 0.829763 0.326808 -0.217766 0.004382 0.927881 
-1.602695 -0.311339 0.224211 0.007034 -0.111443 -0.979149 
0.582196 0.548015 0.334147 -0.078715 0.321855 0.933211 
0.153074 1.177594 0.070266 0.730079 0.430272 -0.473386 
3.171634 0.112359 0.547599 -0.579912 0.126261 0.787069 
0.011797 0.220270 0.336571 0.020252 -0.290612 0.951081 
-0.554596 0.316037 0.116980 -0.551131 0.065407 -0.771751 
-2.481064 -0.666752 0.235952 0.323380 -0.356651 -0.869432 
0.221604 -0.372542 0.224125 0.429043 -0.073059 0.869931 
-2.958886 0.506645 -0.211039 0.244842 -0.217478 -0.922347 
-2.955896 -0.137879 -0.083863 0.170793 -0.311891 -0.931478 
2.479371 0.049769 0.239424 -0.051927 0.192259 0.945810 
1.754073 -0.098552 0.160491 -0.058886 0.078380 0.986133 
1.182380 0.588021 0.202557 -0.211525 0.265681 -0.929060 
-0.361628 -0.854311 0.071377 -0.342048 -0.145652 -0.910004 
0.760654 0.651448 0.296207 0.052605 0.298347 -0.859319 
-2.603620 -0.409594 0.092309 0.137780 -0.290567 -0.940032 
-0.026320 -0.591604 0.227555 -0.345960 -0.131538 0.922369 
-0.338019 -0.880056 0.138822 -0.189018 0.008611 0.953059 
0.795820 -0.685885 0.160546 0.127844 -0.048028 -0.978228 
-2.550261 0.409318 -0.086633 0.375360 -0.060287 -0.913630 
0.495894 0.647106 0.311875 0.493486 0.645157 -0.572643 
2.248224 0.716286 0.204165 -0.009743 -0.239721 0.930591 
-0.679326 -0.318984 0.156018 -0.134767 -0.095875 0.967470 
-0.826909 0.321266 0.332489 -0.097512 -0.129869 0.976246 
1.982235 0.812127 0.190537 0.035315 -0.260566 0.911702 
0.799163 0.400997 0.311049 0.004168 0.294015 0.947866 
0.176371 1.255064 0.295130 0.004381 0.906812 0.005717 
-2.105843 -0.116304 0.135580 0.325927 -0.232247 -0.888035 
0.642191 0.151623 0.294789 -0.045778 -0.261923 0.956842 
1.761811 0.139796 0.147262 0.078239 -0.174360 -0.980927 
-2.562779 -0.140975 0.000657 0.108068 -0.233662 -0.960960 
-1.175578 0.289427 0.226925 -0.107089 -0.114747 -0.982066 
0.392033 -1.192937 0.160469 0.438016 0.285334 0.770904 
-3.170695 0.707610 -0.244664 -0.061906 0.052724 0.989845 
-2.365432 0.633309 0.017570 -0.429819 -0.152585 0.852836 
0.049322 -1.134888 0.189945 0.152543 -0.424900 -0.880945 
0.636466 -0.223342 0.083198 0.383353 0.000632 -0.876977 
-2.743442 0.720759 -0.121410 -0.325397 -0.001708 0.917649 
-1.736609 0.481666 0.238833 -0.233071 -0.176420 0.928731 
0.308133 0.289486 0.322864 0.096008 -0.273049 0.953900 
-2.603966 0.342347 -0.097056 -0.338913 0.063639 0.933508 
0.779761 -0.122769 0.222690 0.049734 -0.151715 0.972614 
-0.449749 -0.366710 0.015577 -0.516680 -0.022400 -0.831237 
1.843347 0.622394 0.145065 0.057667 -0.220780 -0.972366 
-2.764585 0.788406 -0.167987 0.207942 0.071673 -0.970322 
3.446699 0.203057 0.735900 0.656130 -0.156335 -0.730156 
-0.291073 -0.591650 0.152979 -0.444829 -0.094526 0.879085 
2.171597 -0.190324 0.219912 0.005898 -0.320836 -0.939566 
1.728782 0.063677 0.149792 0.081332 -0.166051 -0.982536 
-1.675697 0.327987 0.203276 0.051748 -0.197084 -0.971423 
-0.070284 0.895385 0.453619 -0.199120 0.005924 0.969871 
-0.915551 -0.133747 0.253367 0.043389 -0.119049 0.985447 
-0.268884 -0.862409 0.130950 -0.141692 -0.010544 0.952784 
-2.067010 0.827541 0.146109 0.120048 -0.267365 -0.936023 
2.765287 -0.137705 0.365863 0.326114 -0.269183 -0.899366 
-0.634152 -0.433193 0.151552 -0.123822 -0.069520 0.972325 
2.583799 -0.110316 0.309096 -0.119949 0.249459 0.918339 
-3.731692 0.322167 -0.113724 0.187833 0.127042 0.973269 
1.849366 -0.422477 0.246248 0.214505 -0.289035 -0.913262 
2.226737 -0.223743 0.248027 -0.002639 -0.353342 -0.929929 
1.293905 -0.665234 0.176612 0.076261 -0.022829 -0.993498 
-1.728489 -0.236959 0.208138 0.065937 -0.133883 -0.976062 
2.349002 -0.029710 0.215944 0.445829 -0.179834 -0.863604 
-0.248186 -1.236363 0.162029 0.570984 -0.192412 0.350412 
0.601858 -0.045437 0.095329 0.451378 0.007281 -0.830834 
2.281885 -0.164331 0.222670 0.317863 -0.304569 -0.891096 
-2.559349 -0.343808 0.088385 -0.469675 0.312537 0.771084 
3.146881 -0.124427 0.614064 0.459862 -0.320912 -0.812262 
3.616093 0.521912 0.829688 -0.697711 0.022251 0.701084 
-0.586668 0.172114 0.298764 0.075505 -0.274322 0.951283 
-0.333884 -0.792666 0.030942 -0.375144 -0.181398 -0.889939 
0.679356 -1.024325 0.144600 0.082989 -0.129036 -0.982401 
-2.369433 0.170975 0.018153 -0.503695 0.141286 0.836387 
-2.951522 0.631100 -0.211630 -0.233722 0.032644 0.957838 
-0.066161 1.238872 0.309498 0.122219 0.836880 0.496933 
-0.873893 0.080505 0.280161 -0.011708 -0.187025 0.973073 
-3.842531 0.493457 -0.096213 -0.236213 -0.086639 -0.965047 
-3.548358 0.514316 -0.173145 0.146019 0.036231 0.976574 
-1.195236 0.057482 0.222870 -0.092161 -0.070378 -0.983689 
-0.982488 -0.114829 0.226177 -0.159489 0.005342 -0.982352 
0.034756 1.298341 0.196102 0.231660 0.883933 0.390383 
-0.292220 0.075149 -0.113558 -0.715616 -0.057940 -0.673804 
0.060348 -0.314363 -0.229534 0.415296 -0.294616 -0.836076 
-0.155354 1.030297 0.427723 -0.273093 0.034986 0.935862 
1.839752 -0.515210 0.288656 -0.285433 0.305354 0.888340 
3.008804 0.617270 0.360982 -0.358343 0.031146 0.906990 
0.092313 0.037427 -0.286713 0.541376 -0.030338 -0.824572 
-0.015272 -0.930933 0.198103 -0.468365 0.048735 0.869274 
-0.008085 0.940296 -0.060019 -0.309426 0.303327 -0.893217 
1.545439 -0.179267 0.181215 -0.053544 0.037096 0.991015 
-2.733218 0.425419 -0.159960 0.355277 -0.242783 -0.895454 
-0.118165 0.529862 0.445908 -0.135854 -0.281961 0.947316 
2.870255 0.313932 0.304430 0.225703 -0.296648 -0.915901 
1.478104 -0.351937 0.182542 -0.060468 0.033598 0.992393 
-1.148798 -0.045081 0.223604 -0.103404 -0.040054 -0.985462 
-0.449025 -0.214872 0.026358 -0.556403 -0.012530 -0.801445 
-3.133116 -0.100415 -0.085135 0.104159 -0.301846 -0.937421 
0.476214 -0.246342 0.026156 0.507454 -0.012635 -0.827059 
1.462283 0.186822 0.211709 0.097970 -0.096051 0.957067 
-1.698086 0.232639 0.231748 -0.208694 -0.067521 0.948336 
-3.424425 -0.106951 -0.061552 -0.034149 -0.236747 -0.963171 
1.960840 -0.096543 0.139122 0.056371 -0.172853 -0.978664 
0.113555 1.229192 0.358581 -0.309559 0.782528 0.508801 
1.447921 0.035589 0.204546 0.036212 -0.050859 0.972698 
0.836856 0.630176 0.285418 -0.064051 0.226801 -0.926139 
1.357517 0.027473 0.187079 0.081324 -0.082682 -0.987949 
-1.549658 -0.576413 0.271157 0.062615 0.077498 0.986795 
0.676322 0.208073 0.146170 0.402280 -0.022964 -0.852252 
-0.338424 -0.634762 0.115917 -0.319891 -0.063378 0.926026 
-0.477346 0.474070 0.402711 0.115228 0.086715 0.984567 
1.928173 1.231633 0.177007 -0.804922 0.130003 -0.536967 
1.693274 0.859825 0.238365 0.120296 -0.019178 0.981695 
0.393152 0.702153 0.278606 0.624408 0.535549 0.481027 
0.302391 -0.661701 0.151569 0.404323 -0.065712 0.890387 
2.629282 0.839299 0.313044 -0.173448 -0.019189 0.925815 
3.343755 0.441106 0.579098 0.596922 -0.122440 -0.785653 
0.668030 0.648362 0.306576 -0.024162 0.229581 0.945647 
-1.082292 -0.689305 0.190504 0.112032 -0.120209 0.984673 
-0.310850 0.834125 0.131732 -0.847255 0.368057 -0.334143 
-2.629366 0.416817 -0.108746 -0.344392 0.037753 0.934114 
-2.135729 -0.537683 0.291563 -0.004965 0.271995 0.956399 
0.093524 -0.919219 0.184962 0.223470 0.037327 0.964485 
2.233616 0.817681 0.192457 0.237724 -0.285738 -0.908838 
-0.329515 0.040885 0.009523 -0.691892 -0.030576 -0.713041 
2.950761 -0.008886 0.427756 -0.482326 0.157192 0.834440 
-0.221818 0.268038 0.340651 -0.117795 -0.315303 0.940991 
2.337742 -0.575897 0.446207 -0.093157 0.363531 0.893543 
1.762896 0.968184 0.195441 -0.437908 0.660795 -0.524127 
-0.403497 -1.066764 0.131445 -0.157792 0.121514 0.939700 
0.057604 1.170576 0.390219 -0.146297 0.539147 0.802507 
2.814517 0.887608 0.289095 0.356731 0.057606 -0.931248 
0.345358 -0.262506 -0.020073 0.609380 -0.023332 -0.785792 
-0.266742 0.751096 0.415366 -0.446991 0.337654 0.817710 
1.915760 -0.460664 0.277848 0.201335 -0.339985 -0.897162 
3.081456 0.544989 0.376602 -0.383634 0.100335 0.897131 
-0.406396 0.334776 0.325406 -0.005532 -0.257008 0.959038 
2.886175 0.091414 0.370584 -0.441231 0.131153 0.860229 
0.040757 -0.850365 0.197541 0.351403 0.004942 0.925776 
1.999966 -0.444427 0.296136 -0.443882 0.299711 0.829095 
1.946548 1.058640 0.192045 -0.602418 0.339164 0.646064 
-2.817649 0.221657 -0.153039 0.237546 -0.253861 -0.929721 
-1.246452 0.355937 0.224581 -0.086606 -0.142326 -0.980136 
-2.834306 0.340533 -0.158306 -0.152284 0.055353 0.964709 
-2.783122 0.843354 -0.103211 -0.277199 0.014894 0.918666 
-1.633042 0.893185 0.234681 0.360959 0.556788 -0.657125 
0.531629 0.419477 0.375023 -0.059099 -0.019596 0.975987 
2.163956 0.775894 0.180874 0.258794 -0.217913 -0.914854 
-3.803094 0.660338 -0.115117 0.159031 0.168726 0.940263 
-2.818168 -0.425240 0.034523 -0.230867 0.296476 0.909478 
0.953273 -0.119549 0.203210 0.148013 0.026548 -0.967464 
-1.954286 0.582282 0.221675 -0.234060 -0.194152 0.920923 
2.090667 -0.125827 0.192190 -0.352959 0.157139 0.883078 
-0.190231 0.144200 -0.231232 -0.663119 -0.008946 -0.719106 
2.730652 0.645041 0.245499 0.308846 0.008328 -0.947694 
-0.600423 0.239196 0.129782 -0.487293 -0.026204 -0.810504 
-0.214507 -0.500221 -0.085285 -0.251894 -0.375376 -0.840073 
1.358071 -0.384799 0.182581 0.092831 -0.052657 -0.991489 
2.413888 0.711453 0.227149 -0.065817 -0.182026 0.937411 
1.289058 -0.032085 0.219364 0.027850 -0.073253 0.979898 
-1.841583 0.796701 0.197826 0.082703 -0.249708 -0.961723 
-1.983177 1.056159 0.241112 0.010758 0.131593 0.966429 
-0.382851 0.696175 0.106447 -0.675071 0.681719 -0.225648 
-1.059090 0.425960 0.219615 -0.122571 0.004793 -0.975391 
-1.066898 0.313966 0.280665 -0.150608 -0.227114 0.955604 
2.419770 -0.023441 0.224919 0.405489 -0.198608 -0.880908 
-1.922471 -0.401706 0.271461 -0.094161 0.192477 0.967166 
2.104792 0.577073 0.134554 0.391386 -0.027995 -0.915813 
-1.336890 0.257697 0.219099 -0.053707 -0.139477 -0.979251 
3.328017 -0.013510 0.712771 -0.591823 0.209805 0.768322 
-3.370812 0.459551 -0.188963 0.013382 0.179619 0.966162 
0.201177 1.022508 0.039967 0.681718 0.227986 -0.660099 
1.964395 0.452286 0.170510 -0.073259 -0.144430 0.931682 
2.834492 0.959893 0.306703 0.327903 0.317428 -0.871221 
-1.759948 0.860853 0.266884 -0.138924 -0.087160 0.961740 
-0.380720 0.334847 0.069228 -0.729634 0.070250 -0.664255 
0.054344 0.843995 0.453104 0.155848 -0.062063 0.981063 
-0.597593 -0.124201 0.090147 -0.463921 -0.002425 -0.836126 
-0.923729 0.140480 0.282242 -0.067511 -0.191735 0.972807 
0.760556 -0.986181 0.147483 0.075613 -0.091647 -0.984469 
2.853539 0.653280 0.273712 0.393887 0.158891 -0.898797 
0.869776 0.368631 0.298746 0.053990 0.229016 0.948946 
-0.325690 -0.162277 0.212953 -0.442281 -0.201427 0.812041 
-1.373958 0.002984 0.213936 -0.032304 -0.093759 -0.980736 
-2.407183 0.294852 -0.030968 0.230325 0.013526 -0.955789 
0.219493 -0.702440 0.166875 0.217223 -0.115973 0.942747 
-0.781406 -0.494886 0.204258 0.004937 -0.033391 0.994493 
2.828160 0.817207 0.278648 0.334888 0.039982 -0.940268 
0.604887 0.153719 0.119698 0.475210 -0.001906 -0.811568 
0.309734 0.683290 -0.070363 0.576847 0.517406 -0.613385 
-0.282052 -0.010659 0.242299 -0.261774 -0.238048 0.890409 
0.189348 -1.179738 0.185149 -0.067529 0.070142 0.728607 
-0.188265 0.358708 0.387724 -0.123908 -0.319512 0.938149 
0.228607 -1.239275 0.173648 -0.430123 -0.282641 -0.837844 
2.478316 0.666170 0.220594 0.167224 -0.244321 -0.934836 
2.008112 0.225872 0.135193 -0.003631 -0.168140 -0.978559 
-0.341321 0.752682 0.109853 -0.812021 0.436331 -0.343912 
-0.368162 0.743252 0.182843 -0.879183 0.417107 -0.137698 
2.641885 0.396467 0.243884 -0.187143 0.036010 0.978374 
0.167399 -0.760302 0.006824 -0.030807 -0.383942 -0.905847 
-3.925762 0.485932 -0.071109 -0.261720 -0.082550 -0.960116 
0.440096 0.099396 0.060217 0.614531 0.002634 -0.747948 
2.318209 0.754682 0.201751 0.213006 -0.261054 -0.919757 
-0.416229 -0.301577 0.108089 -0.246143 -0.143257 0.941813 
0.357074 -0.682768 0.036476 0.411477 -0.113527 -0.877787 
1.095337 -0.840631 0.161131 0.036067 0.057153 -0.994806 
-0.879507 -0.297178 0.194230 -0.191776 -0.011531 -0.970029 
-0.558095 0.241310 0.308318 0.065917 -0.299679 0.946436 
2.175076 0.023525 0.169515 -0.074074 -0.209916 -0.965456 
-2.442231 0.120223 -0.006654 -0.471049 0.171755 0.836953 
1.476830 0.392658 0.181587 0.064992 -0.182635 -0.980644 
-1.815190 0.924060 0.173834 0.110179 0.135502 -0.982391 
3.157222 0.326018 0.459545 -0.397770 0.328336 0.851773 
1.281791 -0.455321 0.201595 -0.047941 -0.009928 0.994311 
-1.443384 -0.471856 0.264387 0.052190 0.042901 0.988129 
-1.338892 0.417286 0.221177 -0.058953 -0.173020 -0.977837 
-0.981284 0.400670 0.233739 0.014407 0.311502 -0.918523 
-3.253268 0.891465 -0.228152 -0.055811 0.141267 0.968298 
-0.288831 0.146230 -0.148714 -0.744738 -0.029329 -0.646984 
2.453444 0.121529 0.205010 0.391592 -0.093954 -0.900330 
1.008121 -0.307505 0.205151 0.085505 0.028871 -0.993819 
0.923270 0.172451 0.274143 0.106915 -0.196315 0.969980 
3.119759 0.839666 0.403927 -0.404186 -0.009738 0.879881 
-1.668579 0.831668 0.279914 -0.010870 0.113009 0.969643 
2.426528 -0.596691 0.471964 0.303073 -0.373701 -0.869340 
2.025646 0.952121 0.168617 0.303239 -0.331157 -0.882804 
-1.577292 -0.380974 0.235622 -0.019321 -0.109292 -0.980273 
-0.475582 -0.019140 0.059577 -0.577962 -0.005242 -0.773764 
2.958825 -0.181679 0.491464 0.372794 -0.349885 -0.852077 
-1.514835 -0.344077 0.245354 -0.004909 0.050430 0.985651 
-3.595599 0.745384 -0.175337 0.166059 -0.009114 0.973961 
-1.707765 0.575168 0.244689 -0.242649 -0.223877 0.921758 
-0.277202 -0.698533 0.006514 -0.002502 -0.346283 -0.919220 
0.181487 -0.377447 -0.165581 0.500240 -0.262784 -0.811779 
-1.729543 0.049311 0.198267 0.081074 -0.172428 -0.973529 
-2.055738 -0.497650 0.295363 0.154549 -0.305047 -0.919796 
-0.498809 0.312067 0.326979 0.073743 -0.272486 0.946572 
1.572790 -0.607964 0.185142 0.124888 -0.138724 -0.973003 
-0.258022 0.684739 -0.089174 -0.523811 0.519492 -0.647329 
0.205678 0.740357 0.428158 0.316765 0.282924 0.881694 
-1.050304 -0.437865 0.206495 -0.149747 0.047169 -0.986598 
-2.609071 0.084033 -0.073728 -0.341063 0.192111 0.895576 
2.567726 0.388586 0.230337 -0.157928 0.014568 0.985405 
-0.673624 0.099805 0.142096 -0.433009 -0.006261 -0.837653 
-0.048274 0.299666 -0.332680 -0.564898 0.097257 -0.803189 
1.069744 -0.039734 0.244845 0.052365 -0.132080 0.980983 
0.064589 -1.071221 0.159959 0.114161 -0.416942 -0.883085 
-2.650476 -0.306953 0.036067 0.106153 -0.274489 -0.951779 
2.552090 0.151161 0.216039 0.325442 -0.106748 -0.928928 
3.738224 0.431662 0.971677 0.718334 -0.120892 -0.682882 
-2.049369 -0.644800 0.355337 0.106265 -0.337269 -0.921878 
-1.983563 -0.451088 0.301790 -0.103857 0.236247 0.959134 
-0.763120 0.181721 0.293463 -0.007345 -0.238347 0.961383 
-1.264714 -0.658370 0.233367 -0.143612 -0.005962 -0.984864 
0.030713 0.143135 0.307559 0.054334 -0.242299 0.963991 
0.285419 0.794929 0.052620 0.701631 0.436679 -0.501872 
1.968316 0.918542 0.201520 0.216227 -0.197865 0.925619 
3.225847 0.334315 0.513698 -0.440186 0.302091 0.831300 
0.209966 0.042919 -0.206904 0.648307 -0.052714 -0.727874 
-2.107600 1.038541 0.120211 0.284486 0.088816 -0.953704 
-3.417441 0.611545 -0.209937 0.099766 0.005803 0.981301 
-2.542657 -0.545156 0.171818 -0.392337 0.325342 0.822596 
-2.779435 0.935383 -0.154561 0.199658 0.067439 -0.975988 
-2.121164 0.787391 0.120225 0.166800 -0.234847 -0.931043 
1.852450 -0.220422 0.162857 -0.109051 0.143274 0.977135 
-2.909041 0.335145 -0.182435 0.248736 -0.308059 -0.909181 
-2.096752 0.360451 0.133446 -0.117852 -0.129497 0.962782 
1.879592 -0.574455 0.318568 0.255154 -0.381697 -0.872261 
0.018589 0.907053 0.459255 0.135741 0.003661 0.979095 
-0.935290 0.341192 0.221165 -0.139268 0.138114 -0.962467 
0.000264 -0.673445 -0.040999 0.720147 -0.322721 -0.610535 
0.201444 -1.059339 0.142248 -0.208253 -0.359485 -0.906454 
2.810555 -0.334565 0.446888 -0.351787 0.301636 0.882504 
3.300776 0.290340 0.589816 -0.490847 0.277505 0.807124 
-3.048429 0.577164 -0.223210 -0.000768 0.059886 -0.984343 
3.226182 0.540950 0.450355 -0.503749 0.116260 0.847782 
-1.122221 -0.114092 0.249968 0.006783 -0.082511 0.986860 
-1.326971 0.792369 0.259188 0.213683 0.309425 -0.874530 
0.590040 0.465802 0.368689 -0.065315 0.193309 0.969438 
-3.610610 0.012870 -0.077577 -0.110869 -0.202110 -0.971922 
-2.504744 -0.742117 0.258851 0.295849 -0.358249 -0.881408 
-3.616625 0.220396 -0.113020 -0.158526 -0.137789 -0.973176 
-0.702577 -0.452896 0.176146 -0.066116 -0.053996 0.982268 
0.524387 -0.321559 0.113778 0.230532 -0.118568 0.952009 
-0.101646 0.352163 0.389930 -0.072147 -0.344463 0.932989 
-3.368780 0.308180 -0.159710 -0.013775 0.254450 0.952191 
-0.246950 0.439717 0.393336 -0.112501 -0.246739 0.957912 
-1.542199 -0.270031 0.220416 -0.000884 -0.097294 -0.979928 
-0.509801 -0.061557 0.205981 -0.080279 -0.208507 0.947273 
1.774424 0.569782 0.191143 0.094773 -0.204593 0.940897 
0.108505 -0.685108 -0.026886 -0.014122 -0.436933 -0.899272 
-0.254250 0.084239 0.260744 -0.148721 -0.260830 0.939567 
-3.337754 -0.086082 -0.073443 0.010575 -0.259464 -0.953853 
1.273623 -0.762316 0.169183 -0.041735 -0.038038 0.994015 
1.797847 0.209360 0.144317 0.075456 -0.182241 -0.979382 
0.099041 -0.914526 0.083084 -0.008075 -0.430016 -0.894195 
0.608498 -1.021547 0.140280 -0.005439 0.051502 0.994229 
0.222714 1.105880 0.125018 0.867053 0.389676 -0.294579 
3.355419 0.206487 0.657076 0.647916 -0.122705 -0.739869 
0.644835 0.523338 0.259528 0.309723 0.524633 -0.700047 
2.896685 0.652001 0.333747 -0.290639 0.012603 0.923646 
-1.993377 -0.354860 0.266922 -0.117902 0.210851 0.963858 
-1.964489 -0.718497 0.383036 -0.034437 0.295948 0.949120 
-2.846784 0.501727 -0.175353 -0.208478 0.011275 0.960706 
-1.174366 0.587193 0.282607 0.066234 0.245772 0.961492 
