-0.401152 -0.769876 0.254761 0.411878 0.062250 0.820354 
-0.421963 -1.007165 0.250134 -0.619373 -0.036970 -0.709913 
-0.826799 0.672634 0.836389 -0.839556 0.128422 -0.524904 
0.075882 0.374533 -0.385494 0.509676 0.139780 -0.827749 
1.230008 -0.513944 2.296299 -0.817958 0.512664 0.084954 
-0.791003 -0.799672 1.259532 -0.873094 -0.356986 -0.283425 
-0.680744 0.258506 0.482726 -0.911959 -0.081991 -0.395455 
-0.661599 -0.149073 0.603785 0.871811 0.002329 0.469029 
0.420184 -0.738832 0.286065 0.632770 -0.198308 -0.701021 
0.488944 -0.924513 0.365105 0.670747 -0.119312 -0.680666 
-2.085649 0.238774 2.747256 -0.948567 -0.237399 -0.171342 
-0.448693 0.151051 -0.008377 -0.876924 -0.095321 -0.469058 
-0.143479 0.413650 -0.337315 -0.547367 0.160015 -0.793920 
-0.340617 0.352201 -0.237366 -0.699471 0.028104 -0.699412 
-0.341082 -0.237502 -0.136774 -0.684021 -0.217507 -0.649353 
0.534449 -0.702818 0.430637 -0.598100 0.020043 0.697820 
0.027833 -1.083548 0.027328 0.301542 -0.171882 -0.937287 
0.196519 -0.417649 -0.225784 0.431749 -0.352687 -0.821729 
0.900329 0.549530 1.018596 -0.840417 0.034389 0.511558 
0.540133 -1.007108 0.362876 0.645961 0.165427 -0.698655 
0.136786 -0.098681 -0.326735 0.481962 -0.153004 -0.842550 
0.845145 0.404420 0.891285 -0.756402 -0.226064 0.606745 
-0.285243 0.955103 0.183207 -0.910474 0.297633 0.220904 
0.057191 1.029741 0.371551 0.164866 0.034071 0.979937 
1.316398 0.369451 3.224762 0.799407 0.069626 0.513481 
0.394253 0.318365 0.194168 -0.399403 -0.235295 0.812208 
-0.816495 -0.523673 1.042422 0.895096 0.193003 0.366223 
0.975160 -0.779260 2.154591 0.780732 -0.615765 -0.041815 
1.427042 -0.107818 2.544699 0.842966 -0.530012 0.006858 
-1.753222 0.317008 2.035598 -0.641138 -0.306175 -0.680391 
0.045677 0.295506 -0.425045 0.505095 0.067076 -0.848940 
-0.445734 0.000749 0.007606 -0.863300 -0.111425 -0.487275 
1.338363 0.005519 2.930472 0.863891 -0.256602 0.402174 
-0.978113 0.538745 1.044980 -0.871877 -0.290410 -0.384192 
-2.034283 0.059316 2.932353 -0.942940 -0.295131 -0.099492 
-1.921904 0.517589 2.200421 -0.835388 -0.028776 -0.547574 
1.013492 0.155729 1.149948 -0.809654 -0.042264 0.502002 
-0.408706 0.623235 -0.097338 -0.696661 0.360695 -0.542120 
-1.678252 -0.480558 2.346726 0.798496 0.403422 0.397806 
0.120466 -1.227893 0.139920 -0.109774 -0.298950 -0.824627 
-1.163182 -0.219600 1.525019 0.826659 0.222586 0.491295 
0.021024 1.073596 -0.113420 0.314544 0.319508 -0.886521 
-0.049592 -0.187888 -0.337510 -0.395229 -0.256449 -0.849213 
-0.057655 -1.032627 0.017588 -0.303144 -0.186374 -0.931650 
1.329686 0.834654 1.590523 0.910632 0.070569 -0.260267 
1.094445 0.575037 1.282630 -0.791800 -0.260347 0.524997 
0.191952 0.645639 0.340039 0.265295 0.215791 0.908791 
1.531409 0.163243 2.445385 0.857252 -0.440393 -0.193786 
1.113288 -0.482858 1.515731 0.824048 -0.447047 -0.274720 
-1.845464 -0.289601 2.680202 -0.814019 -0.465912 -0.294126 
0.585324 0.290421 0.247255 0.902239 -0.034130 -0.419274 
0.493465 -0.746181 0.370759 0.684931 -0.143956 -0.659815 
1.391014 0.171984 2.986434 0.884430 -0.279960 0.348232 
1.568432 0.618941 2.634300 -0.938179 0.276709 0.093448 
-1.873614 0.561366 2.157202 -0.842980 -0.026789 -0.535101 
1.445313 0.229487 2.014449 0.934531 -0.144081 -0.268728 
0.561993 -0.016357 0.264768 0.872021 -0.082433 -0.480851 
0.136947 1.264820 0.150386 0.544612 0.793175 0.123433 
-0.660838 -0.178778 0.521924 -0.896781 -0.098009 -0.429452 
1.506778 0.387783 2.504072 -0.939810 0.112670 0.011455 
1.461987 0.028966 2.108994 0.937127 -0.204087 -0.216380 
-0.993819 -0.944878 1.980673 -0.643089 -0.564213 -0.506401 
-0.017796 1.314707 0.128197 -0.281230 0.804417 0.478138 
-0.696434 0.173894 0.562545 -0.899272 -0.166127 -0.403047 
-0.005292 0.581558 -0.353543 -0.381586 0.353724 -0.849502 
0.347548 -0.204634 0.088372 0.286854 -0.123964 0.870646 
-0.467736 -0.763977 0.336002 -0.694577 -0.156866 -0.636965 
1.222074 0.102650 1.478087 -0.874713 0.025292 0.364005 
-1.514921 -0.447738 2.077182 0.558864 0.413823 0.642845 
0.303412 -0.253750 0.128611 0.563704 -0.129875 0.779107 
0.140926 -0.460478 -0.214761 0.321174 -0.448204 -0.820860 
-0.492073 0.120566 0.094483 -0.884169 -0.092019 -0.456745 
0.982305 -0.620099 1.122591 0.904684 -0.246296 -0.342103 
0.060483 0.153388 -0.412537 0.497538 -0.022902 -0.855391 
1.179187 -0.013822 3.233675 -0.819497 0.360398 -0.441723 
0.868700 -0.028058 0.863503 0.879637 -0.172706 -0.426807 
-1.633432 -0.603482 2.412359 0.772805 0.469638 0.409302 
1.230062 0.720682 1.376561 0.824866 0.032359 -0.518663 
-1.305277 -0.376725 1.757928 -0.500728 -0.455368 -0.723144 
0.282304 -0.660079 0.092886 0.259261 -0.065723 0.900414 
0.713742 -0.344500 0.627275 0.867615 -0.048788 -0.491866 
-0.301665 0.896228 0.051313 -0.896638 0.331190 -0.234927 
-1.879059 -0.244444 2.735153 -0.824694 -0.460024 -0.271311 
-0.695965 0.064476 0.574123 -0.900283 -0.145319 -0.407853 
-1.988209 -0.064795 2.977468 0.918233 0.350312 0.109934 
0.989822 -0.656338 1.576572 -0.833075 0.525903 -0.073234 
0.770664 -0.199866 0.717016 0.876405 -0.099952 -0.462445 
-0.671268 -0.340735 0.586609 -0.873279 -0.095159 -0.450006 
-1.513430 -0.307788 1.934798 -0.789975 -0.387397 -0.459899 
-1.078415 0.068666 1.385695 0.789995 0.060388 0.541335 
0.335284 0.749746 -0.056392 0.708411 0.530622 -0.404422 
0.185904 0.631323 -0.265384 0.469734 0.362194 -0.790642 
-0.442173 -0.513306 0.174377 0.360398 0.022501 0.847755 
-0.739128 -0.262789 0.767497 0.888899 0.079581 0.437436 
1.388733 -0.023744 1.726312 0.979688 -0.155205 -0.120962 
0.301228 -0.284140 -0.180418 0.558618 -0.269561 -0.754042 
0.842396 0.282827 0.801886 0.880584 -0.206566 -0.417022 
-0.650669 0.449218 0.557570 0.801206 0.319760 0.477248 
-2.047722 0.115873 2.847570 -0.941672 -0.279080 -0.137059 
0.400493 0.513371 0.267665 -0.756961 0.254180 0.594859 
0.212490 -0.556986 0.122374 0.351434 -0.152995 0.915340 
0.804913 -0.240689 0.773960 0.877678 -0.112009 -0.453723 
-0.287372 0.311467 0.203945 -0.157371 -0.226414 0.957474 
-1.520868 -0.688355 2.296656 0.730331 0.489993 0.466494 
1.107317 -0.523318 1.665671 -0.858849 0.468905 -0.126746 
-0.543821 0.240613 0.198456 -0.889238 -0.121510 -0.437046 
-1.725440 0.522301 2.108618 0.719390 0.056295 0.590443 
-1.028000 -0.551585 1.609254 -0.704478 -0.458647 -0.490882 
-0.160392 1.065440 0.210487 -0.513192 0.801636 0.183483 
-1.241542 0.824220 1.590993 0.727387 0.374986 0.370336 
-0.718440 0.449769 0.629068 -0.796824 0.309546 -0.490681 
-1.273625 0.929793 1.612477 0.676313 0.185187 0.602705 
-0.744251 0.257186 0.648311 -0.898798 -0.196219 -0.389483 
0.587504 -0.422844 0.507789 -0.700715 0.028880 0.618562 
0.963084 -0.699204 1.678466 -0.819234 0.545034 -0.039559 
0.386435 0.173853 0.154435 -0.307298 -0.217888 0.839627 
-1.326627 0.564107 1.590177 -0.902406 -0.169999 -0.380944 
-0.150856 0.976581 -0.103629 -0.569078 0.352644 -0.725119 
1.337644 -0.281702 2.512030 -0.878051 0.369064 -0.158436 
0.566624 0.258365 0.439757 -0.739574 -0.188105 0.628942 
0.732616 -0.638527 0.694407 -0.861175 0.005001 0.491990 
0.367769 -0.469504 -0.070718 0.769058 -0.182868 -0.599256 
-1.390016 -0.251934 1.814392 0.378285 0.315864 0.844428 
1.470063 0.738208 2.175230 -0.841432 0.381335 0.244371 
-1.068482 -0.749533 1.870700 0.746200 0.497260 0.400693 
1.151374 -0.222351 3.057992 0.817274 -0.423295 0.371391 
-1.155255 -0.639002 1.861928 0.785455 0.462912 0.363224 
-0.380301 0.307207 -0.161929 -0.783053 -0.025079 -0.591366 
0.385481 -0.288561 -0.094487 0.814191 -0.157957 -0.555153 
0.293146 0.482582 0.243601 0.112774 -0.198956 0.968827 
-0.379809 0.173462 -0.141648 -0.783978 -0.097833 -0.574629 
-1.419653 0.689240 1.771144 0.640079 -0.051295 0.736681 
0.216395 -1.082379 0.137754 0.127372 0.211529 0.887133 
-1.102195 0.621774 1.365970 0.762411 -0.255953 0.580727 
-1.570105 -0.402320 2.103756 0.637917 0.396647 0.597669 
1.059268 -0.527668 1.240657 -0.907694 0.238303 0.343145 
0.691577 0.262653 0.487878 0.909355 -0.071459 -0.404365 
0.770967 -0.649159 0.765198 0.882092 -0.104740 -0.435988 
-0.485341 -0.859427 0.362085 0.548439 0.018121 0.711309 
0.595752 -0.078046 0.471119 -0.755173 -0.067350 0.598595 
0.930812 -0.029626 0.962529 0.881797 -0.203960 -0.408474 
1.555376 0.258475 2.416956 0.850997 -0.417157 -0.293485 
1.348996 0.327800 1.705104 0.948172 -0.229012 -0.017318 
-2.058360 0.176104 2.720699 -0.940648 -0.254659 -0.186681 
-0.116003 -0.284337 -0.288246 -0.418946 -0.293262 -0.834821 
0.992864 -0.088815 1.113121 -0.849708 0.071064 0.453448 
-0.459490 0.327395 -0.030994 -0.890647 -0.009272 -0.430202 
-1.844903 -0.260638 2.598616 -0.790053 -0.480460 -0.338111 
-0.530680 -0.950755 0.404359 0.617519 -0.034927 0.658676 
0.852962 -0.825457 1.167622 0.861427 -0.388856 -0.206651 
0.259123 -0.756801 -0.025471 0.265593 -0.335532 -0.837414 
1.565146 0.577335 2.553260 -0.967303 0.170817 0.125926 
-1.831976 -0.090975 2.290133 0.872267 0.232803 0.349684 
1.064059 0.346853 1.231695 -0.805051 -0.138767 0.505851 
0.217976 1.101356 0.355221 0.597748 0.551464 -0.560040 
0.308051 0.881852 0.161334 0.895219 0.289980 0.206082 
-1.977046 0.003844 2.551251 -0.843597 -0.402727 -0.313756 
-0.037950 0.745392 -0.251021 -0.404060 0.369528 -0.829341 
1.410692 0.456107 1.904741 0.906969 -0.291283 -0.222475 
0.703878 0.492494 0.597990 0.810314 0.241252 -0.502602 
1.310375 1.101690 1.597893 0.882712 0.235994 -0.293406 
-0.061129 0.918364 -0.163657 -0.436816 0.426787 -0.772775 
-0.072912 -0.845774 0.102739 -0.099867 -0.134511 0.945421 
0.167577 -0.771321 -0.029895 0.198800 -0.382998 -0.897047 
1.540261 0.211609 2.559583 0.947991 0.016015 0.235440 
1.107431 -0.184459 1.290515 -0.870295 0.164370 0.401128 
-1.290790 0.477106 1.651094 0.602481 -0.040404 0.756192 
-0.247965 -0.200178 0.151744 -0.465844 -0.122404 0.835360 
1.463240 0.477670 2.319285 -0.917383 0.069257 0.126009 
-0.561131 -0.149373 0.394839 0.675059 -0.036993 0.627844 
1.076045 0.170721 1.247530 -0.824444 -0.037399 0.473875 
0.148017 1.194147 -0.001284 0.704722 0.476388 -0.462370 
-1.683733 0.667726 1.973546 -0.858844 -0.037824 -0.507721 
-0.972388 0.626215 1.179635 0.858588 0.182712 0.428915 
0.235678 0.292438 0.233685 0.215032 -0.252645 0.940826 
0.252352 -0.195624 0.149546 0.474139 -0.125496 0.828879 
0.145609 1.096004 0.360572 -0.041536 0.037525 0.931526 
1.280277 0.184366 1.593900 -0.915944 -0.043519 0.190805 
-0.986583 0.393650 1.181581 0.776200 -0.153064 0.571495 
0.082458 0.522471 0.344379 0.165403 -0.256499 0.944905 
-0.767139 0.323986 0.784434 0.806990 -0.185466 0.553653 
-0.252538 0.941662 -0.013884 -0.769506 0.327739 -0.467278 
-1.282907 0.162353 1.614674 0.848712 -0.018596 0.470738 
-1.418898 -0.750866 2.249660 -0.711814 -0.518319 -0.465348 
0.631007 -0.081994 0.539508 -0.810239 -0.056366 0.555706 
-1.583130 -0.645375 2.319899 -0.753699 -0.497406 -0.428728 
-2.028395 0.080484 2.789218 -0.953059 -0.244996 -0.119477 
-0.221020 0.885298 0.298565 -0.635349 0.096418 0.761207 
1.333545 0.610055 1.659113 0.914620 -0.337900 -0.112995 
-0.885662 -0.332684 1.076060 0.861295 0.177718 0.449846 
0.989276 -0.473594 1.105747 0.895762 -0.227473 -0.366871 
-1.066992 -0.197249 1.394779 0.803860 0.211855 0.521631 
-2.139800 0.400747 2.858028 -0.984789 0.047029 -0.018119 
-0.170099 1.103027 0.277152 -0.799468 0.410595 -0.247085 
0.234869 1.081692 0.177015 0.873179 0.454207 0.096955 
-0.585574 0.022013 0.322458 -0.893374 -0.099285 -0.436612 
-1.809162 -0.326857 2.602823 0.870093 0.353578 0.262022 
0.016600 0.634350 0.359875 0.034809 0.166135 0.980447 
1.171586 0.042792 3.286876 -0.819381 0.330877 -0.464272 
0.266732 -0.862532 0.022197 0.507616 -0.280451 -0.810574 
0.360241 0.247902 0.169594 -0.131700 -0.232532 0.882336 
-1.146543 0.685382 1.439422 0.758290 -0.281483 0.582498 
1.102216 0.271037 1.220605 0.878434 -0.282093 -0.383721 
-1.220524 -0.191582 1.568803 0.853416 0.187559 0.461859 
1.051810 0.658165 1.260557 -0.840824 0.035109 0.521169 
0.650444 -0.925862 0.534042 -0.750607 -0.100636 0.610426 
1.309789 -0.347072 2.473663 -0.870625 0.408349 -0.115678 
0.832664 -0.406889 0.878669 -0.887053 0.108696 0.426910 
-1.370560 -0.526928 1.970966 -0.776020 -0.469754 -0.409514 
1.508611 0.118847 2.527483 -0.938575 0.172474 -0.132055 
-0.456402 -0.306197 0.078096 -0.839281 -0.141816 -0.518396 
1.145368 -0.635313 2.339916 0.815528 -0.574222 0.024522 
1.376612 0.064395 1.863465 -0.897012 0.099533 0.399380 
1.299148 0.823990 1.663499 -0.871860 -0.044848 0.469331 
0.625815 -0.616949 0.524060 0.787877 -0.068111 -0.570801 
-0.260471 0.037346 0.155265 -0.273992 -0.188883 0.918741 
-0.000364 0.233687 0.253117 -0.018930 -0.254986 0.961857 
0.182526 0.077941 0.184695 0.230956 -0.181330 0.948773 
-1.248856 -0.425215 1.756190 0.865239 0.397527 0.288844 
-0.666586 -0.251106 0.552867 -0.887313 -0.104756 -0.438757 
1.347373 -0.034189 2.867733 0.869831 -0.257767 0.381561 
0.287258 -0.861090 0.093655 -0.065461 0.039112 0.954777 
-0.447484 0.416934 0.345509 0.772286 0.087265 0.601573 
-0.897573 0.235188 1.032387 0.793585 -0.091696 0.556034 
0.935516 0.351541 1.031739 -0.771375 -0.168680 0.568923 
-1.729718 -0.301934 2.279588 0.816040 0.332271 0.409862 
0.496561 0.621905 0.275385 -0.701207 0.419321 0.573840 
-0.468529 0.346669 0.329172 0.723033 -0.075176 0.649586 
-1.851656 -0.183260 2.424249 -0.737524 -0.512489 -0.433749 
0.288036 0.263759 0.191126 0.170489 -0.233022 0.954586 
1.396858 -0.220813 2.166916 -0.900584 0.371096 0.143151 
-0.053681 1.328483 -0.013743 -0.625021 0.521431 -0.523189 
-0.312621 -0.007263 -0.223230 -0.633796 -0.142807 -0.730319 
0.812598 -0.891781 1.790286 0.756487 -0.643727 -0.092851 
-0.984606 -0.070318 1.224101 0.808628 0.106995 0.524990 
0.154742 -0.586871 -0.127028 0.204513 -0.476479 -0.850626 
1.541679 0.428216 2.778758 -0.942403 0.128241 -0.174594 
1.171915 -0.411918 2.733115 -0.829997 0.485148 -0.193133 
0.989340 -0.694001 1.856197 0.748769 -0.602601 -0.228329 
0.446900 -0.217465 0.128921 -0.385202 -0.060443 0.854065 
-0.143399 -0.691992 -0.076528 -0.105896 -0.406797 -0.900167 
1.129588 -0.505400 1.731509 -0.860455 0.465259 -0.146226 
1.046246 0.428432 1.122587 0.876344 -0.274967 -0.394186 
0.468033 0.572528 -0.032034 0.802007 0.256895 -0.470559 
0.391551 0.302743 -0.138453 0.804198 -0.033276 -0.563269 
0.229240 0.900470 0.288577 0.673117 0.095849 0.713284 
-0.959066 0.494189 1.120060 0.771912 -0.218867 0.580766 
1.412642 0.360683 1.951825 -0.897795 -0.075876 0.330647 
1.236061 -0.508152 2.425962 -0.848043 0.500146 -0.051010 
-1.098069 -0.329193 1.445257 -0.805374 -0.316768 -0.497341 
1.498142 0.561698 2.178205 0.994764 -0.004412 -0.024048 
0.736567 -0.089469 0.654381 0.877174 -0.102645 -0.462962 
1.230304 0.246274 3.306520 0.836417 -0.241702 0.477193 
1.363224 -0.097917 2.730070 -0.885687 0.283266 -0.301853 
1.096897 -0.587439 1.962890 -0.708726 0.535096 0.348938 
1.164263 -0.437579 1.589651 0.807893 -0.458055 -0.319621 
-0.681078 -0.541279 0.618644 0.874269 -0.012435 0.454249 
0.112091 -0.386971 -0.265278 0.377607 -0.370343 -0.834558 
-0.787988 -0.538817 0.973813 -0.903177 -0.216424 -0.339488 
-1.912019 -0.087544 2.516128 0.932443 0.221381 0.212188 
0.866666 -0.819156 1.063403 0.893232 -0.293134 -0.282077 
-0.471000 -0.442401 0.202541 0.399836 0.016978 0.815738 
1.449350 -0.090173 2.102161 0.943260 -0.263565 -0.133960 
-0.173840 -0.574204 -0.126966 -0.153580 -0.475253 -0.848791 
-0.346526 -0.020350 -0.157539 -0.693099 -0.169274 -0.648354 
-1.493932 0.239818 1.782297 -0.771674 -0.142238 -0.577197 
0.266447 -0.148005 -0.241339 0.553311 -0.195699 -0.785823 
1.232670 -0.114303 1.501749 -0.912527 0.133564 0.256778 
1.171493 0.211055 1.396706 -0.845397 -0.039771 0.433549 
-0.292164 -0.254983 -0.202757 -0.557615 -0.247339 -0.771440 
1.267191 0.686247 1.465224 0.859972 -0.291956 -0.417979 
-0.073485 0.257883 0.257009 -0.102236 -0.266865 0.947981 
0.643616 0.217423 0.421841 0.889991 -0.153176 -0.426489 
0.019496 -0.037201 0.200042 0.095739 -0.098315 0.985620 
-1.561643 0.727448 1.853652 -0.867201 -0.047402 -0.492970 
1.447474 0.574118 1.973729 0.985259 -0.101069 -0.110799 
-0.650890 0.232637 0.597485 0.821407 -0.146688 0.546009 
0.243896 1.246072 0.423210 -0.660268 0.545204 0.512897 
1.273987 -0.254894 1.660383 0.803871 -0.354668 -0.439374 
-0.951215 -0.517540 1.273824 -0.857742 -0.291526 -0.394203 
0.249864 0.540529 0.281519 0.185695 -0.203492 0.948559 
0.575239 0.502145 0.216456 0.873217 0.305954 -0.345453 
0.361687 -0.412194 0.055456 0.312992 -0.060085 0.837284 
1.374048 0.183720 1.847143 -0.888157 0.010545 0.389534 
1.530351 0.182588 2.304846 0.878910 -0.354865 -0.285761 
0.066436 1.249850 0.219557 0.036336 0.850603 0.493589 
-0.233499 -0.756643 0.100126 -0.113168 -0.040968 0.888972 
1.318545 -0.086682 1.617369 0.827627 -0.224168 -0.500559 
-1.556030 0.570077 1.877661 0.658053 -0.129782 0.690571 
-1.959445 0.397469 2.390547 0.852502 0.151327 0.410795 
1.424774 0.642129 1.940305 0.993588 0.002351 0.007003 
0.617324 0.193945 0.518611 -0.781057 -0.163039 0.585946 
0.051807 -0.685206 0.142018 0.281583 -0.159216 0.920231 
-1.072438 -0.619075 1.730884 -0.598714 -0.522962 -0.555210 
0.592988 0.171063 0.313004 0.885031 -0.123874 -0.444937 
-1.839486 0.666993 2.168490 0.758188 0.117460 0.630082 
1.102377 0.662914 1.191198 0.648868 0.342127 -0.564825 
0.101249 1.282726 0.012777 0.719847 0.548887 -0.352362 
1.196420 0.647207 1.353281 0.863996 -0.285962 -0.413582 
0.501178 -0.263865 0.160315 0.835458 -0.126141 -0.528763 
1.015859 -0.333754 1.150313 -0.890863 0.185445 0.391303 
0.015057 0.047187 -0.408640 0.434165 -0.105916 -0.865063 
-0.219446 -1.343100 0.206868 -0.487745 -0.002558 0.627693 
-0.239322 0.656816 0.322425 -0.389535 0.225206 0.853337 
0.186797 -0.847408 0.006739 0.197267 -0.369371 -0.904462 
-1.347574 -0.163679 1.679888 -0.489089 -0.281203 -0.798939 
-1.778755 -0.399493 2.626001 -0.809014 -0.467768 -0.309745 
-1.051492 0.510844 1.189727 -0.847429 -0.307944 -0.421521 
1.315251 -0.052864 1.758252 -0.942834 0.142715 0.183600 
-0.640604 0.015306 0.568700 0.835392 -0.074704 0.515326 
-1.887366 0.452930 2.165057 -0.855137 0.027302 -0.504442 
1.245482 -0.038475 1.472930 0.870747 -0.282616 -0.391722 
1.251303 -0.456654 2.127636 0.858029 -0.499924 0.050521 
0.466047 0.222136 0.021420 0.880098 -0.092394 -0.464656 
-1.913344 0.605302 2.209430 -0.853738 -0.005516 -0.519029 
0.413870 0.136917 -0.082395 0.859505 -0.104134 -0.491634 
1.489505 0.656021 2.182601 0.998408 -0.021993 -0.026554 
0.481645 -0.850859 0.361511 -0.509407 0.025540 0.762678 
0.348133 -0.131648 0.086572 0.176390 -0.136992 0.916326 
-0.410912 -1.059672 0.187887 0.452710 -0.184357 0.822698 
0.385183 0.517037 -0.161085 0.699034 0.187520 -0.642036 
1.205765 -0.475134 1.944083 0.852530 -0.509047 0.075493 
-0.425264 0.605371 0.210635 0.384741 0.408107 0.627546 
-0.501643 0.303647 0.068791 -0.894960 -0.029538 -0.427732 
0.776613 -0.584712 0.807798 -0.893188 0.099952 0.418015 
0.938630 -0.250490 0.987414 0.882291 -0.178233 -0.414655 
0.067919 -0.896493 0.091456 0.079775 -0.126132 0.938662 
0.524245 -0.100352 0.316809 -0.602045 -0.079796 0.708562 
-0.051419 -1.119494 0.030301 -0.286387 -0.173504 -0.941450 
-0.540013 0.549953 0.124847 -0.899199 0.280605 -0.303704 
-1.786735 -0.114037 2.186111 -0.748247 -0.395966 -0.517913 
0.695338 0.089552 0.552610 0.887200 -0.139135 -0.435435 
-1.016442 -0.492148 1.534674 -0.773102 -0.407442 -0.459188 
-1.693448 -0.540354 2.557588 -0.802879 -0.469979 -0.329233 
-0.523471 0.172733 0.367878 0.724627 -0.169683 0.634554 
1.436576 0.443360 3.083834 0.824449 0.168094 0.491632 
-0.928828 -0.142890 1.068054 -0.854071 -0.233256 -0.446101 
-1.714014 0.571308 1.995948 -0.861028 -0.007704 -0.497296 
0.278557 -0.742699 0.098392 0.162507 -0.031310 0.916002 
1.270241 0.368038 1.488446 0.864886 -0.290125 -0.404835 
1.074686 -0.568636 1.852989 -0.812867 0.519626 0.134102 
0.126559 0.776928 0.333495 0.167754 -0.013695 0.981957 
-0.820103 -0.466754 0.993332 -0.889629 -0.214220 -0.371880 
-0.242624 0.885155 -0.077477 -0.685692 0.392687 -0.590143 
-1.117838 0.356099 1.345476 -0.821730 -0.320492 -0.463383 
1.303051 -0.358517 2.124905 -0.808199 0.441733 0.239664 
-1.996125 0.166247 2.434067 0.811906 0.359736 0.414017 
-0.258184 0.278415 -0.311457 -0.655524 -0.002552 -0.747259 
1.231147 -0.473185 2.054786 0.853315 -0.511802 0.080103 
-1.815589 0.593458 2.100994 -0.847740 -0.030279 -0.526869 
-0.301996 0.910929 0.122035 -0.916919 0.305519 0.019214 
-0.932560 -0.603733 1.472635 -0.801016 -0.410116 -0.398909 
-0.533214 0.474258 0.400905 0.759343 0.361973 0.527674 
0.368908 0.762754 0.099197 0.889921 0.421098 0.020657 
-0.576710 0.215496 0.279452 -0.890944 -0.132741 -0.430479 
0.246817 -0.060483 0.156358 0.370730 -0.163152 0.875615 
-0.216776 0.582464 -0.265643 -0.510726 0.292141 -0.785862 
0.356678 0.419065 -0.207645 0.696607 0.074897 -0.687932 
-0.096201 -0.196249 0.192259 -0.172818 -0.043120 0.978180 
-0.598243 0.351815 0.258760 -0.912163 0.028629 -0.385158 
1.024976 0.564048 1.072051 0.860988 -0.159579 -0.438262 
0.680480 0.243090 0.632870 -0.818233 -0.147701 0.553248 
0.266425 1.015241 0.102263 0.902301 0.368297 -0.087924 
-0.504812 0.600789 0.063092 -0.852723 0.382100 -0.286687 
-0.240690 -0.868203 0.112520 -0.087326 0.075031 0.942710 
0.246760 0.942336 -0.025075 0.751980 0.330183 -0.500083 
0.526545 -0.199222 0.299302 -0.552120 -0.044251 0.733470 
1.268834 -0.096833 2.958215 0.847841 -0.321782 0.383046 
0.871761 -0.554855 0.937730 0.898442 -0.188173 -0.380740 
0.460331 -0.043747 0.041590 0.852718 -0.111044 -0.504866 
-0.500567 0.343689 0.393074 0.752667 -0.046980 0.622954 
1.400407 0.535810 1.923693 -0.864457 -0.171311 0.345520 
0.900891 -0.723512 1.022122 -0.914400 0.193719 0.348992 
0.925937 0.160252 1.013217 -0.802114 -0.076681 0.529996 
-1.715980 0.080593 2.010704 -0.695639 -0.217085 -0.661317 
-0.867880 -0.814404 1.693128 -0.703854 -0.560812 -0.403110 
-0.573209 -0.894312 0.466452 0.684322 -0.023577 0.602196 
-0.476628 0.651521 0.233409 0.549806 0.449531 0.593652 
0.591140 -0.333529 0.447131 -0.654614 0.014962 0.648668 
0.817961 -0.475283 0.864556 -0.891462 0.112798 0.418011 
-0.118486 -0.002321 -0.352900 -0.500543 -0.102411 -0.840578 
-0.942118 0.294738 1.111938 0.782050 -0.106977 0.567116 
-1.725261 0.012316 2.047185 0.744822 0.212641 0.621002 
-1.977852 0.015975 2.621810 0.830434 0.438133 0.309229 
0.035727 -0.489383 -0.213530 0.151733 -0.598669 -0.771679 
0.191156 0.299024 -0.343079 0.605923 0.035091 -0.777309 
-1.165760 -0.742601 1.964315 -0.621390 -0.528794 -0.570850 
-1.998612 0.072775 2.462634 -0.863744 -0.364324 -0.323065 
-1.269622 -0.734142 2.079490 0.560143 0.489612 0.613939 
1.500884 0.044449 2.532767 0.857290 -0.493895 -0.036109 
-0.778760 -0.143967 0.765084 -0.889912 -0.145772 -0.419782 
-0.806593 0.251550 0.852147 0.813354 -0.143994 0.539882 
-0.191804 1.128241 0.001195 -0.741035 0.414541 -0.449859 
1.250180 0.174657 1.465121 0.872450 -0.292826 -0.386565 
0.430449 -0.005388 0.142427 -0.469605 -0.139962 0.817325 
-2.024403 0.142943 2.503544 -0.969437 -0.152298 -0.172354 
-0.503150 0.082516 0.320206 0.679930 -0.140252 0.661089 
1.006031 0.556290 1.144744 -0.770669 -0.268595 0.565116 
1.483071 -0.038905 2.296472 0.901820 -0.390902 -0.116415 
1.369797 0.679383 1.972939 -0.867240 -0.004191 0.329805 
0.696593 -0.038442 0.569736 0.881532 -0.107452 -0.455459 
-1.121797 0.160966 1.454122 0.784493 0.017874 0.545295 
1.368231 0.401722 3.144238 -0.887775 0.209267 -0.392557 
-1.287060 -0.245714 1.652013 -0.560461 -0.329215 -0.717157 
-0.433153 0.550061 -0.086146 -0.758920 0.228696 -0.540594 
-0.099264 0.366512 -0.374806 -0.527332 0.124352 -0.817701 
0.201421 -0.499416 -0.163109 0.235760 -0.461490 -0.818602 
-1.391268 -0.630878 2.108119 0.556594 0.466995 0.617682 
-0.875964 -0.688323 1.502060 0.800758 0.430186 0.375379 
-1.702771 -0.256847 2.150320 -0.756365 -0.382023 -0.517884 
-1.706977 0.496900 2.027654 0.684967 0.011667 0.685062 
-0.118773 -0.886726 -0.020292 -0.172028 -0.298039 -0.920685 
-0.164526 0.213843 0.239212 -0.235942 -0.220950 0.944503 
-1.370195 0.328039 1.652565 -0.896875 -0.166487 -0.387923 
0.138491 1.243107 0.064415 0.721937 0.615927 -0.102627 
-2.008277 0.425273 2.337135 -0.858569 -0.085454 -0.477533 
-0.961366 -0.566473 1.541561 -0.777709 -0.435434 -0.426487 
0.973985 0.378523 1.092033 -0.778827 -0.175654 0.554263 
-0.473858 -0.933066 0.343078 -0.698907 -0.118078 -0.634735 
-2.107887 0.337199 3.014642 -0.960275 0.049894 0.038632 
-1.832264 0.531415 2.218933 0.760627 0.104174 0.550198 
1.540550 0.588172 2.482507 -0.954685 0.149145 0.148944 
-2.098901 0.269519 2.990940 -0.968502 -0.209887 -0.059380 
1.470862 0.303660 2.095570 0.903498 -0.256435 -0.276841 
-1.059242 -0.676176 1.775358 -0.606200 -0.530143 -0.547111 
-1.536559 0.607429 1.816327 -0.691978 -0.324726 -0.622838 
0.372795 0.096535 -0.135491 0.756857 -0.129976 -0.590051 
1.333797 -0.162352 2.718914 0.823360 -0.534746 0.110020 
1.056613 0.622637 1.103821 0.715439 0.257912 -0.568524 
-0.909732 0.702327 0.976971 -0.776497 0.215376 -0.528655 
1.266119 0.352530 1.563636 -0.881330 -0.124762 0.294336 
0.309000 -0.622553 -0.060539 0.616965 -0.246702 -0.719693 
0.808420 -0.033373 0.825631 -0.834706 -0.031596 0.514228 
-0.426192 -0.305606 0.009577 -0.832457 -0.146266 -0.529326 
-1.720943 0.409785 2.023511 0.698946 -0.028467 0.664447 
1.287682 0.233851 3.202091 -0.845548 0.165232 -0.469385 
1.128367 0.620683 1.336147 -0.796350 -0.278758 0.515316 
0.671690 -0.859158 0.578558 -0.772956 -0.053459 0.587354 
0.863521 -0.802653 1.510506 0.776714 -0.612676 -0.076954 
0.559265 0.521145 0.149910 0.890824 0.271343 -0.340489 
1.373032 0.032962 1.778776 0.981991 -0.104305 0.050272 
1.277582 1.041806 1.570263 -0.851977 0.229614 -0.245677 
-0.353532 0.430727 -0.215073 -0.685670 0.086465 -0.700280 
0.005055 -0.391669 -0.304641 0.295986 -0.423840 -0.849100 
0.808722 -0.404492 0.810900 0.887884 -0.138133 -0.423211 
-0.709722 0.573477 0.650035 0.857051 0.162991 0.460099 
-0.500671 -0.370166 0.210758 -0.829097 -0.142093 -0.519794 
1.327980 0.337871 1.601963 0.830974 -0.244449 -0.490399 
-0.611556 0.592728 0.475102 0.797090 0.242218 0.514246 
-0.040211 -0.029301 -0.380071 -0.434003 -0.148239 -0.857151 
1.339810 -0.009298 1.652181 0.816969 -0.213062 -0.527098 
-1.188501 0.096709 1.509486 -0.771252 -0.321329 -0.531862 
0.510339 0.330187 0.394580 -0.738243 -0.076301 0.639027 
-1.893497 0.536517 2.265477 0.775922 0.123134 0.552120 
1.091928 0.584481 1.188255 0.870081 -0.277177 -0.406714 
-1.977352 -0.113066 3.044921 -0.935011 -0.340838 -0.060322 
-1.922032 0.238055 2.268309 0.720669 0.293585 0.557457 
0.122945 0.240897 -0.387906 0.560061 0.005439 -0.815942 
0.254033 0.417523 0.255535 0.160519 -0.228357 0.953742 
-1.164391 0.628445 1.478383 0.760667 -0.243628 0.577098 
1.351747 0.710656 1.825037 -0.860594 -0.048712 0.438890 
1.168996 0.064399 1.390475 -0.858318 0.041985 0.412979 
1.119972 0.690471 1.354865 -0.815069 -0.073194 0.545028 
-0.166194 1.254897 0.258078 0.214440 0.940700 0.187453 
0.519684 0.015834 0.333500 -0.657052 -0.122096 0.681985 
0.623812 -0.841238 0.521207 0.772681 -0.034441 -0.594917 
-0.194520 -0.876853 0.015641 -0.183577 -0.348378 -0.916787 
0.414010 -0.128982 -0.050951 0.836048 -0.132451 -0.526368 
0.591450 -0.673103 0.484201 0.759761 -0.084265 -0.596228 
0.354814 -0.753355 0.128703 0.628301 -0.217141 -0.711238 
1.048420 -0.587439 1.610564 -0.846667 0.493863 -0.089943 
-0.920146 -0.832419 1.776923 0.736276 0.534698 0.389176 
1.505345 0.422727 2.589475 -0.934929 0.150763 -0.056635 
0.045373 0.630402 -0.314063 0.371647 0.389650 -0.832487 
-0.632135 0.043532 0.428188 -0.896254 -0.119382 -0.424327 
-1.570783 0.277136 1.857004 -0.710512 -0.150317 -0.657516 
1.176114 -0.577053 2.236913 0.829103 -0.551806 0.044616 
0.192586 -0.940391 0.101941 -0.283342 0.058619 0.889645 
-1.658876 0.505647 1.973695 0.585746 0.166697 0.756142 
0.301017 0.681788 -0.199760 0.525733 0.454022 -0.707143 
-1.329599 0.393974 1.598999 -0.652446 -0.242632 -0.646991 
-2.076438 0.257358 2.586990 -0.937773 -0.231848 -0.246602 
-0.020485 -0.454510 -0.256192 -0.225445 -0.517803 -0.811693 
-0.188171 -0.410448 -0.229480 -0.438529 -0.348404 -0.818312 
1.279997 0.071166 3.115772 0.844171 -0.312492 0.417591 
-0.348542 0.583962 0.225851 -0.335362 -0.023792 0.840693 
0.574375 -0.415399 0.426351 0.783846 -0.124536 -0.566019 
-0.765222 -0.832773 1.195437 -0.894767 -0.332961 -0.258359 
-1.540268 0.396933 1.847180 0.641735 -0.112118 0.706727 
-0.539693 -0.006210 0.379320 0.708491 -0.094764 0.624081 
-0.725135 -0.869061 0.787313 -0.913490 -0.065728 -0.360399 
1.301995 0.723048 1.521182 0.857033 -0.285655 -0.421824 
-0.106918 -1.075446 0.050941 0.213499 -0.061715 0.932271 
-0.907635 -0.075168 1.014352 -0.862683 -0.228022 -0.432437 
0.082699 1.159852 -0.068974 0.476269 0.261388 -0.825865 
-0.810045 -0.744434 1.140778 0.917069 0.250252 0.287961 
-0.002233 -0.548980 -0.167736 -0.501932 -0.480556 -0.637100 
1.390651 -0.014187 2.813271 0.879925 -0.333134 0.305977 
0.531753 -0.789470 0.422468 -0.585436 0.011668 0.709624 
0.974376 0.408708 1.007903 0.879873 -0.268627 -0.391197 
0.647625 -0.369444 0.579740 -0.789854 0.010019 0.557081 
0.228325 -0.346063 -0.231326 0.476904 -0.286692 -0.820181 
0.546864 -0.950525 0.419441 -0.599291 -0.044631 0.710375 
0.031607 0.773494 -0.242819 0.403013 0.374869 -0.828129 
0.033833 0.955554 0.370914 0.175223 0.025500 0.974176 
0.171210 -0.307446 0.178786 0.279882 -0.015123 0.944824 
1.064265 0.522452 1.234823 -0.788859 -0.237249 0.531832 
-0.388950 -0.232643 0.041094 0.183793 -0.078786 0.944149 
0.742035 -0.367204 0.696901 0.882496 -0.098745 -0.450293 
0.396400 0.695845 -0.061322 0.638943 0.631483 -0.371762 
0.337665 0.795081 0.017451 0.820568 0.474592 -0.266362 
-1.863594 0.226512 2.171673 0.770592 0.137160 0.609754 
1.547886 0.611180 2.395148 0.998915 -0.001378 -0.026989 
1.425463 0.001411 1.977946 0.961684 -0.137027 -0.124316 
-0.704974 -0.450268 0.755509 0.908417 0.079153 0.386995 
1.037990 -0.031111 1.133333 0.885521 -0.258052 -0.376795 
0.114273 0.643033 -0.287527 0.415032 0.391638 -0.811058 
1.461139 0.153100 2.064616 0.941341 -0.101696 -0.286939 
0.939474 0.089123 1.033023 -0.815561 -0.036783 0.509574 
-0.855375 0.068221 0.960407 0.823202 -0.026426 0.520542 
1.520308 0.524591 2.925797 0.822274 0.320357 0.413320 
1.033941 -0.717085 2.173843 -0.786654 0.582187 0.083408 
-2.026011 0.101438 2.717165 0.888140 0.338897 0.236300 
0.743816 0.622941 0.673900 0.814693 0.136833 -0.547006 
-1.699120 -0.309824 2.200351 -0.753847 -0.411177 -0.498040 
-1.089260 -0.264899 1.411757 -0.809313 -0.313862 -0.492289 
-0.044462 0.812256 -0.225970 -0.421897 0.392105 -0.810214 
0.800899 0.508635 0.797781 -0.844735 0.341625 0.397422 
1.464502 -0.000838 2.173984 -0.944191 0.238855 0.183524 
-0.043956 -0.930168 0.084079 -0.265440 -0.116802 0.928559 
-0.335647 -0.663529 0.046638 0.084241 0.002325 0.962025 
0.859338 -0.865654 1.979581 0.759666 -0.638690 -0.084050 
-1.921882 0.318981 2.210791 -0.893425 0.129396 -0.419595 
-0.520565 -0.322935 0.272005 0.493497 0.005329 0.744988 
-0.942545 0.687633 1.038372 0.811130 0.312605 0.357251 
-0.897059 0.370517 1.021316 0.779372 -0.162915 0.575716 
1.026773 0.704998 1.147218 -0.779106 0.436033 0.295995 
-0.936530 0.374636 1.092670 0.778271 -0.155026 0.573405 
0.115329 -0.261800 0.189649 0.196907 -0.013820 0.976177 
1.105545 -0.551178 1.780696 0.752625 -0.567923 -0.295555 
1.205443 -0.349928 2.742636 -0.839822 0.447017 -0.217804 
-0.189033 0.275380 -0.351094 -0.608640 0.010857 -0.781046 
-0.112669 -0.784974 0.104628 -0.061100 -0.133642 0.956959 
-0.116593 0.805081 -0.194675 -0.472830 0.425967 -0.757550 
-0.074988 0.556016 -0.331351 -0.435432 0.302577 -0.830437 
1.536174 0.363891 2.836868 0.936668 -0.190890 0.266635 
0.445528 0.359480 -0.059113 0.860780 0.023670 -0.466396 
-1.269209 -0.076085 1.576016 -0.623156 -0.260058 -0.687131 
-0.320706 0.628919 -0.219403 -0.565848 0.331452 -0.750315 
0.374885 0.700034 0.179343 0.594537 0.376019 0.570091 
0.084654 0.211371 0.239698 0.115682 -0.245966 0.952648 
0.685085 0.401860 0.556187 0.796436 0.371960 -0.448105 
0.418906 0.588471 0.220881 -0.469129 0.373540 0.624898 
1.013452 0.644200 1.182991 -0.803363 0.319694 0.355163 
-1.146211 0.779143 1.375311 -0.452746 0.624146 -0.550301 
-0.113651 1.043898 -0.089863 -0.469880 0.332266 -0.794141 
-0.123287 -0.288144 0.189138 -0.204088 -0.005232 0.976041 
0.613785 -0.762062 0.517972 -0.702383 -0.019040 0.630619 
0.312368 -0.393238 0.120941 0.618320 -0.109930 0.762241 
-1.453194 0.162942 1.742418 -0.832069 -0.143303 -0.491858 
-0.219118 0.212630 -0.325018 -0.615159 -0.024827 -0.772188 
0.097802 0.619675 0.361928 0.088305 0.198280 0.973997 
-0.758362 -0.600381 0.952946 -0.915343 -0.217227 -0.311172 
1.039309 -0.547409 1.447967 -0.856117 0.418933 0.160455 
1.209124 0.096360 3.259171 0.822388 -0.317107 0.462546 
-1.337037 -0.494975 1.902506 -0.783525 -0.462545 -0.403016 
1.461848 -0.049424 2.507452 0.858319 -0.498224 -0.014484 
-0.734278 0.466554 0.704818 0.833884 0.323267 0.422625 
0.416936 0.627793 -0.083321 0.706006 0.388409 -0.506526 
-0.477636 0.208173 0.289118 0.684467 -0.195319 0.676419 
1.578752 0.507142 2.452677 0.997548 -0.018831 -0.060334 
1.488585 0.491483 3.005825 -0.847990 0.433155 -0.199527 
0.395181 -0.041384 -0.095410 0.822824 -0.135412 -0.531596 
-0.897453 -0.251731 1.064559 0.850653 0.157978 0.477903 
0.778282 -0.032753 0.719743 0.876501 -0.126272 -0.453761 
0.561121 -0.104615 0.392829 -0.672330 -0.067814 0.656355 
-0.101441 -0.546789 -0.160464 -0.093095 -0.470493 -0.873142 
-0.136999 0.716154 -0.233973 -0.384530 0.519203 -0.746673 
-0.516078 -0.251215 0.277538 0.523495 -0.021008 0.732526 
-1.024945 0.664314 1.241076 0.794436 0.347893 0.318522 
0.104153 0.100881 -0.377977 0.512269 -0.054396 -0.839472 
-0.196883 1.242077 0.371741 0.536515 0.625880 0.520149 
-0.526307 -1.012648 0.340465 -0.665638 0.173638 -0.654517 
-1.952752 0.304586 2.278818 -0.904992 0.061383 -0.381634 
-0.862963 0.678295 0.900142 0.863394 0.127755 0.480315 
1.447650 0.428741 2.067780 -0.901794 -0.057909 0.300601 
-0.824448 0.031570 0.901946 0.834867 -0.022554 0.508280 
-1.147547 -0.496067 1.707320 0.839715 0.418300 0.318439 
-0.927367 0.480048 0.961192 -0.884967 -0.286165 -0.363344 
0.546803 0.262376 0.177563 0.894895 -0.067544 -0.438024 
-0.001575 0.311004 0.276847 0.003079 -0.306019 0.949909 
0.939184 -0.114136 0.980622 0.882173 -0.196842 -0.409246 
-1.029086 -0.338761 1.346899 0.828496 0.256625 0.483635 
0.397121 0.710881 0.047469 0.576720 0.804641 -0.070900 
-1.209268 -0.549630 1.835372 0.820980 0.437404 0.325244 
1.412692 0.281853 3.024836 -0.882759 0.130934 -0.399557 
1.099395 0.217380 3.485498 -0.816920 0.250574 -0.516221 
-1.778238 0.444882 2.061337 -0.885830 0.086981 -0.442717 
-0.129168 0.902806 -0.137405 -0.541395 0.396114 -0.716082 
-1.804740 -0.042076 2.190255 0.836680 0.229230 0.435189 
0.621782 0.424786 0.498813 -0.759260 0.412373 0.498576 
-0.364495 0.129478 0.138178 0.136839 -0.208899 0.888558 
-0.423095 0.301576 -0.086813 -0.853130 -0.038962 -0.492214 
0.099997 -0.083491 0.194364 0.172245 -0.092754 0.974123 
0.504953 0.086266 0.124717 0.873962 -0.084910 -0.477199 
1.058976 -0.147164 1.173295 0.886368 -0.253085 -0.375044 
0.676004 -0.149787 0.535809 0.875368 -0.072324 -0.477631 
1.139722 0.628922 1.262943 0.866857 -0.280996 -0.411022 
0.065815 -0.153871 0.194935 0.145596 -0.053294 0.981160 
-1.289783 0.874816 1.569732 -0.276739 0.202895 -0.894252 
1.191937 -0.600640 2.410666 -0.833584 0.551365 -0.024592 
-0.573829 -0.114683 0.315171 -0.882504 -0.104324 -0.453813 
0.519862 0.584039 0.136395 0.891304 0.329762 -0.261207 
0.633326 0.583835 0.503133 -0.802490 0.218262 0.518307 
-1.616354 -0.211504 2.000073 0.659772 0.328443 0.633704 
-0.608844 0.262423 0.542848 0.792994 -0.129449 0.581777 
-0.111118 1.177745 0.323690 0.332563 0.483497 0.776357 
-0.843816 0.182624 0.843973 -0.891434 -0.217909 -0.383395 
-0.369798 0.736553 -0.008455 -0.787137 0.529502 -0.280536 
-1.608942 0.710330 1.946772 0.622709 0.024402 0.739141 
-0.374963 0.275119 0.178783 0.251913 -0.232569 0.849110 
0.783307 -0.514860 0.792122 0.894202 -0.143489 -0.409450 
-0.266488 -0.879216 0.026279 -0.394259 -0.287950 -0.826525 
-0.716168 -0.708364 0.706887 -0.908396 -0.044810 -0.392031 
0.531781 -0.517133 0.433682 -0.609362 0.039941 0.683301 
-0.134013 1.138337 0.186392 -0.858027 -0.026944 0.396795 
-1.587591 -0.341444 2.054383 -0.773715 -0.388862 -0.485099 
-0.257376 -0.521851 -0.133022 -0.076844 -0.391549 -0.850392 
0.344331 -0.328332 0.096017 0.507234 -0.105426 0.782539 
0.756207 -0.791730 0.735377 -0.864920 0.019617 0.476062 
0.687342 0.003011 0.633609 -0.843279 -0.075560 0.523761 
-0.481877 0.234061 0.056883 -0.884484 -0.103581 -0.452825 
-0.824102 0.400670 0.735480 -0.879112 0.001180 -0.445093 
1.473931 -0.079804 2.213506 0.918739 -0.355939 -0.134661 
-0.724239 -0.347826 0.782223 0.900249 0.094954 0.404185 
0.740858 0.453571 0.699342 -0.823664 0.337447 0.434895 
0.356422 -0.630633 0.032018 0.689393 -0.203336 -0.663056 
-0.044780 0.008758 0.199292 -0.114066 -0.126366 0.980963 
-0.346961 -0.415673 0.071483 -0.384497 -0.078282 0.823171 
-0.768370 -0.460059 0.890423 -0.903116 -0.187055 -0.358821 
0.531554 0.364485 0.465299 -0.792965 0.037675 0.589438 
1.413164 -0.063216 2.677387 0.828087 -0.545474 0.060127 
0.561331 -0.853584 0.452563 -0.619990 -0.007501 0.689083 
0.174121 0.262932 0.254427 0.241113 -0.240545 0.938480 
1.552645 0.584516 2.695665 -0.944138 0.230490 0.000145 
-1.290445 0.611267 1.634914 0.507182 -0.191527 0.803516 
-1.068606 0.724611 1.252442 0.728448 0.557359 0.191917 
-1.440281 -0.502303 2.037592 0.462988 0.433429 0.699764 
-0.077579 0.186719 0.231954 -0.112115 -0.231537 0.957180 
0.542947 0.449683 0.101258 0.908808 0.124023 -0.370553 
0.755786 -0.575903 0.728525 0.877795 -0.088579 -0.451636 
0.442905 0.208907 0.216780 -0.612166 -0.212049 0.738073 
-0.095421 -0.408562 -0.265664 -0.366813 -0.391366 -0.833004 
1.418145 0.198063 1.927643 0.953942 -0.092797 -0.227558 
-1.818777 0.431033 2.170959 0.753848 0.060133 0.584990 
-1.569210 -0.277805 2.000045 0.600228 0.352804 0.658995 
-1.351861 -0.085379 1.636604 -0.501823 -0.212589 -0.813328 
0.565161 0.341754 0.186600 0.903534 0.016284 -0.405025 
1.428197 0.060868 2.808778 0.890231 -0.186339 0.393369 
-0.642499 -0.493928 0.574768 0.816479 0.010918 0.501024 
0.934240 0.367141 0.945655 0.881515 -0.259025 -0.392198 
-0.324786 0.204347 0.150494 -0.143981 -0.222949 0.960796 
1.167021 0.350706 1.391980 -0.831321 -0.119075 0.456461 
-1.179619 -0.894347 2.137382 0.651589 0.529909 0.533529 
-0.095525 -0.542346 0.156181 -0.207317 -0.164855 0.961868 
-0.041724 1.135266 0.335170 0.067559 0.409658 0.877339 
1.312691 0.270871 1.577832 0.838402 -0.251700 -0.471956 
-0.685031 -0.417988 0.630931 0.887679 0.005350 0.444925 
0.248807 0.738306 -0.180036 0.538713 0.527941 -0.641712 
-0.039392 1.117018 -0.100985 -0.370144 0.283438 -0.876887 
-0.890496 -0.188175 0.997905 -0.860871 -0.206188 -0.445975 
0.962969 0.551545 0.943107 0.767363 0.187639 -0.572025 
0.476537 -0.143621 0.207451 -0.484247 -0.078082 0.790038 
1.192588 0.712750 1.316247 0.737663 0.241770 -0.568150 
-0.947376 -0.073362 1.150992 0.817859 0.090589 0.516818 
-0.755179 0.436017 0.788798 0.844925 0.236453 0.454786 
-0.272028 0.125395 0.154257 -0.188890 -0.212066 0.955696 
-1.516999 0.156445 1.824497 0.629942 0.026600 0.747964 
0.283198 0.416399 -0.278050 0.627005 0.100916 -0.761462 
-0.231088 1.070688 0.202049 -0.841984 0.494734 0.170795 
0.950114 -0.688230 1.499349 -0.827748 0.525683 0.002034 
-0.313595 -1.090048 0.131803 -0.466728 -0.068032 -0.821659 
-0.825406 -0.741732 1.210333 -0.889711 -0.312587 -0.295381 
-1.119241 0.618783 1.296584 -0.829939 -0.319349 -0.447543 
-0.241462 1.024915 0.016081 -0.813826 0.357551 -0.380097 
1.337162 -0.221797 1.937788 -0.794504 0.357248 0.403790 
0.532700 -0.459484 0.385910 -0.571601 0.029331 0.708352 
1.234645 -0.160174 2.954457 0.813072 -0.497538 0.248181 
-2.109417 0.364997 2.592930 -0.944345 -0.190906 -0.244664 
1.540610 0.196920 2.375481 0.863990 -0.403915 -0.267442 
-1.911583 0.474725 2.312044 0.806762 0.132138 0.489891 
0.920061 0.065995 0.940020 0.881327 -0.211365 -0.407980 
0.586552 -0.062199 0.325278 0.871007 -0.081557 -0.482664 
-0.406903 -0.375430 -0.023574 -0.822052 -0.156422 -0.544309 
-0.785093 -0.132573 0.835376 0.863476 0.042640 0.473828 
0.549850 -0.614567 0.453443 -0.628606 0.023372 0.674063 
-0.181703 -0.556885 0.131742 -0.275567 -0.167505 0.944185 
0.827724 0.039774 0.794416 0.878146 -0.161066 -0.436331 
-2.059164 0.493509 2.479050 0.874166 0.102537 0.386053 
-0.206525 -0.793645 -0.025192 -0.144340 -0.384255 -0.904058 
0.716118 0.048824 0.680455 -0.830324 -0.092528 0.535926 
-1.493145 0.085155 1.780096 -0.823894 -0.095574 -0.521478 
0.459865 0.347538 0.308268 -0.706180 -0.086027 0.666116 
1.077206 0.391112 1.174300 0.876107 -0.278278 -0.392081 
0.815170 0.589573 0.776129 0.758282 0.251311 -0.579106 
-0.577527 -0.761192 0.470613 -0.789678 -0.077770 -0.540323 
0.925511 -0.708295 1.292590 -0.857718 0.402672 0.194936 
0.494826 0.000950 0.112866 0.863100 -0.097262 -0.491579 
0.835824 -0.828796 1.337402 0.811028 -0.540535 -0.088000 
0.793116 0.106086 0.804377 -0.808633 -0.105198 0.551369 
-0.377275 -1.120936 0.162662 0.274991 -0.175460 0.798163 
-1.029904 0.736162 1.178069 -0.607809 0.431026 -0.542504 
-0.387408 -0.677094 0.143379 0.305580 0.038953 0.894945 
-2.053063 0.160354 3.262326 -0.967011 -0.238180 0.033903 
-0.647980 0.174529 0.449849 -0.896056 -0.149558 -0.414844 
-1.004119 -0.487740 1.414551 -0.820623 -0.342878 -0.430838 
1.166468 -0.290642 1.380830 -0.891378 0.239910 0.360624 
1.490330 0.074233 2.675350 -0.922349 0.163549 -0.344645 
0.506920 -0.350278 0.224251 -0.430269 0.003482 0.805046 
-0.624057 -0.826022 0.527494 -0.829604 -0.030841 -0.500597 
-1.558059 -0.468814 2.144611 0.637108 0.420328 0.580157 
0.297445 -0.122193 0.135900 0.434486 -0.160280 0.839266 
-2.067103 0.189084 3.159956 -0.966572 -0.232232 -0.001425 
0.582395 -0.223942 0.336344 0.852832 -0.101208 -0.506960 
1.335092 0.104920 1.634069 0.822053 -0.224014 -0.513824 
-0.726368 0.100931 0.632522 -0.900493 -0.161599 -0.399728 
1.197074 -0.079783 1.390957 0.884331 -0.295237 -0.359758 
0.310062 -0.991897 0.156835 -0.256179 0.080612 0.936920 
-0.833063 0.552452 0.873582 0.866763 0.339077 0.357437 
-1.983055 0.497476 2.357662 0.817629 0.153365 0.508797 
0.276982 -0.585473 0.095727 0.401893 -0.109858 0.876168 
0.201877 1.183656 0.402990 -0.422014 0.085100 0.859098 
-1.716341 0.594925 2.092882 0.701246 0.064345 0.619146 
0.198032 1.162002 0.088354 0.849919 0.482343 -0.162083 
0.393731 0.402775 -0.147042 0.761030 0.062181 -0.599065 
0.951127 -0.710853 1.601120 0.768534 -0.596015 -0.154760 
-1.544029 -0.242980 1.943462 0.550644 0.340092 0.705087 
1.274835 -0.218085 1.582734 0.834542 -0.285229 -0.442451 
1.472352 0.622837 2.093053 0.996949 -0.035799 -0.038205 
0.537846 0.529948 0.061668 0.914175 0.205131 -0.342363 
0.110869 -0.890539 -0.025316 0.218626 -0.286189 -0.907850 
-1.540561 -0.134797 1.898698 0.608083 0.266872 0.711460 
-0.242760 -0.210391 -0.245088 -0.531364 -0.216922 -0.799580 
0.081577 -0.743308 -0.068012 0.106553 -0.372298 -0.905872 
-0.598828 -0.251453 0.453600 0.698710 0.013532 0.592617 
-1.657834 -0.288587 2.092522 -0.763366 -0.359702 -0.525611 
0.429556 0.540748 -0.093600 0.756269 0.216998 -0.551154 
0.499656 0.623091 0.193906 0.868225 0.429118 -0.194385 
1.573693 0.527905 2.634661 0.981665 -0.042473 0.061207 
-1.450014 -0.607957 2.147369 0.583440 0.463649 0.594524 
0.391470 -0.800058 0.261272 -0.389175 0.068154 0.840836 
-1.769419 0.132299 2.076373 0.743180 0.153165 0.642181 
1.387301 -0.194382 1.994386 0.928053 -0.330224 -0.016369 
1.156860 -0.529981 2.004115 -0.711139 0.517851 0.357121 
-0.606883 0.077566 0.365554 -0.894257 -0.117107 -0.429030 
1.135751 -0.149547 3.171110 -0.814860 0.412160 -0.400854 
-0.723383 0.297574 0.576581 -0.885439 0.094403 -0.401459 
1.061341 0.282986 1.154211 0.879792 -0.278194 -0.383736 
1.569939 0.436644 2.634512 0.974184 -0.094080 0.071334 
0.140588 -0.802379 0.114903 -0.130932 -0.059389 0.909974 
-1.592700 0.623278 1.974440 0.652075 0.021743 0.660237 
1.300171 -0.178484 1.640712 0.815842 -0.280102 -0.476394 
-0.939925 -0.442760 1.208691 -0.855707 -0.267257 -0.414714 
0.316121 -0.798306 0.066125 -0.157096 0.051996 0.973326 
-1.798149 -0.262893 2.388773 0.868830 0.295436 0.309898 
-0.718040 0.393304 0.690620 0.816704 0.367955 0.433027 
0.888199 -0.757080 1.352581 0.821234 -0.509829 -0.121287 
0.153839 0.578655 0.345388 0.273354 -0.232122 0.931695 
1.072124 -0.543486 1.534955 0.805091 -0.494665 -0.241620 
-1.688421 -0.378530 2.251503 -0.751780 -0.441540 -0.476606 
-2.000776 -0.015984 2.919636 0.906635 0.356485 0.136558 
0.487578 -1.009309 0.314476 0.619496 0.080243 -0.721131 
-0.061404 -0.825891 -0.042003 -0.174277 -0.310790 -0.914436 
1.311070 -0.104064 1.694545 -0.973101 0.110719 -0.057100 
-2.131055 0.437960 2.795292 0.956872 0.212438 0.168559 
0.434078 -0.848369 0.307210 -0.443485 0.045359 0.806516 
0.302725 0.335418 -0.277363 0.669819 0.034214 -0.732937 
-0.728929 -0.788744 0.855658 0.918466 0.094006 0.338402 
0.420762 -0.116502 0.097136 -0.389328 -0.103501 0.863095 
-0.530383 0.369496 0.105874 -0.903754 0.040299 -0.396529 
1.300998 -0.147736 1.785050 -0.814145 0.257667 0.436247 
-0.791201 -0.400564 0.933627 0.889563 0.145520 0.402635 
-0.348949 0.494569 0.212191 0.042477 -0.040207 0.889380 
-1.645999 -0.343537 2.143340 0.747711 0.374323 0.533755 
-0.899455 0.627297 0.975712 0.839165 0.332250 0.350124 
0.237215 0.894802 -0.080764 0.684107 0.379223 -0.609709 
1.429893 0.514532 2.016463 -0.880447 -0.120947 0.318486 
-0.662495 0.634527 0.560094 0.850669 0.096688 0.499930 
-0.630664 -0.090912 0.440336 -0.897437 -0.093507 -0.430451 
0.499564 0.115192 0.313918 -0.672149 -0.162877 0.682754 
0.492402 -0.161341 0.127865 0.845144 -0.116542 -0.515612 
1.378187 0.249609 3.079293 0.874096 -0.245489 0.397214 
-2.017889 0.089268 2.647372 -0.965695 -0.190176 -0.130703 
0.145028 0.863451 0.344080 0.302308 -0.085075 0.941481 
-0.440760 -0.706405 0.302301 -0.672026 -0.187804 -0.659248 
-0.411877 -0.538095 0.106296 0.284577 0.018120 0.904709 
0.909301 -0.753745 1.549167 0.773092 -0.603411 -0.116015 
-2.147313 0.502636 2.695899 0.734755 0.556925 0.361588 
0.716321 -0.690506 0.648921 -0.846957 -0.036554 0.523566 
-0.101671 -0.623919 -0.119167 -0.021591 -0.437461 -0.898542 
0.289821 0.851156 0.229228 0.790026 0.263321 0.492037 
0.676953 -0.141946 0.615540 -0.849758 -0.022783 0.516656 
-0.261249 0.941402 0.249114 -0.806014 0.115960 0.535427 
-0.173105 -0.191955 0.180950 -0.281272 -0.069685 0.937878 
1.497071 0.072262 2.455670 -0.938095 0.202178 -0.077344 
1.223600 0.036226 1.427808 0.879983 -0.296198 -0.368913 
0.431719 0.422297 -0.090573 0.809980 0.085738 -0.522844 
-0.098093 -0.463035 0.176961 -0.174177 -0.149276 0.971048 
-1.812290 -0.356292 2.685937 -0.821169 -0.460979 -0.284223 
0.103073 0.520320 -0.333733 0.474362 0.261733 -0.823130 
-0.612987 -0.103480 0.514851 0.810219 -0.031057 0.527297 
-1.053042 0.660032 1.174148 -0.583871 0.458301 -0.562650 
-1.386984 -0.715834 2.179818 -0.720343 -0.510466 -0.457957 
1.478431 0.463975 2.250961 -0.929268 0.041513 0.209285 
0.646756 -0.436146 0.548701 0.814003 -0.081221 -0.540295 
0.920004 -0.725278 1.215055 -0.875948 0.342254 0.238824 
1.348041 0.417560 1.703328 0.936886 -0.258142 -0.063964 
-0.060909 0.747508 0.333589 -0.088983 0.008059 0.994661 
