-2.429330 1.840059 -1.224151 0.514972 0.237985 -0.819187 
-2.269118 1.260686 -1.028002 -0.615515 -0.032930 0.769145 
0.414398 0.331872 0.361067 0.171949 -0.257544 0.946140 
-0.041762 0.723230 0.492315 -0.066058 0.030942 0.993689 
-0.152919 0.200539 -0.214765 -0.655537 0.022181 -0.730402 
0.709278 -0.438753 0.042567 -0.029110 -0.026935 -0.954484 
2.216668 1.052899 -0.256312 -0.129545 -0.000640 -0.984992 
1.298781 0.980321 -0.008090 0.532314 -0.185838 0.797779 
-0.535853 -0.123516 0.155412 -0.393296 -0.203083 0.879424 
-1.202114 0.847375 -0.011159 0.291430 -0.090294 -0.941901 
-1.064739 0.221979 0.056283 -0.470318 -0.172170 0.853400 
-1.719191 1.380928 -0.380728 0.575254 -0.279779 -0.732977 
-1.628029 -0.073263 -0.236974 0.389434 -0.000398 -0.908252 
-0.314490 0.859626 0.342786 -0.874405 0.331742 0.305618 
-2.193698 1.095472 -0.953106 0.683824 -0.248341 -0.674143 
-1.231408 0.465868 -0.054331 0.320895 -0.027143 -0.929921 
-0.888872 0.073527 0.120205 -0.333249 -0.218502 0.906617 
2.668226 1.171358 -0.282886 0.037737 -0.120641 -0.978438 
2.728411 1.412608 -0.244430 -0.098745 -0.043520 0.980577 
-2.706281 1.368242 -1.322243 -0.515763 0.146723 0.824750 
-2.409384 0.779450 -1.061421 0.635818 -0.222401 -0.733123 
2.825248 0.630232 -0.212234 0.089297 -0.175808 -0.972181 
-1.498553 1.386729 -0.112204 0.423664 -0.221732 -0.876308 
1.716766 1.532830 -0.123046 0.380404 -0.055515 0.900798 
-0.404622 0.570157 0.157953 -0.695877 0.337145 -0.620073 
-1.823300 1.279429 -0.490778 -0.840163 -0.031271 0.486870 
-0.365486 0.438527 0.411584 -0.134106 -0.203889 0.968266 
2.423527 0.289670 -0.180977 0.113170 -0.130564 -0.977704 
-0.099562 0.409085 0.455945 -0.078630 -0.335599 0.936895 
-0.151693 0.811416 -0.016280 -0.512096 0.445482 -0.719928 
-2.208475 0.131279 -0.617826 0.656984 -0.290863 -0.666550 
0.890735 0.532803 0.105169 -0.423331 0.326378 -0.802305 
0.517390 -0.507464 0.041773 0.166328 -0.046847 -0.929227 
2.038416 0.218712 -0.161574 -0.019483 -0.236561 -0.933970 
0.177614 0.648381 -0.109986 0.540087 0.362027 -0.733864 
3.039114 0.889430 -0.172496 -0.241686 -0.034286 0.962660 
-2.145913 1.515301 -0.962570 0.688444 0.020280 -0.715817 
0.069914 0.017901 -0.247558 0.529246 -0.052387 -0.826815 
2.157980 0.966184 -0.253012 -0.040004 0.065896 -0.983802 
0.099587 -0.576925 0.253368 0.174937 -0.199958 0.962687 
0.093946 0.151297 -0.251363 0.586123 0.013728 -0.792806 
2.211585 1.536796 -0.238311 0.017339 0.075872 -0.994378 
-0.559128 -0.003833 0.196749 -0.346136 -0.248408 0.886164 
-1.167632 0.561940 0.031844 -0.597105 -0.173153 0.763562 
1.457647 1.536792 -0.076846 -0.246562 0.296240 0.814975 
-1.259486 -0.020436 -0.060560 -0.400922 -0.104721 0.903850 
2.248694 0.101622 -0.133811 -0.060035 -0.242964 -0.953604 
0.069214 0.678677 0.501250 0.063781 0.104456 0.986099 
-0.119909 1.219856 0.440490 0.308909 0.759490 0.524230 
0.238577 -0.275824 -0.104621 0.596092 -0.168559 -0.771376 
-0.895219 -0.014550 0.082081 -0.369268 -0.180730 0.902858 
-1.000727 -0.024118 -0.001930 0.190567 0.086344 -0.939863 
-0.442739 -1.187179 0.141633 0.145878 -0.215745 -0.963005 
-2.122271 1.694647 -0.915342 -0.720733 0.088165 0.672020 
0.357270 -0.604266 0.047571 0.306719 -0.073898 -0.914169 
-0.452572 0.533161 0.391509 -0.261690 0.116828 0.897865 
-1.948744 1.322222 -0.670646 -0.802530 0.005249 0.561665 
0.295054 0.217059 0.345895 0.157467 -0.323419 0.932324 
1.864802 1.531953 -0.136418 0.304779 -0.057503 0.910928 
2.000157 1.117699 -0.219359 -0.054503 0.014789 -0.976157 
0.359786 -0.797987 0.069534 0.194659 -0.146519 -0.936172 
-1.741560 0.804153 -0.316932 0.574582 -0.192410 -0.763935 
-1.430524 1.681420 0.002474 0.048516 -0.133706 0.928152 
1.269344 1.116938 0.005060 0.574196 -0.228600 0.777236 
-1.398949 0.229727 -0.157245 0.408352 -0.012411 -0.888323 
1.478158 0.565544 -0.119104 -0.146984 -0.066981 -0.985174 
1.407406 0.993905 -0.056534 0.462880 -0.176065 0.830332 
1.417927 -0.533102 -0.210994 -0.307749 0.109605 -0.934000 
1.550276 0.219228 -0.161925 -0.153615 0.009866 -0.982066 
0.030513 -0.536410 0.279641 0.244021 -0.179934 0.939409 
-0.396787 0.479040 0.157099 -0.659565 0.272179 -0.689223 
-0.579855 -1.006768 0.085743 -0.244873 0.175592 0.945157 
-0.689758 0.373777 0.101254 -0.108794 0.170366 -0.901820 
-0.563671 -1.107972 0.106149 0.152054 -0.269563 -0.947917 
-0.565332 0.568549 0.258825 -0.167857 0.568143 -0.654365 
-1.000717 -0.292037 0.002740 -0.359254 -0.102760 0.921805 
-0.942513 0.592486 0.072935 0.321484 0.159674 -0.905198 
-0.019184 1.021344 0.529167 -0.155523 0.109320 0.978742 
0.424506 -1.114760 0.133868 -0.073003 -0.208702 -0.970519 
-1.941612 0.376010 -0.448120 0.626855 -0.193660 -0.733783 
-2.525573 1.545514 -1.247247 -0.556784 0.040861 0.825122 
-0.789278 -0.825260 -0.009544 -0.313300 -0.026228 0.939008 
-0.566462 -0.813079 0.092921 -0.318513 0.032244 0.942740 
-0.223964 1.111848 0.214041 -0.869542 0.420108 -0.224595 
-1.867331 0.817704 -0.539618 0.841966 -0.338173 -0.398346 
-2.208481 1.491496 -1.002090 -0.697951 0.105816 0.691747 
-2.237069 0.214216 -0.673154 -0.562246 0.132052 0.797947 
2.990978 1.093438 -0.200789 0.285398 0.109692 -0.946111 
-1.612285 1.115660 -0.208615 0.495263 -0.208822 -0.822150 
-2.856734 1.496619 -1.416623 -0.462683 -0.008136 0.881837 
-2.119122 0.630754 -0.742364 0.553663 -0.112734 -0.820549 
1.731953 1.097835 -0.198055 -0.208846 -0.143500 -0.942648 
0.226497 -1.090433 0.179217 -0.260542 -0.374583 -0.884154 
1.179998 -0.340150 -0.077382 0.347874 -0.124575 0.924857 
-1.804346 0.844924 -0.383095 -0.629560 -0.087712 0.751519 
2.609277 1.312282 -0.269756 0.015615 0.030492 0.987173 
1.597922 1.285590 -0.118090 0.304715 -0.269846 0.843816 
0.586793 -0.786921 0.093658 0.306992 0.030009 0.946495 
-0.036039 0.816871 0.506739 -0.118962 -0.125241 0.981323 
-0.795319 -0.955135 0.024434 -0.207756 0.214695 0.937368 
1.238956 -0.642084 -0.144862 -0.262073 0.022907 -0.937874 
-1.756248 1.125658 -0.405928 0.526208 -0.072307 -0.813417 
-1.686327 1.194795 -0.266514 -0.748136 -0.058754 0.593229 
0.309069 0.850580 0.187697 0.870219 0.347042 -0.297152 
-0.229692 -1.090905 0.177065 0.256818 -0.373768 -0.885830 
-0.038643 -0.404663 -0.173223 -0.382211 -0.361433 -0.840263 
-0.196488 0.973374 0.073553 -0.637086 0.311426 -0.697577 
1.908844 0.815864 -0.211901 -0.181301 -0.231708 0.940652 
-0.096309 0.858396 0.506395 -0.230071 -0.086330 0.962895 
2.473164 1.369250 -0.249965 0.068011 -0.013733 0.977597 
-1.331075 0.483457 -0.105698 0.363673 -0.048776 -0.907896 
-2.479387 0.235063 -0.923395 0.637757 -0.248847 -0.724408 
-1.876078 0.338795 -0.384984 0.578808 -0.128932 -0.800421 
0.310161 0.103742 -0.017016 0.639047 0.002448 -0.745837 
-0.324921 0.229374 0.341395 -0.162478 -0.306782 0.936175 
1.655892 1.113646 -0.181748 -0.183947 -0.177562 -0.956293 
0.808165 -0.026802 0.102222 0.368952 -0.183164 0.901526 
-0.756196 -0.888030 0.004775 0.110368 -0.118354 -0.956705 
0.684127 -0.600188 0.077641 0.328869 -0.012668 0.936624 
-0.157945 -0.075524 -0.181570 -0.589248 -0.077988 -0.785532 
-1.591938 0.299487 -0.233143 -0.544663 0.015083 0.818691 
-1.437007 -0.003325 -0.161418 0.368863 0.023247 -0.914678 
3.232064 1.087476 -0.127197 -0.244503 0.049060 0.957317 
-1.983272 1.520075 -0.768650 0.691954 0.016381 -0.713742 
0.533081 0.646690 0.339048 -0.107004 0.210132 0.941222 
-2.547079 0.871805 -1.169706 -0.580878 0.092512 0.793598 
0.725748 -0.689682 0.034792 -0.092138 -0.066175 -0.970215 
1.107888 0.841856 0.023634 -0.176558 -0.104582 -0.978033 
0.138978 -0.078335 -0.195330 0.564054 -0.079387 -0.806184 
-2.032424 0.133265 -0.440305 0.585369 -0.190799 -0.777603 
1.421903 0.541969 -0.069542 0.363954 -0.070533 0.884259 
-1.257547 0.889834 0.016881 -0.682109 -0.205116 0.692002 
-1.273005 -0.258594 -0.127187 0.299251 0.134032 -0.943115 
-0.472589 0.443017 0.143460 -0.512589 0.240983 -0.748928 
1.361440 1.138623 -0.085380 -0.120730 -0.163150 -0.975832 
-0.066222 -0.073387 -0.229887 -0.504453 -0.115585 -0.826682 
3.175685 1.401434 -0.151398 0.280017 0.036434 -0.957676 
3.078797 1.209558 -0.175700 -0.200053 0.040568 0.965962 
-2.021047 0.755398 -0.675663 0.566244 -0.019800 -0.812934 
-0.933945 0.895839 0.165114 -0.409275 -0.007100 0.911257 
0.585975 0.687928 0.313114 -0.076358 0.482227 -0.730297 
-2.614044 1.139300 -1.252921 0.565650 -0.267344 -0.755617 
0.316702 0.032414 0.022831 0.584994 -0.011616 -0.793705 
2.441230 0.066377 -0.127150 0.050144 -0.185699 -0.975575 
-0.291124 0.940452 0.218915 -0.911745 0.347372 -0.197640 
0.013611 0.675260 -0.151048 0.350280 0.482593 -0.794180 
1.575695 1.384124 -0.096550 0.554163 -0.062738 0.815078 
-1.719319 0.884738 -0.248278 -0.675225 -0.071233 0.701016 
0.104067 0.462940 -0.196970 0.589815 0.234778 -0.744232 
-0.705548 -0.192730 0.071407 -0.430811 -0.142414 0.884896 
-0.139103 1.147571 0.350252 -0.893920 -0.058631 0.254146 
2.931988 1.297532 -0.221353 -0.161836 0.016946 0.976962 
0.395012 -0.193012 0.165128 0.378761 -0.190344 0.887336 
-0.894577 0.837057 0.178840 0.553921 0.181132 -0.805530 
2.365949 0.946071 -0.272140 0.065789 0.032126 0.995994 
-1.882175 1.373821 -0.582482 -0.819992 -0.047999 0.520024 
-2.431214 0.591321 -1.021414 0.588649 -0.185484 -0.783728 
-1.847915 1.614320 -0.593629 0.667104 -0.022266 -0.738094 
0.488837 0.457323 0.421528 0.158553 -0.046935 0.974804 
0.156635 0.920728 0.492221 0.318214 -0.036057 0.925633 
-2.373798 1.856592 -1.161861 0.529502 0.442983 -0.706817 
0.821872 -0.134215 0.052383 0.408091 -0.137270 0.898347 
-1.837803 1.377472 -0.520701 -0.832669 -0.069479 0.493074 
1.989130 0.974941 -0.229150 0.079088 0.110955 -0.968281 
-0.338904 -0.100644 0.263403 -0.404205 -0.229450 0.843541 
-0.114366 1.047764 0.507572 -0.142027 -0.001795 0.971607 
-1.753291 0.966099 -0.331445 -0.649925 -0.131727 0.725228 
1.247257 -0.082939 -0.054274 0.326526 -0.142684 0.929256 
1.344045 1.220127 -0.080552 -0.117274 -0.176414 -0.974309 
0.997569 0.422160 0.058773 -0.198771 0.023371 -0.976336 
-2.439424 1.424912 -1.186532 0.525583 0.033798 -0.843753 
-0.821829 -0.354787 0.050710 -0.373216 -0.073952 0.917507 
1.239142 0.666668 0.013572 0.508720 -0.122924 0.814303 
-0.405446 -1.003273 0.127977 -0.209359 0.048471 0.970219 
1.311772 -0.271832 -0.121292 0.355549 -0.156585 0.920488 
2.985652 0.629963 -0.169872 0.158548 -0.123999 -0.970978 
0.528091 -0.835092 0.100951 0.311971 0.037539 0.944354 
-0.298616 0.372623 -0.077573 -0.729571 0.066854 -0.673636 
-1.377012 -0.311819 -0.170893 0.308794 0.126094 -0.940060 
0.381382 0.639868 0.121483 0.799597 0.360403 -0.421809 
2.539816 1.462057 -0.223119 -0.007527 -0.043639 0.968387 
-1.216452 0.399883 -0.011531 -0.543946 -0.138218 0.803420 
-0.128377 0.102761 -0.221505 -0.609126 -0.009091 -0.771117 
1.429408 1.109429 -0.066328 0.467357 -0.206329 0.827505 
0.664637 -0.936507 0.047949 -0.087154 -0.177184 -0.960519 
1.102360 0.307432 0.008369 -0.234235 0.028878 -0.966253 
2.596865 0.794387 -0.261261 0.009929 -0.151947 -0.979669 
-0.742024 0.006823 0.141095 -0.352048 -0.218426 0.896013 
-0.740196 0.426855 0.112696 -0.060376 0.211473 -0.896487 
-0.195198 -0.536544 -0.024711 -0.104688 -0.410251 -0.876870 
0.316888 0.261332 -0.035373 0.694904 0.057651 -0.699506 
-2.787676 1.554652 -1.383103 -0.472032 -0.043821 0.872673 
-0.337803 -0.018536 0.275646 -0.324172 -0.255275 0.875753 
-2.421689 0.978547 -1.104905 -0.586859 0.038486 0.790080 
0.092650 1.289932 0.146032 0.700316 0.549410 -0.433006 
0.556818 0.484404 0.408173 0.168162 0.068821 0.977463 
-0.313713 -0.712714 0.182695 -0.407662 -0.066235 0.889150 
-0.303545 -0.890857 0.072217 -0.043893 -0.224314 -0.968070 
1.618071 0.033031 -0.196124 0.138921 -0.061556 0.980863 
1.476513 -0.479711 -0.232294 0.351800 -0.174513 0.919170 
1.455680 0.110973 -0.117553 0.225969 -0.075642 0.959067 
2.562063 1.015616 -0.269967 -0.092411 -0.060435 0.977272 
0.692483 -0.157586 0.086832 0.411431 -0.152689 0.890481 
1.812107 1.305141 -0.166045 0.337256 -0.210906 0.877811 
2.408259 0.005597 -0.112443 0.039040 -0.195395 -0.974376 
-0.204170 0.122779 -0.170394 -0.680285 -0.013997 -0.705814 
0.773619 0.736847 0.221954 0.404226 0.016477 0.907323 
-1.755475 1.664432 -0.442219 -0.595490 0.472435 0.573656 
0.310667 -0.577537 0.001501 0.388527 -0.151026 -0.870075 
-2.389809 0.126506 -0.793572 0.693987 -0.313593 -0.637840 
0.873507 0.048375 0.018962 -0.005004 0.090422 -0.918599 
2.114938 1.070464 -0.238663 -0.137038 0.053097 -0.985370 
1.743850 0.922761 -0.174687 0.096485 -0.192659 0.912555 
-1.089341 0.538636 0.073623 -0.582471 -0.198988 0.771795 
-2.539577 0.948736 -1.176188 -0.569270 0.059336 0.804305 
-0.524735 0.385055 0.120628 -0.388518 0.189653 -0.810052 
0.341652 0.801310 0.245607 0.903564 0.360033 -0.104085 
-2.444243 0.066601 -0.822540 0.649921 -0.263705 -0.707184 
-1.926286 0.568236 -0.481961 -0.577412 0.023530 0.807000 
-2.109461 0.718318 -0.766254 0.589249 -0.120197 -0.790593 
-2.169916 0.582142 -0.752077 -0.814831 0.428526 0.324053 
1.431029 0.926056 -0.067080 0.436140 -0.153695 0.843327 
1.324650 -0.468151 -0.164416 0.347063 -0.144424 0.922929 
2.108656 1.509142 -0.224609 0.035705 0.085262 -0.991681 
-1.170385 0.624612 -0.012312 0.284785 -0.046497 -0.946324 
0.306164 -0.305500 0.237128 0.583790 -0.155277 0.773304 
-0.393352 0.242192 0.329030 -0.175847 -0.289724 0.937773 
0.156207 -0.808636 0.057376 -0.095592 -0.388963 -0.907797 
0.235279 -0.794766 0.052191 0.059166 -0.270758 -0.941668 
-2.518659 1.445103 -1.228823 -0.562500 0.147086 0.796511 
-2.028383 0.508444 -0.594954 0.732336 -0.332816 -0.559869 
1.517953 -0.261728 -0.194347 0.195337 -0.128349 0.961362 
0.110079 0.311457 -0.243727 0.628129 0.090651 -0.749435 
-1.872803 0.963560 -0.479877 -0.800249 0.139772 0.545991 
-1.263014 1.061356 0.058839 -0.424288 -0.025495 0.892551 
1.629418 0.534184 -0.176706 -0.127386 -0.069294 -0.988600 
1.158303 0.050972 0.004344 0.355663 -0.135161 0.922184 
1.423537 0.619081 -0.064922 0.387974 -0.071340 0.868696 
-2.321196 1.320756 -1.073736 -0.628849 0.173292 0.750549 
-1.275888 0.345243 -0.085265 0.347504 -0.012091 -0.917880 
-1.127064 -0.395709 -0.090526 0.244295 0.089144 -0.949679 
1.131664 0.713501 0.012779 -0.185292 -0.077199 -0.977325 
-2.019037 0.266441 -0.482700 0.630273 -0.229146 -0.713467 
2.412622 0.890492 -0.274262 0.025116 0.034793 0.994041 
2.290185 1.264708 -0.250563 0.139406 -0.073630 0.973558 
-2.746990 1.309972 -1.343920 0.476822 -0.000962 -0.874200 
-0.638336 -0.025964 0.161703 -0.359526 -0.224316 0.889189 
-0.339708 0.645730 -0.004958 -0.699095 0.320600 -0.620508 
0.257011 0.586687 -0.091958 0.642948 0.254432 -0.697185 
0.193456 -0.865840 0.182655 0.122124 -0.047625 0.980398 
1.885525 -0.177792 -0.070411 -0.314581 0.158719 0.934086 
-1.106033 0.425512 0.053258 -0.542343 -0.182907 0.799920 
2.229042 0.536766 -0.237142 0.179282 -0.050914 -0.978764 
-0.485319 -0.433701 0.081492 -0.459668 -0.092777 0.877319 
-0.150657 -0.592566 0.242209 -0.205762 -0.214917 0.953783 
-0.229831 0.274360 0.386415 -0.139733 -0.326788 0.933841 
-2.003424 0.859794 -0.648629 -0.820203 0.271470 0.475167 
2.210029 1.347046 -0.256167 -0.087402 -0.049237 -0.986436 
0.304462 0.169667 -0.052704 0.687966 0.015841 -0.702568 
-1.636217 0.160189 -0.248486 -0.503469 0.010054 0.845439 
1.080844 0.974651 0.046870 -0.717971 0.271707 -0.581255 
0.397823 0.673418 0.347111 0.588976 0.392465 0.652597 
0.639602 -0.224436 0.076827 0.433389 -0.135912 0.885173 
0.636990 0.476051 0.131743 0.237284 0.247401 -0.826609 
2.841166 1.558012 -0.241227 0.177189 0.056958 -0.978101 
-1.035859 0.377510 0.087475 -0.526842 -0.194102 0.815147 
0.332051 -0.450604 0.164959 0.547646 -0.118501 0.823750 
1.212600 1.136416 -0.044061 -0.471134 0.077877 -0.858109 
0.127378 0.372055 0.443293 0.090575 -0.342235 0.933720 
-2.300998 1.135941 -1.049301 0.647263 -0.320506 -0.679331 
0.340656 0.804467 0.317361 0.880432 0.384967 0.181547 
-1.724179 1.597135 -0.420752 0.634619 -0.014429 -0.767119 
2.304393 1.372840 -0.237795 0.158195 -0.008402 0.968120 
-2.268673 0.302098 -0.738592 -0.571565 0.126759 0.786601 
-1.324690 0.404191 -0.107279 0.365504 -0.032363 -0.907962 
0.675854 0.514088 0.300682 0.131673 0.203019 0.948165 
0.292885 0.223753 -0.104686 0.748812 0.018966 -0.647706 
0.354183 0.125919 0.080397 0.547635 0.076068 -0.828270 
2.275904 1.124427 -0.263525 -0.144319 -0.076906 -0.974982 
-2.917950 1.339777 -1.440119 0.456281 -0.048353 -0.887740 
0.347149 0.171906 0.313488 0.173029 -0.320994 0.930828 
0.268243 -0.536598 0.219491 0.502924 -0.114401 0.853422 
-2.072277 1.385079 -0.847008 -0.760978 0.081555 0.635956 
-1.940902 1.531707 -0.713274 0.684052 0.003386 -0.721102 
-2.371589 0.933947 -1.054528 -0.620815 0.088143 0.760105 
-0.256097 0.797797 0.443785 -0.513144 0.283009 0.783455 
2.410658 0.216449 -0.163299 0.095494 -0.146019 -0.976699 
-2.028402 1.729812 -0.842661 0.709275 0.002046 -0.702433 
0.865729 0.704651 0.156379 -0.576755 0.272048 -0.742625 
0.299776 -0.422237 0.222980 0.612778 -0.128965 0.774772 
1.397679 -0.114967 -0.129798 -0.153514 0.089418 -0.978155 
-0.499270 -0.839098 0.090745 -0.001116 -0.123739 -0.976050 
1.441530 -0.420888 -0.209471 -0.315639 0.143914 -0.936682 
-1.808563 -0.189162 -0.303267 0.393801 -0.014945 -0.911134 
1.466186 0.650699 -0.114528 -0.141330 -0.083769 -0.984961 
-2.037483 0.833378 -0.722329 0.604117 -0.039656 -0.780373 
-0.618005 -0.948029 0.057967 -0.282864 0.078996 0.944564 
1.889546 0.715109 -0.217184 -0.127341 -0.170815 0.955285 
-0.475212 -0.745446 0.097055 -0.368842 0.000215 0.919388 
-1.711132 0.417810 -0.288814 -0.598569 0.048624 0.785363 
-1.462235 0.322113 -0.157771 -0.540107 -0.036657 0.816480 
-1.720824 0.782916 -0.252800 -0.665998 -0.036393 0.714549 
1.334169 0.791412 -0.065450 -0.149284 -0.103361 -0.981253 
-2.516816 1.197608 -1.204279 0.587418 -0.324245 -0.719869 
0.681803 0.210161 0.245062 0.278847 -0.302858 0.903329 
-1.055826 0.603517 0.098518 -0.606804 -0.212728 0.756796 
-0.180251 -0.488557 0.268209 -0.276796 -0.160379 0.941119 
-1.324671 1.017505 -0.057591 0.346142 -0.136313 -0.915210 
0.296894 0.038656 0.291124 0.246550 -0.262416 0.908336 
-2.451701 1.222391 -1.169520 0.602643 -0.359981 -0.696796 
-2.251390 0.369447 -0.762923 0.579180 -0.170233 -0.786006 
3.060566 1.407353 -0.188389 0.247518 0.031122 -0.966434 
0.219759 0.889479 0.452600 0.626947 0.098177 0.764049 
-1.097671 0.826670 0.125089 -0.391413 -0.029019 0.910309 
-0.962070 -0.144071 0.029467 -0.390887 -0.119884 0.909380 
2.475755 1.182183 -0.280680 -0.122257 -0.232962 -0.958385 
1.807855 1.399818 -0.159718 0.348478 -0.252813 0.861077 
-0.962650 0.662624 0.076698 0.496822 0.257333 -0.796378 
-1.710726 0.497961 -0.280752 -0.627175 0.040399 0.765002 
-2.258802 1.829545 -1.066407 0.613867 0.313218 -0.687981 
-0.390865 0.679012 0.168457 -0.833143 0.473221 -0.239538 
-0.860052 0.434283 0.203182 -0.367423 0.072444 0.886086 
0.849000 -0.806656 -0.026349 -0.125191 -0.063030 -0.959777 
0.115847 -0.385554 0.303396 0.163786 -0.080894 0.979732 
-0.366034 0.624254 0.063561 -0.715568 0.334615 -0.584892 
-2.703162 1.185437 -1.306497 -0.539141 0.179803 0.809033 
-0.489424 0.588847 0.273264 -0.356972 0.549677 -0.647411 
0.747369 -0.019401 0.020504 0.112428 0.071817 -0.905165 
1.336364 1.107444 -0.024832 0.528418 -0.217460 0.798814 
0.787564 0.527912 0.211739 0.147477 0.290661 0.923747 
-1.376322 1.262898 0.002227 -0.178144 0.142948 0.899300 
-1.116871 -0.539010 -0.110828 0.221871 0.079941 -0.949481 
-0.797048 0.474599 0.158443 0.338025 0.518598 -0.684263 
-0.719925 0.135958 0.048775 -0.142857 0.088001 -0.881359 
-2.137369 -0.015933 -0.486713 0.588700 -0.236343 -0.752897 
0.062173 -0.293641 -0.186341 0.431130 -0.271308 -0.834358 
-0.110544 -0.798585 0.218738 -0.188903 -0.062479 0.965437 
0.400101 0.381973 0.134465 0.579530 0.210693 -0.756300 
-1.029783 -0.789616 -0.079583 -0.265602 0.029044 0.930627 
-1.306050 1.122857 0.041887 -0.430362 -0.022852 0.889724 
1.689576 1.053585 -0.154296 0.169754 -0.227364 0.888166 
-0.692865 -0.034002 0.024455 -0.149194 0.066961 -0.889654 
2.032499 1.358716 -0.214130 -0.053096 -0.240820 -0.953171 
-1.600896 0.395700 -0.253201 0.487402 -0.081307 -0.845940 
2.149873 0.093439 -0.127742 -0.216935 0.098355 0.951014 
-1.954514 1.553529 -0.638428 -0.765675 0.088318 0.572848 
0.284516 -0.859696 0.158263 0.202147 -0.029371 0.948791 
1.871519 0.163539 -0.151205 -0.136016 0.078820 0.958601 
-0.180195 -0.614901 -0.001435 -0.164788 -0.323224 -0.920202 
-1.158992 -0.459076 -0.103548 -0.342148 -0.139942 0.922358 
-0.141484 0.943113 0.039827 -0.554729 0.357571 -0.728607 
0.511878 0.338569 0.106753 0.364191 0.150833 -0.842608 
-1.127720 0.220443 -0.015049 0.289681 0.039040 -0.948925 
-1.181036 0.770222 -0.007748 0.282526 -0.075112 -0.946127 
1.483917 0.808503 -0.125718 -0.127624 -0.111116 -0.982553 
1.289192 0.902546 -0.050374 -0.147474 -0.120757 -0.978951 
-0.443331 0.191983 0.304973 -0.223445 -0.339982 0.908228 
0.939140 0.378966 0.137647 0.521425 -0.176046 0.832994 
-0.675098 0.687387 0.281412 0.240232 0.365463 -0.769544 
0.488109 -0.759076 0.099005 0.349074 0.009269 0.927801 
1.620543 0.260746 -0.172854 0.172730 -0.024902 0.976054 
-0.966904 -0.411730 -0.025123 0.200375 0.037198 -0.958169 
0.262761 -0.198612 -0.095274 0.635408 -0.142766 -0.737947 
2.380996 1.384834 -0.271319 0.025215 0.177131 -0.979180 
0.891128 -0.732035 -0.027439 0.320035 -0.036168 0.937858 
0.179615 1.246044 0.382908 0.879389 -0.384189 0.059374 
-1.004459 -0.216648 -0.007562 0.237068 0.057309 -0.957170 
-1.185800 0.164067 -0.017287 -0.456679 -0.126164 0.864195 
-0.767749 -0.158680 0.064930 -0.420501 -0.144854 0.889656 
-2.194539 0.733706 -0.833613 -0.759156 0.309690 0.498522 
-0.125171 -0.224828 -0.173203 -0.517383 -0.176230 -0.813687 
1.349284 0.096267 -0.073105 0.272906 -0.095342 0.946264 
0.570260 -0.014207 0.038173 0.296778 0.063212 -0.876446 
-1.211520 1.017055 -0.010274 0.323654 0.003952 -0.930442 
0.638712 -0.043863 0.027073 0.220166 0.061711 -0.890261 
1.065367 -0.007575 -0.005676 -0.217194 0.090315 -0.955041 
0.774897 -0.089442 0.007062 0.070348 0.061068 -0.916427 
0.235057 0.076906 0.306885 0.179925 -0.256950 0.938030 
-1.743994 -0.333366 -0.278715 -0.365221 -0.058968 0.926843 
-0.094972 0.586916 0.509908 -0.123863 -0.272089 0.952033 
1.120135 0.138406 -0.004399 -0.249897 0.070647 -0.962641 
-1.645069 1.003122 -0.184717 -0.695033 -0.121775 0.675346 
1.239640 1.290430 0.006145 -0.742821 0.361042 -0.377825 
-1.922884 1.044340 -0.622022 0.695800 -0.013363 -0.691074 
1.641755 0.799452 -0.188537 -0.106731 -0.114698 -0.984369 
2.747862 1.171492 -0.272109 0.263180 0.189489 -0.944133 
1.481622 1.555761 -0.142060 -0.186798 -0.028022 -0.955930 
0.332622 -0.121865 0.260899 0.418897 -0.221417 0.837770 
0.575471 -1.090189 0.105565 -0.137668 -0.266246 -0.951882 
0.084614 1.163954 0.460448 -0.261399 0.474373 0.822614 
-2.066076 0.766872 -0.732469 0.589977 -0.071358 -0.791395 
2.697750 1.109730 -0.265790 -0.200153 -0.141534 0.962270 
-1.551311 0.055549 -0.201193 -0.459565 -0.026672 0.871268 
2.677322 0.539116 -0.232106 0.066165 -0.128975 -0.986517 
-0.508330 -1.153225 0.124200 -0.460022 0.338570 0.778954 
-1.914929 1.127029 -0.618514 0.738499 -0.076303 -0.645515 
3.137296 1.587414 -0.141341 -0.201237 0.174344 0.930721 
0.907896 0.165230 0.040370 -0.068474 0.086372 -0.935877 
-1.692141 1.308015 -0.303265 -0.881603 -0.092163 0.389445 
-2.278203 0.127630 -0.684648 0.670558 -0.299048 -0.656424 
-0.763764 -0.306213 0.020909 0.036212 0.015997 -0.939664 
-0.465856 0.217574 0.082172 -0.447418 0.086443 -0.826316 
0.369914 0.738890 0.273313 0.918209 0.359344 -0.018926 
-2.158972 0.503135 -0.681584 -0.741089 0.268149 0.595233 
1.754186 1.608407 -0.117318 0.198695 0.017990 0.974997 
2.538458 0.640423 -0.251475 0.045654 -0.090995 -0.990528 
2.903845 1.588101 -0.221847 -0.226865 -0.241842 0.932688 
-2.060869 0.190480 -0.484146 -0.551089 0.115883 0.820578 
0.100824 -0.470242 0.286604 0.144224 -0.173545 0.972259 
0.998780 -0.258293 0.016637 0.345318 -0.093796 0.928382 
-2.317360 0.532849 -0.890750 0.573467 -0.164135 -0.796752 
-0.229612 -0.867136 0.070714 0.170827 -0.335632 -0.915023 
1.884691 0.397826 -0.214555 -0.112071 -0.133538 -0.968852 
-0.317603 0.586979 0.459418 -0.369619 -0.122360 0.881801 
-0.168142 1.203693 0.216830 -0.753403 0.583622 -0.244147 
0.877208 -0.883330 -0.003146 0.230953 0.135545 0.942140 
0.313881 -0.148176 0.018649 0.541186 -0.025794 -0.829555 
-0.738454 -0.093881 0.011860 -0.085828 0.061202 -0.904354 
-1.627353 1.556478 -0.231352 -0.900081 0.116578 0.396596 
-0.752226 0.719339 0.248205 0.449501 0.190364 -0.836602 
-1.553113 -0.415365 -0.248626 0.324593 0.117813 -0.934410 
1.480248 0.221658 -0.134128 -0.176158 0.018322 -0.977951 
-1.713634 0.342114 -0.315732 0.539733 -0.091657 -0.819961 
-2.192961 1.412395 -0.989232 0.642087 0.095129 -0.751124 
-0.391685 0.017204 0.245228 -0.272037 -0.271088 0.907361 
-2.337327 1.617684 -1.138655 0.592885 -0.059793 -0.799763 
0.178831 -0.429103 0.286071 0.292520 -0.122641 0.941598 
0.150624 -1.001593 0.138912 -0.119673 -0.437832 -0.883571 
0.517249 0.258122 0.090414 0.365426 0.087587 -0.859243 
-0.001090 -1.237976 0.291290 -0.527638 -0.740828 0.362379 
0.139783 0.011894 -0.204425 0.588231 -0.045562 -0.786852 
-1.265609 0.245664 -0.086062 0.348812 0.008941 -0.918469 
-0.584539 0.454072 0.388008 -0.221668 -0.033238 0.953509 
0.413992 0.006072 0.238400 0.292576 -0.264535 0.902133 
0.523901 -0.582052 0.086499 0.390408 -0.039436 0.909272 
-1.951470 0.309832 -0.413786 -0.594812 0.118442 0.792295 
-0.188484 -0.171949 -0.149749 -0.591173 -0.117574 -0.781617 
-2.304128 0.418813 -0.832413 0.583717 -0.176946 -0.783120 
-1.344393 1.327738 -0.018085 0.783668 0.435824 -0.296555 
1.401594 0.170280 -0.087819 0.260080 -0.075025 0.951059 
1.261196 0.519339 -0.005527 0.448444 -0.114445 0.850119 
-2.622886 0.702836 -1.191264 -0.598254 0.176191 0.776616 
-1.770724 1.204825 -0.432150 0.596522 -0.132978 -0.746546 
-1.540789 1.491701 -0.175417 0.599299 -0.236859 -0.744754 
1.617745 1.047994 -0.177264 -0.132407 -0.159684 -0.970912 
-2.475573 0.916587 -1.136867 0.610520 -0.297554 -0.723325 
-0.224785 1.061519 0.160049 -0.804005 0.361278 -0.408269 
-1.191856 -0.232512 -0.090039 0.283683 0.116655 -0.947057 
2.891466 0.942473 -0.218655 0.062835 -0.233946 -0.953380 
0.001180 0.558309 -0.221792 0.458201 0.362797 -0.807333 
-0.015594 0.283969 -0.315758 -0.552796 0.080513 -0.823965 
0.028864 0.073648 -0.276510 0.507569 -0.042868 -0.835717 
-0.203051 0.843489 0.023571 -0.582695 0.439712 -0.672211 
0.302782 -0.677634 0.190047 0.432411 -0.076260 0.878833 
2.644742 1.394396 -0.248207 -0.041594 -0.031975 0.980531 
2.125819 1.366224 -0.240138 -0.115811 -0.126312 -0.974748 
0.111922 -0.878360 0.210127 0.175710 0.004596 0.970075 
1.188728 -0.587481 -0.134712 -0.230660 0.063327 -0.947524 
-2.026352 1.652422 -0.842468 0.713182 -0.028302 -0.697223 
2.333588 -0.026451 -0.103906 -0.025531 -0.235911 -0.963474 
-1.455629 0.835951 -0.141911 0.408450 -0.130351 -0.883925 
0.265508 0.786531 0.032652 0.621936 0.498503 -0.583272 
-2.133117 1.302574 -0.907979 -0.728866 0.051918 0.673857 
-2.395014 1.640758 -1.186063 0.561078 -0.059460 -0.824715 
-0.522612 0.459179 0.422618 -0.164107 -0.017442 0.975396 
-1.102367 -0.054146 -0.021287 0.284985 0.095394 -0.952772 
1.698905 -0.041275 -0.230512 -0.054836 0.028215 -0.991160 
-1.787811 1.376864 -0.450632 -0.847111 -0.091529 0.462835 
1.730902 1.179583 -0.136048 0.443790 -0.010933 0.867027 
-1.672575 0.833031 -0.220101 -0.672752 -0.065077 0.705372 
0.582779 -0.962797 0.076922 0.272591 0.094683 0.949658 
2.897016 1.211957 -0.227342 -0.120446 0.115308 0.971938 
-1.868056 1.010350 -0.545673 0.600844 0.013590 -0.770949 
-1.537670 1.440467 -0.073620 -0.845387 -0.032551 0.469385 
0.339124 -0.039261 0.272458 0.342136 -0.249626 0.868072 
-1.219530 1.092240 -0.025060 0.556790 0.173936 -0.791122 
2.735585 1.546180 -0.243911 -0.099975 -0.091221 0.974655 
-0.558276 -0.888220 0.066846 0.028222 -0.113391 -0.977572 
-2.005494 0.746216 -0.586306 -0.727946 0.125074 0.650118 
-0.356270 0.775514 0.328262 -0.883157 0.396919 0.212850 
-1.479025 0.504627 -0.149405 -0.606973 -0.048631 0.769631 
-2.239440 0.602222 -0.828841 -0.774624 0.374671 0.420993 
0.748933 0.191752 0.058055 0.113047 0.088615 -0.902510 
2.299642 0.658661 -0.241957 0.247817 0.184942 0.910092 
2.371109 1.481240 -0.201782 0.070968 -0.046728 0.954350 
0.639991 -0.358198 0.025030 0.102038 -0.006263 -0.929294 
-3.010550 1.683803 -1.477499 0.413198 0.021392 -0.908725 
-0.080296 0.601087 -0.152769 -0.463683 0.344285 -0.780777 
-1.689666 1.024328 -0.308974 0.600559 -0.247660 -0.693663 
0.039160 0.200048 -0.294849 0.552902 0.040251 -0.824375 
-0.255973 -0.354988 -0.073323 -0.590869 -0.190244 -0.778458 
-1.718688 1.621959 -0.352760 -0.785348 0.163420 0.580610 
-1.155902 0.785807 0.060967 -0.669042 -0.205791 0.709390 
-2.509670 1.354244 -1.210130 -0.567331 0.244036 0.768862 
1.163221 -0.023984 -0.033278 -0.262392 0.103635 -0.958446 
1.683169 0.244471 -0.212173 -0.115163 -0.011557 -0.989431 
-1.492370 1.145743 -0.131112 0.422113 -0.183417 -0.877892 
-2.071819 1.140058 -0.827795 0.739870 -0.191940 -0.631653 
-1.024593 0.441498 0.049715 0.229825 0.022373 -0.969559 
1.005549 0.189498 0.089087 0.417464 -0.173613 0.883556 
-2.278647 1.039425 -0.998876 -0.637284 0.070584 0.746746 
-0.179187 0.878616 0.477645 -0.434277 0.019160 0.870252 
0.186927 -0.737571 0.035214 0.032366 -0.316974 -0.926292 
-2.008099 0.214228 -0.436607 -0.577592 0.126781 0.802545 
0.488613 -0.033828 0.208609 0.358981 -0.241662 0.883949 
0.938511 0.717100 0.145564 0.215748 0.192994 0.946738 
1.332025 0.342417 -0.046553 0.350726 -0.092045 0.903841 
-2.685657 1.110399 -1.290897 0.548981 -0.227768 -0.781093 
-1.318645 -0.086691 -0.082761 -0.386253 -0.102768 0.913421 
0.591991 0.245309 0.082018 0.280229 0.086586 -0.874865 
-2.435361 0.379415 -0.940051 0.613181 -0.216783 -0.753025 
-0.243670 -0.768867 0.041547 -0.107659 -0.252332 -0.954168 
0.470946 -0.184814 0.021275 0.366500 0.028097 -0.877382 
-1.763903 1.440770 -0.423418 -0.851851 -0.131333 0.446689 
-1.626691 -0.144853 -0.229200 0.366526 0.012783 -0.922079 
1.578704 1.542978 -0.096583 0.384255 -0.074575 0.910868 
0.307310 0.879189 0.316191 0.893794 0.298083 0.198983 
-0.843272 0.788943 0.203856 0.533152 0.168755 -0.823716 
0.615857 0.398182 0.335518 0.285552 -0.160612 0.912227 
-2.524974 1.026100 -1.178447 -0.558563 0.024687 0.814295 
1.541689 1.406210 -0.160052 0.159473 0.070669 -0.981885 
-0.898096 -0.631918 -0.019760 -0.329574 -0.062736 0.932078 
-2.907064 1.547562 -1.436761 -0.451598 -0.012867 0.888168 
0.174024 -0.529184 -0.035761 0.158055 -0.435835 -0.860782 
0.215180 0.705307 0.480101 0.313495 0.266790 0.886055 
-0.212233 -0.932952 0.100114 0.174028 -0.367859 -0.903396 
-0.017593 1.361355 0.076671 -0.496905 0.282745 -0.768827 
0.145218 0.083873 -0.208333 0.611534 -0.019295 -0.767784 
1.496206 0.923524 -0.096149 0.392722 -0.144777 0.863752 
-2.581022 1.757524 -1.281454 -0.498670 -0.160235 0.845141 
-0.024260 0.415208 0.454775 -0.021000 -0.342546 0.937381 
1.903051 1.034312 -0.186204 0.335856 -0.029377 0.912062 
-0.287636 -1.154367 0.154608 0.382433 -0.304802 -0.854906 
1.817476 0.905160 -0.188728 -0.033170 -0.225046 0.920327 
1.262724 -0.142307 -0.091302 -0.268358 0.114402 -0.954005 
0.008514 -0.955404 0.227318 0.551206 0.089131 0.808274 
-1.882882 0.410798 -0.381202 -0.616586 0.111237 0.778937 
-0.637071 0.297133 0.094651 -0.197057 0.080067 -0.890813 
-0.445828 -0.078285 0.203461 -0.369948 -0.238803 0.876917 
2.346466 0.304936 -0.184545 0.129627 -0.116134 -0.976605 
0.411537 0.547082 0.184051 0.657394 0.356668 -0.657036 
1.353506 -0.201921 -0.133469 -0.239550 0.113936 -0.958293 
2.541348 1.388353 -0.244796 0.018784 -0.025039 0.976643 
-1.942878 1.246231 -0.670633 0.729607 -0.192686 -0.625854 
1.228180 1.060620 -0.030114 -0.144495 -0.145596 -0.975707 
-1.990201 0.335216 -0.481664 0.640139 -0.226820 -0.704471 
-1.999796 0.593993 -0.597253 0.768069 -0.347993 -0.505546 
0.464496 -0.266899 0.118894 0.441802 -0.152415 0.874131 
-1.904572 0.650572 -0.484000 -0.585183 -0.019108 0.801172 
-1.638531 -0.342879 -0.252242 0.335536 0.066652 -0.936037 
-2.382834 0.600936 -0.971095 -0.703861 0.292865 0.579835 
1.293159 0.453928 -0.023051 0.409016 -0.104572 0.871376 
1.963637 -0.147232 -0.076543 -0.281147 0.156930 0.939025 
-0.348732 0.059997 0.285381 -0.253429 -0.283435 0.903645 
-0.966178 0.335031 0.070253 0.208654 0.061078 -0.974022 
-0.219269 0.191984 -0.167219 -0.711156 0.008499 -0.678825 
-0.638644 0.039228 0.188278 -0.333146 -0.251332 0.892228 
-2.917385 1.149450 -1.425295 0.479398 -0.079247 -0.872965 
-0.316754 0.485031 0.435740 -0.143452 -0.209963 0.965949 
2.321347 1.010180 -0.275859 -0.092505 -0.061260 -0.985747 
-1.527098 0.444954 -0.211284 0.452083 -0.077265 -0.863320 
-0.472227 -0.154783 0.163496 -0.402399 -0.202067 0.874720 
-2.918115 1.032071 -1.416492 -0.503789 0.093872 0.858496 
1.012378 -0.083208 0.027279 0.371357 -0.125179 0.917260 
-0.388723 -1.267140 0.176071 -0.237330 0.199855 0.792992 
0.351638 0.744729 0.371764 0.784768 0.382674 0.377967 
-0.307151 0.186928 -0.028764 -0.686457 0.025262 -0.706554 
-0.664254 -0.583183 0.058847 0.064932 -0.056471 -0.965638 
0.673092 -0.111097 0.013412 0.171537 0.051821 -0.902339 
1.332948 -0.334042 -0.151917 -0.292496 0.123419 -0.943551 
3.173896 1.523251 -0.136153 -0.294441 -0.210402 0.924307 
0.611422 0.189670 0.260531 0.283460 -0.308112 0.898766 
1.880916 0.532326 -0.218387 -0.044713 -0.045803 0.970292 
-1.284745 -0.518951 -0.178821 0.268357 0.134524 -0.940599 
0.635603 -0.011599 0.167657 0.356740 -0.222405 0.892728 
-2.256958 1.340960 -1.050370 0.635459 -0.069089 -0.755538 
2.778818 1.464031 -0.251423 -0.120074 -0.055812 0.984506 
3.185267 1.029836 -0.138459 -0.222454 0.071532 0.960555 
-0.000620 -1.022061 0.137641 -0.628050 -0.339394 -0.695915 
-2.247611 1.558804 -1.020316 -0.654804 0.071793 0.728732 
-1.794327 0.543989 -0.343026 0.567720 -0.141878 -0.804363 
1.841261 0.998248 -0.163335 0.107955 -0.124526 0.935440 
1.267901 0.782067 -0.038734 -0.158996 -0.099627 -0.980706 
0.150516 0.572056 -0.131629 0.543052 0.286047 -0.746248 
0.340530 -0.988734 0.150408 0.114572 0.021683 0.987388 
-1.554569 1.551983 -0.112137 -0.791905 0.210778 0.533503 
1.173394 0.326624 0.017084 0.436243 -0.135497 0.868787 
2.335029 0.235067 -0.167677 0.112624 -0.131001 -0.975661 
-0.468627 0.333983 0.110348 -0.447608 0.150555 -0.811277 
-1.906521 0.042040 -0.366521 0.502636 -0.100767 -0.844676 
0.678326 0.217946 0.069334 0.187338 0.087377 -0.890479 
-1.922979 0.890956 -0.545480 -0.805106 0.182517 0.533517 
2.679249 0.611171 -0.237685 0.053143 -0.150042 -0.981910 
-1.968014 1.766843 -0.750460 -0.647415 0.368746 0.638028 
-0.363498 -0.172423 0.201769 -0.399286 -0.201327 0.865804 
-0.299502 -0.246022 0.000601 -0.548069 -0.050374 -0.824557 
-0.180171 0.530995 0.481415 -0.152607 -0.262249 0.951221 
0.602354 -0.514013 0.077690 0.383674 -0.049559 0.912199 
1.357783 -0.574043 -0.187233 0.323028 -0.103956 0.924015 
-0.429747 -0.092297 0.039946 -0.428967 0.043383 -0.852646 
0.323023 -0.551809 0.164100 0.496916 -0.100462 0.858421 
2.935426 0.740814 -0.191615 0.117341 -0.168423 -0.964863 
-1.761830 0.046975 -0.306905 0.457287 -0.047516 -0.871396 
-1.148657 0.282053 0.015195 -0.495226 -0.152208 0.835220 
-2.092214 1.607694 -0.834914 -0.717602 0.081198 0.650697 
-0.554469 0.321727 0.098308 -0.297910 0.135209 -0.862786 
-1.557715 0.568962 -0.219625 0.458350 -0.106664 -0.858583 
-0.448165 0.445070 0.412288 -0.147771 -0.125054 0.971896 
-1.214235 1.185962 0.038456 0.709425 0.349401 -0.472021 
-1.832386 0.643338 -0.370783 -0.628169 0.011302 0.760358 
0.098635 -0.507333 -0.073119 0.254980 -0.500467 -0.821353 
-1.897348 1.589775 -0.663781 0.681892 -0.037812 -0.724181 
-0.995723 0.917965 0.137074 -0.333007 0.043113 0.929307 
-2.856597 1.357826 -1.406691 -0.479400 0.071948 0.866692 
-2.816153 0.936928 -1.341363 -0.533366 0.114627 0.833000 
0.111539 -0.645061 0.235374 0.194328 -0.185705 0.960410 
-1.890031 0.151595 -0.362698 -0.542562 0.080263 0.823290 
0.153973 1.085115 0.360955 0.625144 0.580717 0.159811 
0.211403 0.218509 0.366077 0.136188 -0.301088 0.942227 
-2.057740 1.071145 -0.782616 -0.762334 0.134373 0.629012 
1.454568 1.438899 -0.077498 0.504923 -0.297367 0.807783 
0.987494 0.862051 0.095629 -0.703780 0.246707 -0.659511 
3.262466 1.160051 -0.122172 0.300521 0.025655 -0.950653 
0.276142 0.574919 0.467777 0.277679 -0.166962 0.915510 
0.274558 -0.220305 0.255199 0.486259 -0.173424 0.813810 
-0.908685 -0.855440 -0.033966 0.182975 -0.131652 -0.939169 
-0.529516 -0.123499 0.026522 -0.311540 0.044825 -0.872992 
-0.246409 1.223942 0.582149 0.610690 0.050592 0.787566 
-0.377722 0.555645 0.092548 -0.684047 0.288478 -0.663707 
0.879444 -0.587065 0.005345 0.326226 -0.044705 0.936111 
1.253456 0.921733 0.012115 0.552586 -0.174785 0.788616 
-0.956480 0.405266 0.079231 0.200037 0.050414 -0.976442 
0.342549 -0.052720 0.053908 0.525034 0.044260 -0.843960 
-2.652021 1.314557 -1.292093 0.485671 0.028815 -0.868315 
-0.284564 -0.161722 -0.017930 -0.591648 -0.101229 -0.785716 
0.879069 0.421012 0.197454 0.514762 -0.151735 0.835588 
-0.136002 1.260094 0.269901 -0.629491 0.739026 0.021730 
1.173695 0.400321 0.022014 0.459920 -0.136615 0.853610 
0.623695 0.321669 0.096185 0.205241 0.086006 -0.896357 
-0.804403 0.417298 0.254399 -0.434578 -0.129805 0.866431 
0.661486 0.607681 0.275110 0.052381 0.221480 0.930219 
3.549735 1.389717 -0.002965 -0.344475 -0.073068 0.934181 
-2.251086 -0.013669 -0.599119 0.613801 -0.252205 -0.732245 
3.369748 1.448623 -0.067123 -0.320318 -0.136871 0.929788 
-1.432736 1.110977 -0.103933 0.394983 -0.168311 -0.891245 
3.316790 0.862328 -0.095256 0.283290 -0.038871 -0.957556 
-0.698196 0.280449 0.242527 -0.333778 -0.304510 0.875957 
-0.135701 0.474965 0.475103 -0.126363 -0.304700 0.942230 
0.071764 -0.708045 0.239821 0.272044 -0.107720 0.942434 
1.012121 0.725116 0.143120 0.357401 0.060734 0.917859 
-2.874948 1.694449 -1.415653 -0.450453 -0.068990 0.883458 
1.623605 -0.048704 -0.213268 -0.091529 0.048794 -0.990328 
3.329915 1.366372 -0.088398 -0.311267 -0.113849 0.935168 
-2.191871 1.325551 -0.977283 0.691836 -0.366926 -0.616052 
2.373399 1.457016 -0.269164 0.002438 0.110820 -0.989558 
-1.177765 0.324264 -0.034921 0.305603 0.009910 -0.939501 
-0.359055 -0.534641 0.128274 -0.480906 -0.090769 0.866491 
-1.949831 1.663758 -0.685565 -0.786301 0.099974 0.577066 
-2.082646 1.476247 -0.844522 -0.751077 0.119114 0.621669 
-1.386171 1.335504 -0.089463 0.514421 0.164279 -0.830409 
1.319359 0.239371 -0.073311 -0.207559 0.028992 -0.971780 
-1.460543 -0.335768 -0.200774 0.316961 0.112498 -0.938276 
1.025289 -0.524067 -0.045667 0.334146 -0.079183 0.931453 
2.167049 -0.042220 -0.098695 -0.174349 0.147303 0.954464 
-0.371575 -0.921984 0.090500 -0.022609 -0.205357 -0.969644 
2.598803 0.701577 -0.253600 0.027213 -0.127427 -0.985122 
-0.147525 0.638817 -0.122464 -0.512456 0.360328 -0.751357 
-1.988932 1.333683 -0.728049 -0.790550 0.017973 0.585685 
1.476506 1.358254 -0.137063 -0.089318 -0.204142 -0.973437 
0.287964 0.101219 -0.089392 0.704450 -0.023604 -0.684601 
0.351534 0.717569 0.156348 0.849092 0.401213 -0.310676 
-0.714707 0.627513 0.260185 -0.210292 0.133424 0.922832 
0.173174 0.154618 -0.196377 0.653392 0.003144 -0.731837 
-0.700609 -0.379082 0.029292 -0.003100 -0.003226 -0.939619 
-2.635787 0.989005 -1.242799 0.567008 -0.231802 -0.771971 
1.635815 0.164511 -0.189745 0.150898 -0.037730 0.980100 
0.070674 0.424940 0.460578 0.059176 -0.334323 0.938502 
-1.251748 0.126756 -0.058133 -0.449772 -0.097257 0.871879 
0.483716 -0.681236 0.094751 0.374288 -0.014823 0.916527 
1.222865 0.729342 -0.019897 -0.169227 -0.088506 -0.980753 
3.197739 0.696812 -0.119006 0.238267 -0.072607 -0.965449 
1.501483 0.378485 -0.113217 0.265585 -0.045941 0.937314 
-0.185004 1.247356 0.437380 -0.870304 -0.439060 -0.175136 
0.845762 0.115520 0.149180 0.319272 -0.233272 0.908761 
3.412902 1.177453 -0.070829 -0.316115 -0.021379 0.947976 
2.267638 1.479162 -0.251349 0.015284 0.099383 -0.990599 
-0.205331 0.763949 -0.020475 -0.543661 0.493227 -0.655737 
-2.877321 1.093589 -1.399024 0.490134 -0.076119 -0.866007 
-1.379741 0.641535 -0.121461 0.375813 -0.088087 -0.899715 
-1.264943 1.154039 -0.043843 0.515713 0.146945 -0.838881 
-2.392698 -0.041676 -0.726177 -0.643567 0.244609 0.719514 
-0.985465 0.565805 0.160246 -0.513740 -0.138517 0.833859 
-2.130688 0.437200 -0.669213 0.750719 -0.374074 -0.525812 
1.106143 1.130379 0.068466 0.118850 0.175866 0.875828 
-2.212516 0.830519 -0.906126 0.654501 -0.160386 -0.732884 
-1.295671 0.628520 -0.033872 -0.633381 -0.131029 0.743145 
-1.311975 1.223361 -0.061802 0.508333 0.148041 -0.844029 
-0.335424 0.569603 -0.009182 -0.690781 0.244469 -0.671358 
0.239624 1.028445 0.416415 0.797866 0.040647 0.530060 
2.159248 1.671995 -0.202812 0.066191 0.317512 0.914661 
-0.043590 1.221334 0.407412 0.104424 0.765856 0.611876 
1.548739 0.567053 -0.119635 0.299457 -0.036250 0.909826 
0.391267 -0.665625 0.059751 0.229816 -0.089815 -0.929860 
-0.268763 0.823350 0.087796 -0.691337 0.442641 -0.514063 
-1.987861 0.052544 -0.400277 0.538855 -0.145033 -0.821448 
-2.686595 0.932429 -1.262554 -0.551832 0.092874 0.818055 
2.314924 0.155133 -0.148369 0.094297 -0.147021 -0.974465 
2.363904 1.539171 -0.261329 -0.004865 0.078950 -0.995339 
2.415747 0.367245 -0.191974 0.197550 0.230282 0.907506 
0.176759 -1.165709 0.223819 -0.253611 -0.419531 -0.863198 
1.798253 1.472073 -0.191380 -0.035762 0.015555 -0.997480 
-1.664454 1.514563 -0.277094 -0.889758 0.120793 0.410385 
-0.770607 -0.543005 0.056546 -0.339201 -0.031165 0.932715 
-0.082164 -0.289583 -0.178307 -0.457315 -0.251487 -0.826436 
-0.146674 -0.302903 -0.147803 -0.515502 -0.213922 -0.809373 
0.349386 0.597065 0.453264 0.448752 -0.081836 0.850570 
-0.290676 -0.899912 0.147777 -0.152881 -0.027955 0.964316 
1.165277 0.896447 0.051438 0.606606 -0.178642 0.763382 
-0.313539 0.448713 -0.038664 -0.705368 0.116013 -0.691391 
0.531641 0.221392 0.301163 0.268939 -0.336200 0.895599 
-1.473524 0.705867 -0.124711 -0.657131 -0.088223 0.726011 
0.011016 -1.164117 0.237728 0.348956 -0.491918 -0.757851 
-1.642424 0.757116 -0.212355 -0.663008 -0.052433 0.718424 
-2.327652 0.135528 -0.736412 0.683967 -0.308061 -0.643961 
-1.459114 1.452329 -0.075049 0.826688 0.443646 -0.169045 
-1.055036 0.961768 0.110682 -0.229895 0.105049 0.929845 
-0.437371 -0.688909 0.065166 -0.163550 -0.084935 -0.940412 
3.108045 0.938085 -0.160119 0.276505 0.039965 -0.952923 
1.580751 1.347584 -0.168535 0.106221 0.047387 -0.975469 
3.011461 1.560012 -0.195272 -0.272002 -0.261591 0.921436 
0.291946 0.427556 -0.101763 0.734169 0.082941 -0.671978 
-2.812544 1.281485 -1.377763 0.473782 -0.025649 -0.876301 
0.972884 0.248273 0.055449 -0.183949 0.070897 -0.967692 
-1.739479 0.563307 -0.289133 -0.637310 0.031780 0.753178 
0.499443 0.036715 0.052783 0.379962 0.068298 -0.860166 
-0.101191 -0.362021 -0.155139 -0.454682 -0.287125 -0.822681 
-0.681861 0.139771 0.215239 -0.294850 -0.284957 0.899100 
-1.640103 0.086196 -0.244564 -0.479856 -0.001646 0.859863 
-0.294638 0.090966 -0.049837 -0.680647 -0.016957 -0.708307 
0.664288 -0.084783 0.127081 0.384163 -0.187424 0.891611 
2.525928 0.816356 -0.260092 -0.027455 0.033249 0.988499 
0.903407 -0.512579 -0.008103 -0.156919 -0.004191 -0.963433 
0.471352 -0.254899 0.010409 0.352488 0.015885 -0.884329 
-1.564855 0.136107 -0.230705 0.441448 -0.026207 -0.874768 
-0.188570 -0.702932 0.024639 -0.109056 -0.287391 -0.935509 
-0.375015 0.215564 0.088490 -0.555256 0.083493 -0.807050 
0.827808 0.361199 0.190676 0.450733 -0.226327 0.848746 
1.898161 0.927446 -0.172583 0.073511 -0.104855 0.964437 
-2.179806 1.608195 -1.006370 0.680570 -0.056018 -0.723965 
1.888529 1.459281 -0.167820 0.334325 -0.006644 0.923012 
0.514556 0.545485 0.197726 0.348919 0.430394 -0.669580 
-0.913211 0.587262 0.162553 -0.249267 0.215825 0.934698 
-0.875900 0.306221 0.162420 -0.456555 -0.235320 0.846652 
1.186621 -0.685794 -0.121367 -0.254786 -0.019173 -0.936819 
1.852872 -0.065733 -0.107463 -0.210864 0.121352 0.947833 
-2.035562 -0.182966 -0.394892 -0.499277 0.114875 0.847035 
2.030993 0.647792 -0.212117 -0.238540 -0.121382 0.943316 
1.947328 0.367568 -0.194269 -0.150576 0.016084 0.960055 
-0.394722 -0.225691 0.154867 -0.407964 -0.181324 0.877102 
0.346036 0.535165 0.023748 0.688892 0.242793 -0.671807 
-0.170498 -0.730070 0.206216 -0.160523 -0.149322 0.967960 
-0.255469 -0.626830 0.019857 0.073288 -0.358028 -0.927561 
-2.862630 1.611292 -1.413979 -0.456404 -0.044528 0.882173 
-0.153916 0.052288 0.318828 -0.146505 -0.218815 0.959324 
0.037941 0.360359 0.434766 0.018320 -0.355990 0.932324 
0.744968 -0.814995 0.006945 -0.086965 -0.072346 -0.967464 
0.883930 0.414461 0.093423 -0.162283 0.106556 -0.973843 
-0.637770 -0.117642 0.124373 -0.396617 -0.186349 0.884910 
-1.187441 1.099700 0.037307 0.744737 0.360429 -0.464749 
-0.034047 -1.090318 0.218277 -0.421627 0.083391 0.875466 
-1.309080 -0.396821 -0.168177 0.291543 0.147378 -0.939930 
0.595170 -0.135333 0.017089 0.247500 0.043406 -0.892308 
2.244558 0.747931 -0.245725 0.234338 0.146100 0.929300 
0.262196 0.828685 0.422258 0.642349 0.254344 0.658990 
1.484841 1.014676 -0.091066 0.415206 -0.172268 0.852612 
1.027299 0.475722 0.096938 0.540349 -0.165611 0.816663 
-2.124656 1.612318 -0.960162 0.710825 -0.052552 -0.697748 
-0.810592 -0.426999 0.038772 0.157561 -0.013484 -0.966457 
-0.890619 -0.423540 0.026153 -0.348620 -0.068099 0.927296 
-0.057466 -0.473893 0.286944 -0.106586 -0.214158 0.968649 
-0.225489 1.146574 0.554423 -0.247280 -0.493741 0.803902 
1.667875 1.300522 -0.135271 0.429491 -0.222164 0.836305 
1.939924 0.450087 -0.224361 -0.162893 -0.166039 -0.962177 
0.810557 -0.404013 0.058415 0.344337 -0.055113 0.929567 
0.485361 0.543216 0.402717 0.234698 0.168847 0.909082 
-0.679648 0.040444 0.036192 -0.179713 0.076661 -0.878631 
-1.690566 -0.103990 -0.253176 -0.423871 -0.022683 0.894508 
3.102982 0.744946 -0.146546 -0.220365 0.033532 0.967965 
1.594162 0.598349 -0.164291 -0.127609 -0.079037 -0.987173 
2.101088 1.151137 -0.224791 0.204665 -0.072038 0.957503 
0.377246 -0.075563 0.218876 0.315835 -0.236032 0.896556 
-2.911393 1.453981 -1.443001 -0.455133 0.019022 0.889078 
1.514460 1.581636 -0.078715 0.277577 -0.010455 0.949037 
1.588120 -0.248402 -0.215857 0.123966 -0.112163 0.979910 
-1.485465 0.909248 -0.150170 0.421433 -0.146391 -0.877669 
-2.402564 0.873345 -1.075133 0.632727 -0.260040 -0.719970 
0.091346 0.930242 0.012733 0.481931 0.380413 -0.767112 
-1.960906 -0.144769 -0.367338 -0.481965 0.079161 0.858590 
-0.944674 -0.237731 0.035297 -0.368305 -0.093767 0.919833 
0.193884 -0.223841 -0.141404 0.572173 -0.142327 -0.794597 
-1.515212 1.075925 -0.149463 0.433385 -0.176588 -0.872145 
-0.270544 -0.106032 -0.087011 -0.663588 -0.101755 -0.716973 
2.766215 0.853805 -0.244930 0.024425 -0.251772 -0.959528 
-1.062824 -0.116864 0.010131 -0.374439 -0.125899 0.916312 
2.354018 0.564406 -0.240594 0.132495 -0.068388 -0.982814 
2.713257 0.368252 -0.200102 -0.058845 0.144649 0.984317 
-1.061651 0.654370 0.045890 0.234823 -0.030435 -0.969505 
3.238478 0.824688 -0.117077 0.273313 -0.024229 -0.958284 
-1.424997 1.777975 -0.008265 -0.747021 0.319731 0.573112 
1.737012 0.322530 -0.226849 -0.109419 -0.032449 -0.991405 
-2.019020 1.123658 -0.756166 0.766602 -0.130113 -0.618613 
-2.329727 0.994684 -1.032118 -0.624963 0.072526 0.757057 
1.374841 1.063494 -0.088779 -0.124274 -0.150839 -0.977209 
