-0.680392 0.103821 1.078563 -0.968927 0.084036 0.099369 
-0.351285 0.272745 2.724203 -0.990055 0.082316 -0.069940 
0.122329 -0.238051 -0.176345 0.437628 -0.151113 -0.869120 
0.446681 0.919456 1.351062 0.976479 -0.119661 0.118508 
-0.172872 0.811017 -0.083828 -0.519901 0.412294 -0.723453 
0.503077 1.171034 1.807714 -0.842047 0.136511 0.438899 
-0.296262 -0.591475 -0.055013 -0.622391 -0.125014 -0.754217 
-0.746503 -0.428671 1.339963 -0.992588 0.036782 0.068134 
0.105440 0.244521 0.500398 0.285307 -0.100856 0.933817 
-0.668768 -0.312641 2.111782 0.828216 -0.465288 -0.268438 
1.200491 0.351843 3.076198 -0.875743 -0.206692 0.434335 
0.427080 1.024315 1.420502 0.976825 -0.156474 0.104547 
0.790324 -0.703372 1.129476 0.905581 0.313024 -0.076854 
0.314944 0.751154 -0.028341 0.650077 0.535402 -0.495800 
0.587848 0.909353 1.890666 0.963059 0.082038 -0.195622 
-0.594862 0.829999 0.972313 -0.800015 0.335282 -0.352933 
0.600757 -0.219880 0.566010 0.949921 0.034268 -0.240588 
-0.692702 -0.349333 2.057573 -0.847119 0.437309 0.244615 
-0.194094 1.117656 0.109581 -0.709247 0.450560 -0.461301 
-0.266848 0.725559 -0.097117 -0.522734 0.404522 -0.722205 
-0.291504 -1.285740 0.032433 -0.649716 0.142337 0.679262 
-0.382963 0.708838 1.942599 0.989578 0.023155 0.011296 
-0.629630 0.427693 0.491038 -0.909695 0.338134 -0.101920 
0.553535 0.415411 0.501062 0.818190 0.528929 -0.124157 
0.807521 -0.075275 2.303348 -0.861482 -0.039806 0.475721 
-0.593528 0.479618 0.852568 0.927849 -0.237797 0.089008 
-0.616898 0.292340 0.384158 -0.882417 0.113956 -0.357869 
0.819335 -0.683238 1.197640 0.922611 0.334353 -0.034029 
-0.698730 -0.272170 1.723370 0.848309 -0.387156 -0.208872 
0.129365 -0.578846 0.193966 0.183688 -0.353393 0.914877 
-0.663186 -0.200376 1.839666 -0.865793 0.390711 0.265508 
0.480387 0.590671 1.410943 0.983794 -0.052796 0.036753 
-0.352201 0.929942 2.350408 -0.974588 0.087509 0.200660 
-0.649881 -0.068803 1.307380 -0.972632 0.135297 0.123149 
0.336854 0.687345 -0.068376 0.581857 0.343809 -0.679479 
0.635150 -0.449540 0.741230 -0.896214 -0.166159 0.242823 
-0.774942 -0.092888 0.885882 -0.985079 0.045602 -0.058316 
0.371658 1.417054 1.429533 0.620244 0.216633 -0.670032 
0.525881 -0.470954 0.440366 -0.686105 -0.136621 0.515045 
0.767102 -0.251007 2.225729 0.858833 -0.051427 -0.490537 
-0.559295 0.697694 0.985074 0.981998 -0.069193 -0.099269 
0.477359 0.776929 1.216306 0.974788 -0.062561 0.155739 
-0.695615 0.144170 0.783527 0.925152 -0.270019 0.214724 
-0.466380 -0.573638 0.208882 0.436505 -0.126275 0.776679 
-0.580270 0.035665 0.404054 0.591133 -0.274224 0.598577 
0.170685 -0.647804 -0.051148 0.092114 -0.187625 -0.976747 
0.520487 -0.393268 0.398185 -0.597864 -0.142922 0.582890 
-0.586817 -0.378751 0.414292 0.596051 -0.107760 0.567692 
-0.351250 -0.623999 0.104123 0.047465 -0.180559 0.909494 
0.531583 0.597353 0.960379 0.954508 0.142781 0.074264 
0.582768 0.273204 0.911063 0.977153 0.049347 0.102101 
-0.513683 1.078506 1.384169 0.928729 -0.359213 0.042580 
0.965405 0.103786 2.494380 0.886053 0.234474 -0.360648 
0.488150 -0.951850 0.402708 -0.642419 -0.206414 0.608741 
0.766750 -0.638270 1.075436 -0.901927 -0.313032 0.108560 
0.617317 -0.917715 0.664953 -0.717468 -0.337842 0.405661 
-0.474656 -0.327781 2.515984 0.901308 -0.357692 -0.195640 
-0.510060 0.336318 0.427964 0.678204 -0.391698 0.564236 
-0.022291 0.808189 -0.150482 -0.409242 0.295225 -0.855209 
0.546396 -0.581742 0.504791 0.840361 0.047544 -0.383799 
0.310137 -0.299237 -0.074001 0.641214 -0.135179 -0.721116 
0.666063 -0.535937 2.012391 -0.910285 0.053230 0.393083 
-0.725561 -0.337779 1.769412 0.897490 -0.348464 0.127753 
0.453238 0.737393 0.874874 0.874363 0.357782 -0.228519 
-0.267270 0.980222 0.319503 -0.880856 0.192305 0.333912 
-0.051151 -1.185071 -0.187186 -0.385402 -0.574154 -0.208973 
-0.428113 -0.207339 0.089767 -0.846229 -0.054730 -0.501549 
0.788999 -0.579496 1.134791 -0.932685 -0.312836 0.047820 
0.502354 0.348029 1.163539 -0.937442 -0.246009 0.191467 
0.641222 -0.246489 0.961654 -0.946986 -0.141600 0.032584 
1.010773 0.056100 2.564103 -0.820153 -0.123850 0.549486 
0.602874 -0.010646 0.891558 -0.961393 -0.181651 0.168178 
0.665313 -0.885217 0.795059 -0.756301 -0.350401 0.327173 
0.475015 0.282055 0.320786 -0.577060 -0.335650 0.714071 
-0.305915 0.796848 2.658829 0.951301 0.226318 0.130557 
-0.278804 0.250248 0.403505 -0.491147 -0.080915 0.854675 
-0.726803 -0.351335 1.400149 0.202456 -0.312724 0.520221 
0.478475 0.720655 1.487575 0.947668 -0.091989 -0.064920 
0.529858 0.985984 1.807312 -0.810250 -0.171632 0.546675 
0.301003 -0.392654 -0.063878 0.685978 -0.143001 -0.669804 
0.558065 0.157636 0.358957 0.892997 0.042450 -0.350935 
0.558075 -0.084586 0.394832 0.908509 0.022595 -0.344086 
-0.404022 1.090256 2.027160 0.889420 0.341579 0.027830 
0.224312 1.077208 0.127542 0.801011 0.427972 -0.349372 
-0.278309 0.197930 -0.092431 -0.434001 -0.061300 -0.894408 
-0.342885 -0.943756 0.038086 -0.668764 -0.052293 -0.726209 
0.368099 0.524125 0.341445 -0.823004 0.114972 0.427148 
-0.528204 0.202284 0.314154 0.515898 -0.377039 0.704453 
-0.325924 0.751098 2.496717 -0.991623 -0.024799 0.067435 
-0.523024 -0.762706 0.405640 -0.782301 -0.036513 -0.507641 
0.637003 -0.141173 1.809980 0.957777 -0.051039 -0.278152 
-0.692909 -0.219591 0.573527 -0.952254 -0.014065 -0.232706 
0.785889 -0.840409 1.049170 0.847020 0.440182 -0.118867 
0.212340 -0.704403 -0.043675 0.017921 -0.185253 -0.972427 
-0.318203 -0.121238 0.281684 -0.551218 -0.231933 0.794627 
0.458492 0.109909 0.256941 -0.493156 -0.295042 0.778530 
-0.422903 0.448364 1.601332 0.918493 -0.180541 -0.306857 
0.259421 -0.777361 -0.031270 -0.001382 -0.170712 -0.942554 
-0.471230 0.444803 0.045682 -0.730000 0.174062 -0.552103 
0.725007 -0.174526 2.087159 0.903239 -0.030696 -0.353278 
0.557748 0.366512 1.723038 -0.965442 -0.153087 0.147694 
-0.732349 -0.651582 1.019091 0.926256 0.008516 0.243305 
0.728946 0.406738 2.137575 -0.932782 -0.176689 0.300534 
0.442809 0.503526 0.484676 -0.935374 0.151418 0.264577 
0.331973 0.776691 0.051750 0.734912 0.519275 -0.346817 
1.049044 0.162890 2.699408 -0.845991 -0.152906 0.498701 
0.613216 -0.074102 1.103341 0.990526 0.064426 -0.101930 
0.469470 0.661283 1.540889 -0.913395 -0.292621 0.154799 
-0.462234 1.123107 1.867939 -0.972515 -0.002500 0.222148 
0.797912 0.476859 2.322827 -0.852959 -0.063967 0.507878 
-0.368584 0.153065 2.163152 0.796425 -0.401721 -0.441104 
-0.129233 0.431160 0.504192 -0.328832 0.067569 0.928467 
0.946751 0.759820 2.750883 -0.886756 -0.268069 0.374285 
0.882043 0.192340 2.344380 0.848565 0.120388 -0.508725 
-0.346791 0.240577 2.633507 0.988597 -0.070265 0.083769 
0.579921 0.339578 1.635768 0.839696 -0.012582 -0.485725 
-0.651359 0.234202 0.743995 0.879111 -0.387550 0.271299 
-0.722639 -0.554477 0.868048 -0.928927 -0.035288 -0.240500 
0.505009 0.565209 0.831189 0.830651 0.424165 -0.319739 
-0.681834 0.239406 1.013316 -0.963170 0.034813 0.150493 
0.554819 0.373895 0.992989 0.976236 0.043713 0.140052 
-0.351611 -0.060608 0.269579 -0.496351 -0.194146 0.810263 
0.405311 -0.037067 -0.004093 0.805354 -0.053741 -0.569399 
-0.748367 -0.426840 1.909895 -0.883905 0.403619 0.162827 
-0.585452 -0.280780 0.398261 -0.914902 -0.041328 -0.327229 
-0.262860 -0.523897 -0.082781 -0.330055 -0.191076 -0.857311 
0.606587 0.065776 1.749556 -0.993738 -0.083767 -0.053063 
-0.558974 -0.246640 0.341620 -0.904943 -0.042318 -0.356316 
0.644568 1.094551 2.120651 0.839644 0.435090 -0.214026 
-0.422253 0.036348 0.241282 0.003442 -0.253167 0.833682 
0.425438 1.219028 1.495753 0.989178 0.020470 -0.114233 
0.559543 0.100875 1.100823 -0.961998 -0.176128 0.159701 
-0.259452 -0.009092 -0.108318 -0.470115 -0.096006 -0.870279 
-0.224565 -1.016765 -0.008615 -0.199119 0.015068 -0.961445 
0.621515 -0.251676 1.136921 -0.910554 -0.159656 -0.083319 
-0.584544 0.441266 1.103658 0.949741 -0.264298 0.046065 
-0.017767 -0.664473 0.195040 -0.419179 -0.362417 0.829296 
-0.483318 0.378731 1.643789 -0.888423 0.195144 0.389444 
-0.761597 -0.775028 1.194895 -0.952313 -0.033048 -0.177247 
-0.199978 0.761740 0.398285 -0.378728 0.125082 0.883800 
0.572516 0.256738 0.459891 0.928886 0.065079 -0.184002 
0.683516 -0.347408 0.802316 0.958157 0.107150 -0.155963 
0.035289 0.500235 0.495667 0.122044 0.118706 0.969682 
0.579227 0.649163 1.784827 0.948147 0.075476 -0.202325 
-0.636023 -0.167174 1.924417 -0.846207 0.409912 0.306382 
-0.604267 0.225409 1.250235 -0.957517 0.127891 0.212117 
0.995206 0.287166 2.645848 0.895323 0.213680 -0.375753 
0.436146 0.008568 0.043707 0.841128 -0.032248 -0.525065 
0.462817 -0.335709 0.224978 -0.407971 -0.172399 0.792049 
0.197338 0.126657 -0.137933 0.463703 -0.043772 -0.878336 
-0.560764 0.811796 1.133445 0.939160 -0.313759 0.112703 
-0.406159 -0.143821 2.645641 0.961933 -0.186873 0.019311 
-0.462127 0.298437 1.695206 0.944192 -0.184387 0.129499 
0.286456 0.808368 0.002546 0.648985 0.507042 -0.504407 
0.604256 -0.096297 1.759551 -0.980345 -0.038198 -0.037845 
-0.230614 -0.882545 -0.017407 -0.114575 -0.097247 -0.985483 
-0.410797 0.858528 1.848305 0.987846 -0.027579 0.043483 
0.451437 1.140284 1.651201 -0.786903 -0.220180 0.571481 
0.466157 1.003178 1.498957 0.966813 -0.023825 0.113008 
-0.481802 1.194988 1.393855 0.985846 0.039358 -0.160671 
-0.573671 0.774544 1.009397 0.820557 0.176520 -0.321808 
-0.536211 -0.172059 0.315478 0.463870 -0.205092 0.700720 
0.002385 -0.295662 -0.218542 0.303619 -0.239194 -0.912226 
0.700892 0.826960 2.178856 -0.848067 -0.185984 0.484217 
-0.746944 0.062866 0.899101 -0.976072 0.022764 0.026038 
0.572820 0.109901 1.176176 0.987197 0.054835 -0.020738 
-0.228931 1.186336 0.555835 0.573533 -0.025870 0.802534 
-0.630373 0.345042 0.443015 -0.902167 0.192620 -0.239566 
0.691198 -0.181340 2.014426 -0.779610 0.056916 0.596258 
-0.744055 -0.373890 0.746132 -0.939782 -0.005342 -0.220629 
-0.417878 0.661592 0.342230 -0.693563 0.709139 0.032022 
-0.547976 0.445077 0.604602 0.956160 0.072119 0.213791 
-0.383143 -0.990764 0.170637 -0.682083 -0.052846 -0.690280 
-0.171516 0.749961 -0.114920 -0.513425 0.405066 -0.713550 
-0.614267 0.769845 1.115646 -0.912001 -0.128221 0.353694 
0.631989 -0.889288 0.735131 0.784589 0.253816 -0.328677 
-0.161172 -0.980067 -0.003598 0.294087 -0.388432 0.829790 
-0.375300 0.860408 2.194335 -0.969342 -0.091449 0.183277 
0.406769 -0.913682 0.218360 0.695398 0.014479 -0.632847 
-0.645806 0.781088 1.040567 -0.953175 0.213257 -0.088997 
0.394396 1.026415 1.504573 -0.793946 -0.221885 0.492724 
0.932933 -0.242535 2.409644 -0.821102 -0.049537 0.557971 
0.503078 -0.360811 1.486773 0.871445 -0.130180 0.183865 
-0.393685 0.335503 3.039635 0.975312 -0.154236 0.121368 
-0.282920 -1.373930 -0.002901 0.025412 -0.011307 -0.993661 
0.891395 0.545696 2.560602 -0.883454 -0.152500 0.438469 
0.914973 0.274383 2.485422 -0.824169 -0.100906 0.546542 
-0.331459 0.471850 2.186547 0.993622 0.070457 -0.031872 
0.450246 -0.566407 0.231036 -0.490261 -0.145743 0.744579 
-0.461917 -1.033608 0.210387 -0.664350 0.230470 -0.598212 
0.882669 0.486779 2.510954 0.902523 0.191549 -0.370331 
0.746478 0.814060 2.298677 -0.872161 -0.181066 0.442297 
-0.431083 0.260210 2.017416 -0.868776 0.345110 0.341567 
0.588145 0.167840 0.997185 0.981808 0.053667 0.035923 
0.731597 -0.320278 2.146848 -0.849211 0.046015 0.506201 
0.559353 -0.696407 0.557145 0.814823 0.093685 -0.387258 
-0.364473 0.198524 2.739164 0.986787 -0.098214 0.087742 
0.429445 0.057541 0.223800 -0.299074 -0.264753 0.823979 
1.074767 0.271820 2.798347 -0.879087 -0.195565 0.433431 
0.653688 0.039211 1.834671 0.987230 0.019426 -0.089355 
0.716174 0.194604 2.064996 -0.870383 -0.038688 0.456640 
-0.674228 -0.042319 0.574265 0.767510 -0.188395 0.399505 
0.151341 1.087681 0.043497 0.535652 0.429863 -0.714795 
0.502071 0.298404 0.117316 0.833957 0.023432 -0.506621 
0.193658 -0.223389 -0.150122 0.510031 -0.111077 -0.845087 
0.914382 -0.051672 2.385781 0.779279 -0.008898 -0.613889 
0.651233 -0.723641 0.789151 0.844370 0.188180 -0.268248 
-0.581678 -0.039424 0.403953 0.580293 -0.239841 0.598256 
0.380574 -1.181186 0.099138 0.603949 0.136026 -0.675277 
-0.683642 -0.122448 0.588727 0.771994 -0.147417 0.382161 
0.033149 1.159962 0.036541 0.386521 0.365685 -0.835033 
-0.340419 0.220512 2.157869 -0.966098 0.170838 0.159007 
0.171550 0.272434 0.489839 0.410746 -0.063646 0.897940 
0.149638 0.493792 0.494078 0.397616 0.067055 0.914046 
0.512362 0.121916 0.182542 0.853462 0.014607 -0.479019 
0.457351 0.532583 1.450098 -0.919669 -0.247817 0.205701 
-0.231705 0.081449 0.402924 -0.432240 -0.229033 0.860929 
0.704830 -0.482982 0.914941 -0.922306 -0.224876 0.151600 
-0.040099 -0.658920 -0.043637 -0.200070 -0.099518 -0.962911 
-0.538876 0.184751 1.626904 -0.963797 0.181790 -0.122803 
0.242977 0.381152 0.426257 0.375976 -0.037110 0.915653 
-0.787646 -0.247819 0.759752 -0.969318 0.010110 -0.166768 
-0.684773 -0.094543 0.510736 -0.925308 0.013504 -0.287360 
0.484523 0.496916 1.042331 -0.911512 -0.320585 0.231854 
-0.515608 0.403109 0.085947 -0.791481 0.189716 -0.499081 
0.911228 -0.130063 2.386855 0.797207 -0.000289 -0.591771 
0.653582 -0.614253 0.775579 0.874631 0.158001 -0.245098 
0.077513 -0.416968 -0.168492 0.277890 -0.314473 -0.897184 
0.546073 -0.065885 1.585366 -0.966369 -0.028477 -0.072790 
-0.510374 1.258254 1.434321 0.475839 0.447680 -0.618736 
0.448497 0.669960 0.314101 0.797047 0.564863 0.022083 
-0.583560 0.163368 1.295884 0.956168 -0.229209 -0.109331 
0.156910 1.123663 0.398074 0.896843 0.123360 -0.193612 
0.395654 -0.776063 0.125349 -0.472644 -0.142915 0.824493 
-0.576050 0.477498 0.335289 -0.866449 0.364991 -0.182367 
0.367861 -0.348930 0.039625 0.874509 -0.092985 -0.466253 
-0.548201 0.069904 1.844642 -0.846366 0.380070 0.369838 
0.547979 0.438916 1.723955 -0.911506 -0.110276 0.338637 
0.744884 -0.071958 2.128608 0.895863 -0.012288 -0.378764 
-0.499538 -0.291928 2.449950 -0.885355 0.369709 0.229301 
-0.453051 -0.237484 2.450585 0.873303 -0.372778 -0.254409 
-0.576934 0.747326 1.325331 -0.895576 -0.111852 0.339244 
0.642760 0.190469 1.817559 0.984330 0.083810 -0.068380 
-0.669818 -0.182751 0.517591 -0.936211 -0.009342 -0.269461 
0.369874 -1.108727 0.088911 -0.224190 -0.154581 0.739447 
0.447699 0.933303 1.459502 0.956641 -0.138866 0.015843 
-0.435835 -0.266522 0.127263 0.243020 -0.217189 0.919792 
0.562447 0.010755 0.361038 0.893794 0.031793 -0.376178 
0.512134 0.712939 1.557405 0.882745 -0.093521 -0.261925 
0.331182 0.439345 -0.088072 0.503556 -0.046437 -0.860406 
0.689462 -0.472636 2.062347 0.900445 -0.067281 -0.410145 
-0.327501 0.828539 2.534189 -0.980499 0.097473 0.131887 
0.392666 1.155520 1.390464 -0.575104 0.456353 -0.647334 
-0.442806 0.297841 1.815481 0.920382 -0.246224 -0.060114 
0.388963 0.525749 -0.014271 0.633347 0.085563 -0.659827 
-0.646638 -0.918129 0.728720 0.778427 -0.241034 0.370588 
-0.510933 1.011418 1.239123 0.957705 0.034972 -0.179291 
-0.335127 0.847768 2.355350 0.986576 -0.049039 -0.128056 
1.157152 0.518124 3.061289 -0.878787 -0.223395 0.417608 
0.721375 0.308493 2.035222 0.943259 0.097037 -0.298577 
0.333785 -0.799173 0.025309 0.714267 -0.056874 -0.667158 
0.342808 0.586081 -0.083231 0.571868 0.119383 -0.774979 
0.264908 0.774816 0.368043 0.589484 0.224830 0.747330 
-0.634540 0.260644 0.456297 -0.900333 0.113498 -0.330919 
-0.068805 -0.042685 -0.204543 -0.439296 -0.068813 -0.877569 
0.555797 -0.212451 1.631699 -0.941836 0.025982 -0.209038 
-0.569572 -0.526093 0.405489 0.679713 -0.100131 0.541347 
0.206611 -0.533005 -0.074135 -0.053243 -0.313703 -0.923176 
0.644572 -0.155524 0.973718 0.988727 0.070296 -0.118825 
0.448369 0.775156 1.032211 -0.852551 0.128324 -0.344498 
0.589028 0.361904 1.783975 -0.832819 -0.030971 0.541919 
-0.133528 0.159552 -0.172922 -0.457920 -0.008213 -0.882161 
1.129656 -0.125149 2.706006 -0.832521 -0.167444 0.520799 
-0.229834 0.952123 0.392729 -0.724998 -0.060617 0.665252 
0.301840 -0.504274 -0.052790 0.669226 -0.125943 -0.695316 
0.863736 -0.226849 2.353444 -0.826869 -0.007175 0.554866 
-0.598438 0.822992 1.199602 -0.898545 -0.152196 0.361808 
-0.502635 -0.530533 0.273402 0.498411 -0.119362 0.706436 
-0.133408 0.363057 0.516411 -0.344286 0.028472 0.928817 
-0.628863 -0.757572 0.757669 0.821660 -0.026545 0.405505 
0.636187 -0.306479 0.679414 0.953262 0.056080 -0.204631 
-0.328497 -0.331474 0.214640 -0.577541 -0.270042 0.768997 
-0.626918 -0.043413 0.487114 0.671340 -0.213540 0.501194 
-0.300188 -1.124793 0.049418 -0.014576 0.025201 0.827247 
-0.385900 0.702758 0.192621 -0.406280 0.871966 0.088322 
-0.760532 -0.309752 1.159831 -0.990412 0.040902 0.011930 
-0.328612 0.550222 2.319884 -0.990794 -0.021848 0.091465 
0.194114 1.046527 0.407389 0.692702 0.679387 -0.207404 
0.174720 1.214922 0.356089 0.891838 -0.328912 0.120160 
0.424227 0.611344 0.050095 0.721863 0.256021 -0.494372 
0.699662 0.244091 2.016685 -0.864313 -0.042871 0.459023 
-0.608342 -0.474949 0.473611 0.741408 -0.093173 0.468613 
0.457909 0.611114 1.209967 -0.899680 -0.323668 0.242175 
0.486876 -0.333447 0.293296 -0.475895 -0.164061 0.713583 
-0.689367 -0.722991 0.936010 -0.908611 -0.060703 -0.277593 
0.623037 -0.330930 1.860966 -0.813660 0.066194 0.522515 
0.301290 0.119706 -0.080466 0.456248 -0.091335 -0.881495 
0.838703 0.788195 2.505624 0.906412 0.128981 -0.398452 
0.362654 -0.065065 -0.055793 0.651424 -0.088739 -0.724060 
0.243047 0.067140 -0.114300 0.467849 -0.075806 -0.874384 
-0.419154 0.888870 1.922495 -0.941265 -0.125912 0.263376 
-0.611246 0.217236 0.538853 0.725173 -0.376012 0.465420 
0.472838 0.955768 1.225724 0.841783 0.353316 -0.188501 
-0.521911 0.757491 1.494483 -0.918876 -0.123712 0.211444 
-0.790253 -0.669907 1.289968 -0.990248 -0.059318 -0.093721 
-0.525391 0.888005 1.372824 0.934120 -0.333954 0.006275 
0.492351 0.505010 0.795459 -0.974652 -0.004015 -0.109390 
-0.208508 -0.194384 -0.141236 -0.506591 -0.112717 -0.846807 
0.754328 0.720936 2.282926 0.926976 0.122409 -0.350923 
-0.644672 0.141357 0.579564 0.769457 -0.314447 0.411605 
-0.307436 0.672584 2.838570 -0.970994 0.205760 0.031783 
-0.605227 -0.147415 2.033311 0.826089 -0.414207 -0.090822 
-0.173055 1.080953 0.048378 -0.582010 0.414567 -0.694667 
0.277297 0.985822 0.246447 0.918202 0.346989 0.061812 
-0.104499 0.158548 0.483868 -0.259847 -0.195536 0.931781 
-0.044106 -0.378315 0.264895 -0.004829 -0.249050 0.961491 
-0.377726 1.040468 2.183632 0.910574 0.359330 0.031295 
0.503175 -0.472872 0.368899 -0.603807 -0.141148 0.600243 
-0.526005 -0.132714 0.238177 -0.870385 -0.021400 -0.431617 
-0.375628 0.389675 2.017429 -0.939697 0.155692 0.256874 
-0.435993 0.648968 1.665097 0.967585 -0.163276 -0.045077 
0.493399 1.210507 1.751625 0.754250 0.611382 -0.106776 
1.292419 0.404570 3.279281 0.879039 0.184833 -0.439424 
0.560462 0.473619 1.617948 0.845470 -0.042125 -0.434464 
0.358322 1.057777 1.344451 -0.977692 -0.073872 -0.066173 
0.176506 -0.971605 0.014152 -0.355122 -0.331665 0.829348 
0.964096 0.265969 2.574740 0.903474 0.238172 -0.336901 
-0.340780 0.551489 2.174716 -0.985917 -0.042065 0.146915 
0.518321 0.854571 1.685003 0.942558 -0.067818 -0.192465 
1.050691 0.058056 2.645841 -0.832620 -0.144202 0.524049 
0.673381 -0.655704 0.831876 0.871460 0.188899 -0.225953 
-0.320435 -0.257867 -0.073107 -0.631041 -0.116646 -0.738798 
0.801636 -0.161718 2.301374 -0.843050 0.006187 0.523902 
-0.356118 -1.023170 0.071265 -0.650558 -0.008289 -0.729229 
-0.375093 -0.015013 2.533549 0.971995 -0.102777 0.084078 
-0.379755 0.510093 0.369302 0.824228 -0.174448 0.507501 
0.507693 -0.231011 1.475592 0.915109 -0.069790 0.127671 
-0.620470 0.185320 0.323892 -0.860278 0.073236 -0.425944 
0.477152 0.554306 0.607927 0.900158 0.390100 -0.009815 
0.223663 -0.285411 -0.135274 0.515772 -0.136625 -0.840321 
-0.660281 -0.164980 1.646994 -0.811178 0.291376 -0.232700 
-0.379590 -0.967321 0.104554 0.547356 -0.117820 0.807976 
0.144184 1.077319 0.307923 0.651317 0.395472 0.419910 
-0.599046 0.529378 1.219406 -0.929252 -0.007497 0.295266 
-0.374801 0.364033 -0.048950 -0.510381 -0.021986 -0.838108 
-0.346459 0.546813 2.106520 -0.983019 -0.047642 0.172093 
-0.522641 0.948519 1.196676 0.980176 -0.036224 -0.101889 
-0.577754 -0.607197 0.425745 -0.819470 -0.017634 -0.439864 
0.402078 0.067483 -0.031638 0.699105 -0.054421 -0.682815 
-0.321671 0.435532 0.340970 -0.280783 -0.049949 0.955842 
-0.414772 0.001647 2.925686 0.978149 -0.144220 0.148271 
0.541251 -0.351787 0.450723 -0.638198 -0.141439 0.529186 
-0.114024 1.268492 0.186345 -0.714563 0.608139 -0.009831 
-0.256485 1.038293 0.268940 -0.908637 0.372311 0.098851 
-0.573036 1.169862 1.391995 -0.919398 -0.058291 0.244813 
-0.347012 -0.308348 -0.015500 -0.795333 -0.098232 -0.576090 
0.275112 0.863586 0.051089 0.735943 0.453388 -0.430397 
0.194466 0.430969 0.466756 0.377306 0.014400 0.921276 
-0.687202 -0.362210 0.574072 -0.907986 -0.002534 -0.286013 
0.645530 -0.255516 1.882828 0.962041 -0.025169 -0.201494 
0.711230 -0.571356 1.274975 0.807614 0.280112 0.351963 
0.010234 -0.859912 0.064781 0.470535 -0.415919 0.762465 
0.181298 -1.134302 -0.053505 0.247084 0.062809 -0.860591 
-0.511110 1.088056 1.300227 0.789908 0.176395 -0.321248 
0.804487 0.144418 2.275366 -0.905859 -0.132743 0.368138 
-0.237127 0.870477 -0.024156 -0.616608 0.465175 -0.627565 
0.411332 0.460418 -0.008315 0.669268 0.044288 -0.653186 
0.392769 -0.635739 0.143685 0.785100 -0.043742 -0.549344 
0.382333 0.392109 -0.052237 0.589526 -0.032241 -0.782678 
-0.419382 -0.058370 2.886122 0.972365 -0.171593 0.105493 
0.271969 0.623134 -0.121176 0.501179 0.137414 -0.838556 
-0.001826 -1.028711 -0.037825 -0.639668 -0.429022 0.626596 
0.586610 -0.771312 0.637057 -0.758319 -0.224120 0.410860 
1.266746 0.351920 3.206451 0.878343 0.186944 -0.439744 
0.244806 -0.633712 0.141268 0.269038 -0.278564 0.884517 
0.462262 0.674297 0.902421 -0.952504 -0.022279 -0.182328 
1.109966 -0.059061 2.701477 0.848623 0.178979 -0.482893 
-0.257172 0.464145 -0.112863 -0.460938 -0.009742 -0.882153 
-0.609657 -0.856754 0.782946 0.802578 -0.015003 0.435600 
0.622716 0.383405 1.705115 0.971373 0.095938 -0.212027 
0.591176 0.232927 1.664876 0.845808 -0.029297 -0.484522 
-0.140608 1.147012 0.372831 -0.983004 -0.113550 -0.071317 
-0.658778 0.351858 0.619419 -0.774015 0.536417 -0.197801 
0.492287 0.441374 0.093073 0.824148 0.146801 -0.431545 
-0.006570 0.328108 0.529150 -0.106830 -0.023439 0.991601 
-0.361785 1.001694 2.265597 -0.913539 0.243146 0.267265 
0.401420 0.833612 1.160223 -0.978766 -0.151081 -0.001797 
0.257463 0.713584 -0.106844 0.493069 0.346786 -0.769262 
-0.316165 0.325586 -0.067547 -0.407456 -0.051927 -0.911022 
-0.564003 0.733156 1.398463 -0.890546 -0.103040 0.332791 
-0.728012 -0.083232 0.671834 0.869154 -0.140932 0.285416 
-0.383025 0.477137 3.083270 0.952178 0.047395 0.235251 
-0.384582 0.134094 -0.043841 -0.587962 -0.033920 -0.775435 
0.484139 0.254084 0.627147 -0.888080 -0.306881 0.253852 
0.458440 -0.006406 0.106942 0.853091 -0.022070 -0.492778 
0.473814 0.983681 1.601209 0.942348 -0.163657 -0.155239 
0.488843 0.678859 1.219863 0.976537 -0.040115 0.137821 
0.550770 -0.631943 1.696147 -0.907779 0.108068 0.000537 
-0.584562 0.482860 1.303744 -0.926792 0.017484 0.281077 
-0.166593 -0.111868 -0.162034 -0.498223 -0.078059 -0.853705 
-0.607750 -0.179398 2.141110 -0.809262 0.457857 0.358673 
1.079257 0.167471 2.761144 -0.858109 -0.171475 0.474618 
0.773110 0.133723 2.209940 -0.897881 -0.080934 0.405937 
0.341471 -0.570069 0.112365 0.045925 -0.206596 0.906984 
-0.475911 1.179767 1.577451 0.983187 -0.112563 0.106920 
-0.167685 1.076541 0.385561 -0.761996 0.471226 -0.132369 
-0.117811 -0.352028 0.273699 -0.101438 -0.346266 0.927901 
-0.056717 -0.879214 -0.081047 -0.190260 0.136031 -0.926438 
-0.601312 0.056021 1.351559 -0.964262 0.178783 0.166599 
-0.431237 0.057361 3.032954 -0.976059 0.139144 -0.163398 
0.700592 -0.050900 2.019405 -0.748303 0.050990 0.645142 
-0.486414 1.188017 1.463788 0.940498 -0.251218 0.160524 
-0.466202 0.361638 0.293188 0.301240 -0.348410 0.795768 
-0.596931 0.658402 0.862941 0.960244 0.080248 -0.155583 
-0.458168 0.134447 2.096445 -0.866159 0.353515 0.318245 
0.520780 -0.554627 0.438006 0.840431 0.020919 -0.405788 
0.761572 -0.601694 1.225367 -0.874063 -0.320457 -0.134195 
-0.541097 0.136935 0.335552 0.530135 -0.340793 0.679103 
0.478697 0.461429 1.255891 -0.924049 -0.264517 0.206690 
-0.499305 0.157631 0.078253 -0.804760 0.041328 -0.566313 
1.098230 0.206442 2.815992 -0.874891 -0.191999 0.442576 
0.565336 0.182066 0.443376 0.918204 0.050015 -0.264486 
-0.676341 -0.208643 1.569938 -0.639222 0.281252 -0.379838 
0.070720 -0.293762 -0.193194 0.371222 -0.206117 -0.889228 
0.150043 0.478722 -0.146253 0.416982 0.017172 -0.902636 
-0.680633 0.536136 0.867295 -0.972519 0.159217 -0.048509 
-0.421519 -0.169536 2.751924 -0.960853 0.221060 0.003015 
-0.361165 0.175989 2.674510 0.985753 -0.079787 0.106395 
-0.336703 0.222306 2.497049 -0.977037 0.133825 0.059405 
-0.627566 0.845255 1.119641 -0.966484 0.098867 0.114625 
0.209808 0.243625 -0.127624 0.447317 -0.026277 -0.889858 
-0.461269 0.380616 0.465328 0.803900 -0.311194 0.476191 
0.530067 -0.658393 0.491908 -0.766907 -0.151895 0.458910 
0.683042 0.878462 2.127315 0.942138 0.078869 -0.293447 
-0.248316 1.057522 0.191920 -0.882617 0.409930 -0.120553 
-0.620110 -0.254481 0.454430 -0.929104 -0.033253 -0.294231 
0.553263 -0.275481 0.486947 -0.674623 -0.155100 0.493856 
-0.375860 0.069751 0.287117 -0.355788 -0.184694 0.826226 
0.681348 0.960353 2.149354 0.942510 0.088548 -0.285186 
0.404125 -0.741951 0.185304 0.749221 -0.023016 -0.583090 
0.645384 -0.034627 0.770435 0.990934 0.073005 -0.067375 
0.492086 0.473980 1.434830 0.986470 -0.029526 0.006546 
-0.648029 -0.850260 0.868440 -0.862846 -0.007420 -0.332840 
0.586233 -0.433415 1.756621 0.893200 -0.102555 -0.234318 
0.557871 0.053354 1.350812 0.992456 0.055976 -0.076031 
-0.714529 -0.285511 0.614510 -0.936331 -0.001490 -0.240359 
0.492178 0.931123 1.681979 -0.817584 -0.378480 0.374432 
-0.666190 0.166456 0.691664 0.855948 -0.351472 0.304126 
-0.313823 -0.906861 0.088723 0.231475 -0.146538 0.876445 
-0.677852 -0.290271 1.991556 -0.850893 0.423357 0.258436 
0.659937 -0.117072 0.758301 0.988043 0.074206 -0.107616 
0.609358 0.473692 1.796061 0.964537 0.177582 -0.101606 
-0.071938 -0.554179 -0.085839 -0.037932 -0.305192 -0.938639 
-0.267629 -0.315985 0.251075 -0.461312 -0.293642 0.814855 
0.758520 0.380402 2.198208 -0.934137 -0.205406 0.284491 
0.580161 0.371988 0.790476 0.898486 0.328112 -0.116958 
-0.101271 0.530667 0.488912 -0.274982 0.106620 0.939244 
0.424882 -0.848599 0.241425 -0.644015 -0.132217 0.669499 
0.565210 -0.321815 1.665100 0.865668 -0.118525 -0.149899 
0.558160 1.115476 1.854105 0.965022 0.067487 -0.185715 
0.589770 0.291607 0.534455 0.957583 0.122922 -0.075239 
-0.585109 -0.727631 0.581639 -0.828820 -0.041725 -0.422905 
0.106366 0.375700 -0.168348 0.413939 0.027951 -0.906244 
1.205338 0.202999 3.022745 0.876538 0.195367 -0.439764 
0.377330 -0.841194 0.088185 -0.462124 -0.142316 0.854509 
-0.540274 0.495143 1.458234 -0.938010 0.007914 0.195056 
-0.758644 -0.401832 1.766445 -0.930180 0.350523 0.002325 
-0.488225 1.114573 1.529463 0.920360 -0.355242 -0.056223 
-0.664972 -0.814253 0.950836 -0.892720 -0.073252 -0.306585 
0.649918 -0.393392 1.089814 -0.854447 -0.201870 -0.233721 
0.817427 -0.800439 1.171151 0.881322 0.408495 -0.063007 
-0.206447 -1.113036 -0.027077 -0.151484 0.022286 -0.913714 
-0.313106 -1.192103 0.052801 -0.276515 0.075024 0.752595 
0.458782 0.316633 0.568886 -0.914735 -0.125305 0.244127 
-0.585718 0.410143 1.303050 -0.934902 0.053179 0.264849 
0.248575 -0.229628 0.295820 0.454392 -0.276994 0.826612 
-0.770541 -0.289062 0.815428 0.963518 -0.051955 0.183476 
-0.320039 0.448049 2.715821 0.989310 -0.117470 0.027472 
1.158871 0.100194 2.887347 -0.871281 -0.202707 0.445845 
-0.589357 -0.014211 1.663080 0.805712 -0.380728 -0.357682 
0.313067 -1.225067 0.059139 0.418064 0.026565 0.696625 
0.512144 1.020221 1.668460 0.954915 0.051897 -0.270702 
0.385255 0.103165 0.274998 0.135226 -0.208532 0.799308 
-0.723508 -0.266685 1.249761 -0.985576 0.068444 0.059723 
0.487754 0.895453 1.183353 0.946009 0.273710 -0.055687 
-0.571125 -0.115162 2.184619 0.809605 -0.462825 -0.342101 
0.520649 0.010039 0.422962 -0.645562 -0.244786 0.582351 
0.690638 -0.610142 0.886099 -0.870512 -0.251301 0.210747 
-0.512356 0.051057 2.111746 -0.832802 0.410136 0.360574 
-0.391109 0.588845 0.348264 0.493893 0.120738 0.557375 
-0.304006 0.817017 0.309355 -0.807939 0.243176 0.472742 
-0.774358 -0.458183 1.565264 0.490329 -0.346721 0.301582 
-0.547697 0.500073 0.251880 -0.840412 0.377894 -0.232366 
0.473917 -0.410487 0.306487 0.882696 -0.025729 -0.387093 
0.519334 0.222258 0.156560 0.840199 0.025584 -0.505917 
-0.679206 -0.227727 1.670620 0.759283 -0.376577 -0.149786 
-0.550312 0.453822 1.360448 0.946241 -0.276965 -0.083413 
-0.751910 -0.416846 1.837474 0.892570 -0.383638 0.006313 
0.032267 0.936491 0.476229 0.177827 -0.062915 0.973703 
0.435404 0.698631 0.160503 0.613837 0.742253 -0.098506 
-0.234118 -1.245128 0.037995 0.489589 -0.130768 0.678091 
-0.600885 0.596325 1.203881 -0.923244 -0.040769 0.310932 
0.522641 -0.164182 1.531033 -0.943718 0.012033 -0.144461 
1.153223 0.440680 3.017277 0.877213 0.149061 -0.451579 
0.799233 0.559393 2.350482 0.917752 0.173606 -0.348100 
-0.679880 -0.508114 0.703524 0.872407 -0.054025 0.325563 
-0.607748 -0.657461 0.591349 0.799814 -0.061332 0.438612 
0.377714 0.357963 0.309329 0.063514 -0.196254 0.854669 
0.386023 -0.364857 0.135793 0.051633 -0.186442 0.886152 
0.670408 -0.357260 1.979097 0.929516 -0.045854 -0.309549 
-0.551404 0.193878 0.158573 -0.818275 0.058265 -0.527803 
0.573161 -0.108974 1.352879 -0.934319 -0.132868 -0.036985 
-0.533792 -0.267146 2.383196 0.850138 -0.420812 -0.273044 
-0.789799 -0.357888 1.021004 0.990698 -0.031594 0.113342 
-0.432589 -0.161764 2.401487 -0.925103 0.294862 0.177772 
-0.728119 -0.034812 0.926795 0.976634 -0.120537 0.084223 
-0.264738 -0.797969 -0.028737 -0.005694 -0.169574 -0.958655 
-0.179681 1.059358 0.498395 -0.215251 -0.389595 0.851021 
-0.668498 0.282884 0.543052 -0.933105 0.129938 -0.221723 
1.088156 0.590682 2.949809 0.877167 0.112793 -0.461574 
-0.701835 -0.290892 1.423407 0.265731 -0.319402 0.410182 
0.039038 -0.480478 0.239330 0.107908 -0.236412 0.952823 
0.486856 0.754442 1.148466 0.973112 -0.045405 0.182675 
-0.451445 0.960710 1.751639 -0.919821 -0.138179 0.329035 
0.650503 0.156620 1.881800 -0.762018 0.017101 0.608968 
0.556917 0.576664 1.753391 -0.851717 -0.142649 0.461101 
-0.168448 0.491570 0.476660 -0.376159 0.059679 0.922216 
-0.333637 0.750332 0.300046 -0.823502 0.270029 0.447559 
-0.357344 -0.013744 -0.061360 -0.588420 -0.067625 -0.777761 
0.345775 -0.984383 0.080075 0.651988 -0.021964 -0.728066 
-0.729621 -0.248395 0.675229 0.875046 -0.077138 0.272441 
-0.448635 -0.858114 0.224381 0.639149 -0.106684 0.687999 
-0.760623 0.015979 0.722573 -0.976108 0.069209 -0.158856 
0.550452 1.051486 1.815319 0.970443 0.038775 -0.167656 
-0.614118 0.987111 1.219914 -0.957893 0.196726 -0.021598 
0.045503 0.810447 -0.137725 0.423178 0.314546 -0.835803 
-0.425257 -0.598937 0.131628 0.345249 -0.136146 0.867468 
0.395048 0.895584 1.221364 -0.966926 -0.172199 0.042380 
0.424870 -0.466559 0.118269 -0.308630 -0.157621 0.901932 
0.021772 1.086404 0.465844 0.022893 0.279561 0.928881 
-0.711971 0.140346 0.968249 -0.969893 0.035324 0.086188 
-0.046393 -1.109040 -0.123697 -0.285594 -0.604635 0.515279 
0.678906 0.628754 2.093833 -0.860403 -0.034159 0.500985 
0.633415 -0.524942 0.740623 -0.869115 -0.186539 0.268180 
-0.356989 0.512510 0.302591 -0.246222 0.132432 0.896353 
-0.433812 -0.665542 0.171056 -0.770128 -0.051007 -0.566232 
0.118900 0.916708 0.456970 0.229870 -0.171104 0.953268 
-0.702105 -0.270547 1.620939 -0.710404 0.299682 -0.286519 
-0.691379 -0.276849 1.867081 -0.871250 0.395891 0.231839 
0.508322 -0.320395 0.376251 0.922129 -0.017377 -0.320520 
0.523994 0.334928 1.574837 -0.965912 -0.180616 0.072014 
1.148325 0.051923 2.839835 -0.861667 -0.192986 0.464581 
-0.577086 0.263196 0.225956 -0.832262 0.085696 -0.489810 
0.239103 -1.229810 0.049166 -0.194208 -0.012752 0.976532 
0.229082 -0.892711 -0.019857 0.094968 -0.096895 -0.987723 
0.431419 0.935250 1.146703 0.520435 0.522235 -0.519734 
-0.508397 0.735610 1.562146 -0.860383 0.014316 0.441946 
-0.587342 0.485689 0.667757 -0.779323 0.464410 -0.315875 
0.561016 0.841198 1.862939 -0.849812 -0.153149 0.486840 
-0.327903 0.459920 2.791020 -0.990009 0.022283 -0.106567 
0.443432 0.620100 0.959897 -0.948956 -0.090956 -0.112807 
-0.545525 0.862266 1.229330 0.936592 -0.324441 0.074485 
0.131405 -0.466439 -0.123153 0.227720 -0.375892 -0.887105 
0.086155 0.612843 0.468039 0.058282 0.331409 0.931522 
-0.384628 0.834742 2.125276 -0.964522 -0.114016 0.190318 
-0.357050 0.774736 2.257268 -0.981410 -0.088433 0.146608 
-0.393303 -1.082636 0.103701 0.371205 -0.191733 0.737008 
0.060732 -0.809456 0.087339 0.137177 -0.441986 0.834465 
-0.362798 0.055992 2.516704 0.978079 -0.062203 0.125950 
-0.326104 0.285492 0.349944 -0.440322 -0.101407 0.874153 
0.494492 0.592399 1.578213 -0.929717 -0.271312 0.105901 
-0.559613 0.146482 1.471789 -0.962642 0.189035 0.086681 
-0.002648 0.181646 0.499083 -0.100810 -0.186722 0.965631 
0.556141 0.365123 0.577923 0.787416 0.576700 -0.124743 
-0.396641 -0.071817 2.656015 0.968430 -0.149260 0.065541 
-0.344512 0.078661 2.316257 -0.967662 0.172778 0.135815 
-0.123869 -0.620879 -0.062997 -0.011563 -0.213709 -0.972667 
0.227014 -1.102900 -0.001927 0.062755 0.017781 -0.992307 
1.084780 0.435224 2.883888 -0.879029 -0.236968 0.410064 
0.709698 -0.408025 0.923307 -0.950946 -0.206834 0.121821 
-0.541675 0.296159 0.362352 0.571053 -0.422247 0.655246 
0.432772 0.677925 1.013434 -0.929260 -0.068934 -0.127391 
-0.510867 0.576529 0.370090 -0.766191 0.615247 -0.065193 
-0.722920 -0.356094 1.850919 0.883557 -0.379730 0.021096 
-0.470803 0.459656 0.493148 0.896523 -0.045284 0.347885 
-0.389108 -0.069041 2.580378 -0.960241 0.215045 0.075929 
0.414943 0.947530 1.531991 -0.813441 -0.205576 0.451825 
-0.045546 -0.890015 0.031561 -0.236166 -0.470983 0.810035 
0.514354 0.552170 1.117672 0.975566 0.007562 0.162961 
-0.785364 -0.591177 1.305698 -0.995035 -0.023952 -0.019871 
0.379519 0.692348 0.002428 0.639803 0.459544 -0.500564 
0.594570 -0.220980 1.376159 0.873320 0.147978 0.216821 
0.576143 0.342863 0.456549 0.943412 0.157806 -0.110986 
0.696128 0.195283 1.958222 0.961422 0.062047 -0.218941 
-0.007256 -0.010098 -0.228789 -0.386079 -0.079152 -0.897845 
-0.029222 1.084474 0.004503 -0.315983 0.449722 -0.825905 
0.526260 -0.270981 1.536368 0.870528 -0.114657 0.041515 
0.584777 -0.858077 0.636762 -0.727225 -0.247686 0.439800 
-0.565090 0.217974 0.382638 0.593588 -0.364076 0.624632 
0.316599 0.877826 0.159294 0.916851 0.365640 -0.145031 
0.498818 -0.571512 1.392499 0.824740 -0.076448 0.515649 
0.437998 0.343145 0.502135 -0.871290 -0.187710 0.343671 
0.548532 0.396677 0.310768 0.909305 0.177321 -0.215270 
-0.389045 -0.120079 2.434000 -0.967060 0.188279 0.075479 
-0.628604 0.687371 1.042322 -0.927744 -0.089574 0.338545 
-0.281408 0.118464 -0.092855 -0.446603 -0.078977 -0.885715 
-0.355190 0.171219 2.600333 -0.977606 0.135326 0.010560 
0.477391 -1.044771 0.214997 0.645487 0.314784 -0.585128 
-0.610579 -0.543538 0.495461 0.802215 -0.085575 0.434187 
0.497974 -0.601632 1.526934 -0.877397 0.148954 -0.273500 
-0.067690 1.260095 0.320596 -0.170884 0.812072 0.546163 
0.655005 0.635022 2.015041 0.904458 0.001963 -0.388597 
-0.019323 -0.420677 -0.176948 -0.196261 -0.387756 -0.882237 
0.395275 0.608917 0.308337 -0.397478 0.389302 0.561450 
0.650722 -0.792547 0.796422 -0.785634 -0.275413 0.324040 
-0.676029 0.214884 0.938006 0.965065 -0.182610 0.113143 
-0.128995 0.990657 -0.012912 -0.536940 0.450097 -0.693589 
0.066728 0.859779 0.454924 0.203312 -0.168456 0.954579 
-0.315996 0.569817 -0.107311 -0.534320 0.080051 -0.829962 
-0.483143 1.276783 1.604967 0.853567 0.416170 0.075451 
0.607514 -0.425877 1.832496 -0.958040 0.019946 0.161912 
-0.592691 0.921428 1.223829 -0.885466 -0.199926 0.382731 
0.025839 1.419564 0.180817 0.476953 0.787706 0.186132 
-0.494103 1.172843 1.654371 -0.895543 -0.185328 0.380663 
0.720030 -0.717531 0.963925 -0.849154 -0.302795 0.200515 
-0.367093 0.219995 2.806363 0.984728 -0.124039 0.085467 
-0.363304 -0.265035 0.193089 -0.321368 -0.206778 0.846284 
0.545287 0.162114 0.732337 -0.917551 -0.361995 0.159147 
0.647649 -0.495065 1.949719 0.933623 -0.061364 -0.320679 
-0.485681 0.554169 1.606295 -0.872764 0.108764 0.426547 
-0.137621 0.599760 0.476055 -0.105151 0.365108 0.923264 
-0.497241 -0.111121 0.177837 -0.855018 -0.021134 -0.468362 
-0.521674 0.839751 1.536615 -0.854092 -0.040326 0.449028 
0.554878 1.164848 1.906506 -0.782170 0.344030 0.460929 
0.729723 0.492948 2.157579 0.870191 0.040346 -0.468177 
-0.636649 -0.019417 1.261191 0.966821 -0.173610 -0.086823 
0.608887 -0.063864 0.943108 -0.970881 -0.153283 0.153138 
-0.473536 -0.859103 0.339529 -0.747329 -0.045251 -0.571384 
0.619917 0.871104 1.966614 0.956190 0.090503 -0.226336 
0.559959 0.287393 0.392104 0.914042 0.080274 -0.227492 
0.152353 0.193934 -0.160939 0.458477 -0.010531 -0.883048 
0.128238 0.378780 0.513624 0.338923 0.035802 0.926854 
-0.307180 0.565826 2.529059 0.994829 -0.057225 -0.039310 
0.480269 0.712251 1.632161 -0.826583 -0.125687 0.514294 
-0.644750 0.402982 0.719221 -0.736972 0.551260 -0.324137 
-0.340953 0.413729 2.847723 -0.987354 0.030548 -0.128443 
-0.788300 -0.504929 1.040688 -0.977742 -0.038455 -0.151574 
-0.302044 0.622023 2.792480 -0.992024 -0.024661 -0.114462 
-0.569246 -0.000183 1.899413 -0.835948 0.399810 0.370874 
-0.681451 0.412842 0.781200 -0.822629 0.440857 -0.185421 
-0.616637 0.035428 0.471009 0.664863 -0.254411 0.520447 
-0.379212 -0.137135 -0.021385 -0.750846 -0.057745 -0.627652 
-0.526267 0.196860 1.694573 -0.850861 0.307488 0.414613 
0.540120 0.231305 0.320709 0.886830 0.039897 -0.354141 
-0.647194 -0.601760 0.659227 -0.872542 -0.029832 -0.343211 
-0.387201 0.109550 2.823425 0.982885 -0.118983 0.115126 
-0.401473 0.235054 3.012856 0.975972 -0.151729 0.130653 
-0.039649 0.936382 0.475368 -0.187516 -0.060044 0.972558 
-0.194100 -0.658812 -0.049982 -0.062815 -0.198034 -0.972522 
0.145809 0.270328 -0.162354 0.448958 0.007423 -0.890034 
0.171939 1.140666 0.316046 0.740043 -0.046163 0.398917 
-0.538357 0.372586 0.145627 -0.810402 0.158823 -0.480246 
-0.593166 0.031715 0.296468 -0.865442 0.027641 -0.425775 
0.402744 1.250339 1.559552 -0.794810 0.258834 0.455080 
-0.606928 0.388556 1.060509 0.953424 -0.244703 0.064309 
-0.166012 0.464136 -0.137619 -0.406181 0.014252 -0.908744 
0.515116 0.503943 0.474222 0.827074 0.520180 -0.016944 
0.755344 0.990718 2.370124 0.916710 0.234283 -0.319631 
-0.391471 0.582027 1.869008 0.916500 -0.172473 -0.292647 
-0.691688 -0.251105 1.480456 -0.443409 0.268430 -0.550333 
-0.592870 -0.775627 0.660416 -0.836249 -0.052246 -0.409403 
-0.768183 -0.386754 1.185296 0.992663 -0.042722 0.049062 
0.836311 0.866406 2.520550 0.907034 0.110544 -0.400405 
0.581190 1.020586 1.948486 -0.831319 -0.203692 0.500751 
-0.615045 0.411471 0.559783 -0.716006 0.652056 -0.198104 
-0.328355 0.881215 2.481272 -0.959763 0.162604 0.204083 
0.020457 -0.946288 -0.003995 0.393310 -0.478383 0.777619 
-0.126353 0.940023 0.459168 -0.219844 -0.182869 0.954709 
-0.480408 -0.646689 0.247707 -0.784164 -0.038581 -0.527658 
-0.414475 -0.981137 0.245930 -0.699446 -0.032466 -0.648694 
0.618697 1.113722 2.056639 0.825343 0.463114 -0.196535 
0.413184 0.713954 0.090850 0.626390 0.709856 -0.210435 
-0.576660 0.111138 0.400112 0.597574 -0.309972 0.603618 
-0.362161 0.638366 2.086427 -0.974639 -0.069512 0.186271 
-0.506015 0.639452 1.462178 0.887253 -0.274471 -0.213809 
-0.282292 0.972946 0.245084 -0.921898 0.341467 0.062477 
0.832057 -0.778466 1.234340 0.899698 0.385788 -0.035621 
-0.500112 0.151182 1.826863 0.874248 -0.299149 0.097875 
-0.216964 1.050652 0.094440 -0.733653 0.404221 -0.476515 
-0.222373 0.461651 0.431853 -0.343279 0.018865 0.934221 
-0.436131 0.622669 1.566598 0.927989 -0.184995 -0.178921 
0.364391 1.253839 1.488358 -0.907937 0.103620 0.129029 
-0.270112 0.632783 -0.122266 -0.511090 0.150876 -0.830394 
-0.104379 -0.281130 0.307296 -0.107968 -0.350329 0.927434 
1.247407 0.433123 3.201531 0.878551 0.170788 -0.443901 
0.614619 -0.203966 1.223828 0.913212 0.121436 0.099556 
-0.609775 0.469857 0.744621 0.955218 0.034706 0.099647 
-0.072112 1.029909 -0.006530 -0.403777 0.457114 -0.766984 
0.094466 -0.284863 0.305488 0.088840 -0.354829 0.926488 
0.367262 1.165268 1.474637 -0.747053 -0.301567 0.563790 
0.972929 0.383491 2.644299 0.892166 0.186532 -0.402463 
0.312824 -0.377894 0.211433 0.552596 -0.276629 0.774372 
-0.740410 -0.806801 1.097645 -0.920300 0.029588 -0.209343 
-0.774510 -0.026482 0.857311 -0.982167 0.022788 -0.032294 
0.653832 -0.282342 1.035142 0.914045 0.125223 0.079656 
-0.024140 -0.790811 -0.059894 -0.280523 0.062794 -0.933105 
-0.400523 0.591069 0.020485 -0.654740 0.259970 -0.561317 
-0.487047 0.617317 0.317999 -0.781763 0.602394 -0.036656 
0.655238 0.435242 1.950500 -0.914945 -0.090899 0.386394 
0.914371 0.022045 2.386243 -0.878778 -0.163914 0.413435 
-0.427441 1.020395 1.969498 -0.936509 -0.125730 0.273759 
-0.265452 0.285589 -0.097142 -0.421250 -0.037825 -0.903479 
0.546208 -0.553666 1.663102 0.894850 -0.124674 0.003225 
-0.097533 0.867623 -0.102279 -0.487132 0.399997 -0.761367 
-0.565860 0.257623 1.406522 -0.948019 0.129138 0.208899 
-0.538265 1.054726 1.492522 -0.804223 -0.133600 0.543080 
0.564778 -0.342328 1.429559 -0.840275 -0.123484 -0.347337 
0.264658 0.533545 -0.116587 0.473911 0.011312 -0.866454 
0.398134 -0.816055 0.181145 0.721345 -0.016749 -0.618626 
-0.511299 0.308189 1.534238 -0.984702 0.093958 0.030624 
-0.574956 0.108317 0.234074 -0.843756 0.042356 -0.472457 
0.475608 0.608803 0.766795 0.929373 0.324120 -0.159726 
-0.117454 1.170516 0.447974 0.341579 0.522301 0.739945 
0.721194 -0.024199 2.079685 -0.791097 0.027869 0.585790 
0.500205 0.700442 1.080152 0.971949 -0.020752 0.204585 
0.529373 0.978922 1.731011 0.965375 0.049373 -0.195418 
-0.567119 -0.235637 2.311145 -0.827232 0.440432 0.321461 
0.344954 -0.596002 0.024171 0.789621 -0.077152 -0.574261 
-0.514763 -0.202914 2.342330 -0.864940 0.383676 0.266390 
-0.173334 1.210288 0.327321 -0.896619 -0.268565 0.292735 
-0.304288 0.554966 2.600062 -0.996337 0.013456 -0.021165 
0.454375 -0.509051 0.273341 0.843253 -0.024209 -0.444331 
-0.401001 1.101449 1.955898 0.992226 0.094666 -0.071981 
-0.120605 -0.841329 -0.069568 -0.142120 0.041939 -0.946474 
-0.438085 0.266430 1.921575 0.889603 -0.311343 -0.189100 
-0.396672 -0.138914 2.555809 -0.954835 0.240155 0.108337 
0.429439 -0.224653 0.136425 0.878797 -0.052732 -0.441835 
-0.305858 0.496328 2.524373 -0.998150 0.031719 0.009633 
0.124758 0.949760 -0.032818 0.532594 0.464208 -0.682937 
0.551746 0.206798 0.811779 -0.928812 -0.312463 0.173644 
0.383575 0.286143 0.311255 0.101735 -0.217396 0.804437 
-0.783652 -0.283560 0.982192 0.990249 -0.051825 0.100985 
-0.018936 -0.945588 -0.087993 -0.378118 0.227008 -0.868326 
0.456426 -0.684206 0.288653 -0.616674 -0.136599 0.649302 
-0.401911 0.639370 1.832825 0.917685 -0.190051 -0.267262 
0.526601 0.481022 0.184935 0.886698 0.235357 -0.271623 
-0.559850 0.400253 0.235001 -0.837253 0.223160 -0.365541 
0.501119 0.849150 1.564603 0.975268 0.043030 0.114312 
0.533666 0.298556 0.861535 -0.922337 -0.315821 0.198358 
-0.339656 0.379535 2.779530 -0.989402 0.046525 -0.098104 
-0.303794 0.759617 2.719507 -0.923258 0.311278 0.184594 
-0.627617 0.384489 0.991089 0.955782 -0.232273 0.105456 
0.445959 0.109993 0.020768 0.827643 -0.019852 -0.553085 
0.719775 -0.400349 2.130092 -0.876467 0.046340 0.461601 
-0.583875 0.312283 1.321044 -0.944108 0.101695 0.242159 
-0.779598 -0.474514 1.393188 -0.166995 0.279435 -0.724761 
-0.541512 0.114082 1.766801 -0.855385 0.362382 0.369795 
0.463870 0.745829 1.388794 0.980527 -0.085419 0.072571 
0.417666 -1.054400 0.120789 -0.555046 -0.288795 0.732337 
0.191335 -1.264367 0.002469 -0.894056 -0.275456 0.251776 
-0.349262 0.152160 2.510319 -0.971960 0.155870 0.062526 
0.611596 -0.230062 1.818505 -0.961488 -0.011410 0.153724 
-0.179695 0.991328 0.436321 -0.438535 -0.150260 0.827198 
-0.496514 -0.008739 0.137163 -0.835279 0.002413 -0.507186 
-0.087243 0.492181 -0.166051 -0.379867 0.040929 -0.920920 
0.615300 0.402046 1.852510 -0.875208 -0.059296 0.470456 
0.523972 0.504268 1.693234 -0.932112 -0.150752 0.265914 
-0.726838 0.078364 0.831195 0.966429 -0.154069 0.161037 
0.009712 0.619530 0.462028 -0.007603 0.307887 0.936204 
0.267913 -1.287930 0.012899 0.558191 0.077131 -0.777104 
0.700302 0.124297 2.018558 -0.817611 -0.004940 0.534066 
0.526414 0.346317 0.911593 -0.921260 -0.299109 0.220975 
0.305414 0.482652 0.343487 0.278339 -0.073166 0.953641 
-0.364883 -1.138163 0.075045 -0.631439 0.067274 -0.693019 
-0.313337 0.753622 -0.020749 -0.679902 0.516952 -0.464412 
-0.572621 0.280273 0.527635 0.699133 -0.436851 0.495836 
0.476271 0.658959 1.369650 0.981402 -0.061636 0.066781 
0.225656 1.209045 0.527001 0.789434 -0.383375 -0.464690 
-0.418293 0.042569 2.209953 0.780863 -0.435149 -0.440442 
-0.634093 -0.583591 0.594371 -0.861937 -0.023914 -0.362513 
0.326084 0.750952 0.317351 0.762345 0.297990 0.530561 
0.465309 0.786037 1.325840 0.977949 -0.083865 0.107725 
0.136394 0.991881 0.465355 0.195703 -0.198925 0.959267 
-0.432713 0.059191 -0.002455 -0.769315 0.002632 -0.618983 
0.081043 1.034723 0.470789 0.051741 -0.005368 0.957609 
0.730552 0.064453 2.074838 0.919787 0.025537 -0.330365 
-0.449106 -0.908806 0.273065 0.639837 -0.094908 0.687255 
0.552720 0.267842 1.133758 0.982084 0.047565 0.065113 
-0.083817 0.953000 -0.052257 -0.472102 0.489188 -0.710873 
-0.664343 0.598655 0.916410 -0.962605 0.102708 0.059987 
0.337667 0.335031 -0.059567 0.440055 -0.065633 -0.894667 
0.006169 1.253129 0.340897 0.088303 0.755064 0.647871 
0.527226 0.584764 0.893053 0.856848 0.392753 -0.299953 
-0.633336 -0.399581 0.486534 -0.886987 -0.015417 -0.336069 
0.524048 -0.213991 0.369888 0.916682 -0.004099 -0.333835 
0.221428 0.923996 0.005108 0.671401 0.429550 -0.599404 
0.765150 0.456008 2.208819 0.902021 0.134420 -0.402029 
0.662872 -0.151034 0.836970 0.986846 0.070599 -0.099544 
0.857243 -0.756291 1.312272 0.916014 0.393403 0.014949 
-0.344794 -0.870111 0.036215 -0.691668 -0.058715 -0.699061 
-0.510818 0.433197 1.471363 0.880153 -0.240579 -0.292850 
-0.606691 1.042367 1.270221 -0.979365 0.170724 0.031980 
-0.304591 0.676540 2.721009 -0.992135 -0.031356 -0.071114 
-0.357037 0.943972 2.227312 0.986267 -0.033609 -0.130414 
0.078942 0.178735 0.490687 0.228921 -0.174286 0.940408 
0.459479 0.643981 1.084264 -0.890473 -0.360641 0.259523 
0.513565 0.231203 0.740039 -0.912200 -0.321548 0.149993 
-0.094288 -0.987084 -0.037342 0.099380 -0.514297 0.820997 
-0.384165 -0.339471 0.061054 -0.854125 -0.092492 -0.496242 
-0.652568 -0.197877 1.729557 0.919013 -0.369528 0.004644 
-0.374948 0.733815 2.088002 0.991506 -0.041518 0.029928 
-0.640661 -0.139533 1.578384 0.606613 -0.358366 -0.057422 
0.151297 1.193192 0.129699 0.696175 0.529429 -0.408815 
0.440950 0.618256 0.456319 -0.930633 0.162758 0.315130 
0.499015 1.055869 1.747359 -0.800219 -0.197257 0.556249 
-0.357925 0.581972 2.040938 0.991299 0.059727 -0.014467 
0.591887 -0.009444 0.444738 0.909665 0.045203 -0.333377 
1.231454 0.371531 3.145421 -0.875428 -0.200259 0.438455 
0.231077 0.471714 0.419822 0.339439 -0.009571 0.933530 
