1.657903 -0.026902 -0.264929 -0.080677 0.100289 -0.988121 
-2.908831 1.958348 -1.580574 0.458624 0.047246 -0.887351 
1.707235 0.652183 -0.224922 -0.126680 -0.049100 -0.987726 
-1.143773 -0.044091 -0.050541 -0.420476 -0.156162 0.893013 
0.850856 0.782424 0.184142 0.314748 0.071834 0.929578 
1.723130 1.552747 -0.164674 -0.019652 0.057889 -0.994148 
0.517913 -0.856872 0.097707 0.333413 0.040469 0.937360 
0.287483 0.943306 0.337995 0.909376 0.297408 0.205608 
-1.577519 0.668972 -0.238509 -0.678475 -0.008628 0.714185 
0.534390 -1.125387 0.114421 -0.170529 -0.244803 -0.952742 
0.181442 0.451952 -0.151983 0.649308 0.171958 -0.715615 
-2.359045 0.103567 -0.827514 -0.679663 0.248319 0.683733 
-1.541826 1.424634 -0.160460 -0.920173 0.150293 0.336989 
1.606775 -0.162973 -0.260130 -0.093411 0.132611 -0.982324 
1.252126 1.365933 -0.070772 -0.509176 0.098336 -0.841335 
1.367257 0.066387 -0.114971 0.275985 -0.130244 0.939076 
-0.300043 0.555990 -0.075917 -0.700733 0.187035 -0.677629 
-1.972085 1.352394 -0.858967 -0.791515 0.107982 0.598066 
1.415294 1.147472 -0.071468 0.459028 -0.198888 0.828096 
-0.002100 -0.174690 0.322960 -0.088190 -0.057481 0.988730 
0.695140 0.108039 0.186926 0.353338 -0.261261 0.886318 
-1.956028 0.013145 -0.444143 0.528974 -0.102989 -0.827209 
1.552603 0.849340 -0.166608 -0.118399 -0.078752 -0.986472 
-1.366038 -0.027357 -0.145515 -0.435955 -0.103115 0.888836 
-1.943442 0.249236 -0.450641 -0.610402 0.119698 0.775466 
-0.133729 0.891025 0.510125 -0.255615 -0.088433 0.960618 
0.376598 0.304488 0.117918 0.555469 0.160270 -0.799966 
0.955640 0.222975 0.101930 0.425866 -0.202285 0.870864 
-1.841188 0.677472 -0.508001 0.725987 -0.252950 -0.583989 
0.432294 0.316906 0.357638 0.208373 -0.281745 0.930672 
-0.125230 -0.753120 0.041568 0.058643 -0.394006 -0.913510 
1.868201 1.503800 -0.148077 0.234510 -0.084594 0.957126 
0.355855 0.074079 0.075951 0.519326 0.074994 -0.844254 
-1.970014 0.868238 -0.699802 -0.834339 0.375842 0.352488 
-0.017500 -0.671857 0.264566 -0.425757 -0.109268 0.890209 
0.106534 -0.860447 0.088373 -0.039045 -0.431369 -0.897329 
-2.346284 0.959841 -1.154025 -0.657484 0.127262 0.727442 
-0.235577 0.842402 0.043461 -0.610372 0.456517 -0.643491 
1.167262 0.890471 -0.007935 -0.172618 -0.079976 -0.979850 
2.983039 1.146029 -0.193693 0.252141 0.114539 -0.953978 
1.168483 -0.344885 -0.120660 -0.266410 0.084534 -0.941819 
-1.272636 -0.229122 -0.173005 0.339365 0.149737 -0.925263 
2.185360 1.311536 -0.237123 0.165293 -0.080880 0.971821 
-2.458793 1.609374 -1.326827 -0.587783 0.110182 0.786770 
2.933384 1.451147 -0.202426 0.194103 0.050020 -0.977389 
1.821418 0.762339 -0.239650 -0.262233 -0.095282 -0.950595 
-2.082540 1.377204 -1.002816 0.708454 -0.350853 -0.601287 
1.252227 1.149114 0.004133 0.574103 -0.214657 0.771666 
0.137742 0.429716 0.469501 0.116648 -0.317835 0.939674 
0.797973 -0.924749 0.014586 0.236083 0.180599 0.939490 
1.839524 0.847322 -0.237507 -0.303533 -0.118339 -0.938006 
1.223222 -0.095860 -0.102870 -0.304808 0.123105 -0.940848 
-0.496916 0.298458 0.095467 -0.351261 0.127260 -0.854958 
-1.693833 0.532906 -0.349038 0.573804 -0.112774 -0.793841 
-1.575981 1.616037 -0.261600 -0.896979 0.148012 0.370848 
-0.299631 0.303365 -0.078616 -0.750014 0.051620 -0.648264 
-1.598928 1.169934 -0.295961 0.608967 -0.263043 -0.673449 
-0.432814 -0.047596 0.045669 -0.413513 0.056033 -0.855703 
-1.681491 1.769463 -0.487582 -0.611007 0.471188 0.562897 
-0.229081 1.107714 0.300565 -0.893541 0.433262 -0.015511 
0.358523 0.159315 0.311653 0.200301 -0.318682 0.926041 
-0.623766 -0.099172 0.011192 -0.183653 0.058994 -0.886973 
-2.775167 1.212014 -1.495574 -0.557673 0.096036 0.823917 
-0.114564 -0.969378 0.201083 -0.173152 0.063529 0.974329 
-2.049922 1.083202 -0.901083 -0.750017 0.196627 0.624843 
-0.204783 1.146368 0.240476 -0.856506 0.464039 -0.179812 
1.959606 1.092476 -0.223390 0.009189 0.125889 -0.969236 
-1.764589 1.188852 -0.493887 -0.872714 0.126697 0.407964 
0.829386 0.067764 0.009413 0.020461 0.099777 -0.908074 
-1.728052 1.227871 -0.444568 -0.881584 0.089266 0.387554 
-2.763223 1.433354 -1.506048 0.524235 -0.061429 -0.848267 
-2.224497 0.509959 -0.854462 -0.773984 0.391831 0.419897 
0.720662 0.452647 0.297528 0.387342 -0.089767 0.885187 
1.008198 0.767321 0.141898 0.460177 -0.047711 0.873796 
-1.697051 1.665878 -0.529344 0.697617 -0.049771 -0.707280 
2.071359 1.100139 -0.239845 -0.088201 0.099021 -0.979671 
-0.135562 1.105757 0.333445 -0.736181 0.214131 0.485258 
-1.093621 1.138715 0.084849 -0.171155 0.130066 0.898051 
-1.537966 0.359850 -0.248834 -0.576710 0.002725 0.794487 
-0.079017 -0.907644 0.218015 -0.247765 0.036647 0.953346 
-1.801821 1.723398 -0.696622 0.725916 -0.047619 -0.679685 
-0.492808 -0.096276 0.030324 -0.334436 0.051682 -0.869090 
-0.300269 0.757634 0.079314 -0.701831 0.476807 -0.478338 
-0.379298 -0.047402 0.226773 -0.320408 -0.246151 0.896774 
-0.719793 0.675363 0.258240 -0.307265 0.040761 0.906035 
-1.301933 0.663360 -0.068863 -0.667842 -0.110040 0.714891 
0.247732 -0.840577 0.176621 0.139458 -0.090103 0.972114 
0.472560 -0.198297 0.144714 0.441862 -0.180397 0.865747 
-1.191753 -0.354230 -0.156071 0.300039 0.117864 -0.930992 
-0.154462 0.964621 0.058206 -0.574478 0.345896 -0.722977 
-2.166345 0.199114 -0.657882 -0.603868 0.147045 0.771549 
-2.179442 0.716158 -0.893556 -0.778600 0.402201 0.385744 
0.139354 0.913428 0.037534 0.551763 0.384691 -0.714874 
-1.665660 1.130384 -0.327407 -0.703199 -0.154194 0.673716 
-0.169932 0.033884 0.319224 -0.195813 -0.224261 0.936456 
-0.252969 -0.211083 -0.093403 -0.637206 -0.140141 -0.739090 
-0.249450 -0.325834 0.261876 -0.495792 -0.111021 0.824109 
0.361032 0.589256 0.062189 0.669318 0.320615 -0.666573 
2.958038 0.705309 -0.187772 0.154712 -0.064854 -0.981323 
-0.216526 -0.262466 0.279789 -0.395373 -0.114456 0.870016 
0.338212 -0.576884 0.043742 0.330746 -0.072972 -0.908427 
0.513063 -0.757398 0.079727 0.002038 -0.108326 -0.966756 
2.185737 1.014001 -0.266938 -0.025965 0.059973 -0.986530 
-1.885789 0.031663 -0.408006 -0.520658 0.042936 0.836452 
-1.603328 1.230355 -0.333258 0.643550 -0.210239 -0.617924 
0.074512 0.916777 0.007360 0.457176 0.406245 -0.769965 
0.202387 -0.021891 0.304903 0.263496 -0.217124 0.907410 
0.072143 0.854538 0.515676 0.198650 -0.108234 0.966347 
-0.436197 -0.341805 0.013899 -0.335432 0.005338 -0.889860 
-0.001921 0.443816 -0.261058 -0.508348 0.243038 -0.816422 
0.513091 -0.673000 0.066508 0.051659 -0.086829 -0.954347 
-1.929801 1.426823 -0.827954 0.757176 -0.303649 -0.560813 
1.909046 1.198037 -0.205072 -0.031141 0.047127 -0.971533 
-1.477538 -0.338596 -0.275656 -0.393375 -0.189217 0.896742 
0.117881 1.247270 0.368146 0.121506 0.901430 0.304776 
-1.598854 0.104796 -0.270344 -0.498899 -0.026298 0.849189 
0.084701 0.461264 -0.200815 0.575651 0.246493 -0.752184 
-0.620584 0.690455 0.310972 0.166264 0.444698 -0.731067 
2.149845 1.107866 -0.251466 -0.129419 0.049216 -0.987813 
-2.194064 1.977066 -1.156104 -0.582765 0.298761 0.725238 
1.382041 -0.405131 -0.222903 0.379876 -0.163099 0.906721 
-0.946288 -0.583165 -0.077058 0.203604 0.028699 -0.948283 
-0.245104 -0.183443 0.273993 -0.440231 -0.177998 0.834040 
0.354600 0.705305 0.143458 0.772861 0.561896 -0.240357 
-1.658247 0.291217 -0.328009 0.528609 -0.056932 -0.824843 
0.276885 -0.068740 -0.076651 0.652326 -0.085427 -0.727267 
1.613127 0.495696 -0.175868 0.214222 -0.034404 0.957217 
-1.845046 0.791869 -0.524700 -0.633375 -0.036603 0.764297 
2.364622 1.624945 -0.205931 0.068861 -0.058897 0.968050 
-1.273509 -0.031156 -0.120276 0.351749 0.083072 -0.929902 
0.355699 -0.042579 0.272773 0.363694 -0.253058 0.863277 
1.999422 0.444259 -0.208682 -0.105581 -0.197112 -0.945197 
-0.063921 0.537832 -0.189278 -0.517664 0.294326 -0.782647 
0.806208 -0.031279 0.082699 0.405683 -0.181888 0.887178 
-0.063133 -0.296584 0.312711 -0.153671 -0.009858 0.983943 
-1.336767 1.741782 0.008553 0.764493 0.057368 -0.438774 
0.649533 0.021945 0.168275 0.379182 -0.235134 0.881352 
1.337582 0.867715 -0.077998 -0.149100 -0.078647 -0.982814 
0.776191 0.349320 0.208416 0.436423 -0.254907 0.845590 
-2.188324 0.117076 -0.649419 0.646126 -0.253222 -0.700490 
1.776093 0.027395 -0.200057 0.085911 -0.007384 -0.967819 
2.231183 -0.029548 -0.117023 -0.110323 0.142064 0.966395 
2.494799 0.919551 -0.264300 -0.017733 -0.000188 0.989085 
0.386230 -0.338340 0.010792 0.409232 -0.004611 -0.884024 
2.127374 1.180153 -0.242816 -0.159587 0.028406 -0.980537 
2.719051 1.757936 -0.226534 0.144807 0.266724 -0.936415 
1.788398 -0.119467 -0.185755 0.152516 -0.004984 -0.959857 
-2.014150 0.543198 -0.651351 0.740891 -0.355278 -0.531766 
-1.449658 -0.406454 -0.291923 0.356071 0.193934 -0.913312 
2.115995 0.655273 -0.228824 0.446129 0.273796 0.839475 
0.225561 0.797082 0.012070 0.570840 0.492321 -0.645695 
3.056047 0.946747 -0.171812 0.158244 -0.094101 -0.967060 
-1.990186 0.616204 -0.657414 0.755522 -0.366058 -0.509690 
0.517009 0.284863 0.333134 0.280993 -0.368760 0.885168 
-1.390165 -0.440953 -0.265796 -0.381783 -0.208160 0.897194 
0.273576 -1.231694 0.179901 -0.499120 -0.203458 0.410847 
-1.755741 0.741826 -0.341976 -0.684512 0.029177 0.705617 
0.178785 -0.184231 -0.149284 0.569574 -0.124214 -0.798557 
-1.781514 1.835965 -0.656139 -0.643908 0.421175 0.593249 
0.974716 -0.770084 -0.071385 -0.211004 -0.089088 -0.939532 
0.199568 0.355181 0.435631 0.128684 -0.322512 0.936427 
-0.529650 0.475484 0.433416 -0.185617 0.000872 0.978189 
-0.205059 0.000706 -0.149518 -0.649109 -0.057268 -0.732619 
-0.275137 0.852654 0.404017 -0.754362 0.247731 0.538232 
0.179373 0.560528 -0.117235 0.577045 0.256468 -0.734043 
1.619947 1.707900 -0.103786 0.096004 0.470949 0.838040 
-1.681747 0.687420 -0.326289 0.566106 -0.136576 -0.798249 
-0.261340 0.250658 0.375225 -0.164208 -0.324830 0.930104 
-1.019354 0.419436 0.029908 0.272243 0.053075 -0.957369 
0.086118 -0.054562 -0.218530 0.522433 -0.090458 -0.825008 
-1.026197 0.554393 0.089787 -0.616923 -0.205723 0.748426 
-0.710830 0.116296 0.181161 -0.352241 -0.272354 0.881720 
0.219666 0.072911 -0.148228 0.668456 -0.034012 -0.716803 
0.440350 0.377062 0.130328 0.488666 0.211153 -0.788163 
-2.709308 1.104001 -1.434579 -0.580860 0.119905 0.801354 
-1.119393 0.526126 -0.016733 0.313762 0.006231 -0.939963 
1.728405 -0.012203 -0.238941 0.014448 -0.068799 0.976697 
0.514150 0.247094 0.084945 0.357543 0.104439 -0.862122 
-2.437542 0.256833 -0.979201 0.686688 -0.276029 -0.670449 
-1.803695 1.373764 -0.605692 -0.846710 0.033591 0.486470 
2.165225 0.597913 -0.226592 0.433107 0.286941 0.836687 
-1.018646 -0.748619 -0.112745 -0.318955 -0.006911 0.916553 
-0.411586 0.593759 0.360694 -0.394094 0.224621 0.811760 
-1.508091 -0.445578 -0.323805 -0.381685 -0.223770 0.895678 
0.214736 -0.113512 -0.131808 0.617168 -0.102954 -0.757720 
0.047262 1.043495 0.526456 0.098110 0.113338 0.964943 
-1.541879 -0.350299 -0.305588 0.366583 0.148312 -0.914774 
-1.666453 1.353373 -0.411801 0.640113 -0.192124 -0.696975 
-1.451221 0.839976 -0.178699 0.456988 -0.116004 -0.858745 
-2.161262 0.575109 -0.830308 0.608659 -0.151010 -0.769874 
1.334519 -0.072455 -0.140580 -0.241336 0.128513 -0.954678 
0.872177 0.865018 0.175577 0.331319 0.039112 0.930005 
0.314117 0.226724 0.351425 0.178283 -0.317380 0.929891 
2.180334 0.163441 -0.153838 -0.004847 -0.195389 -0.956110 
2.700657 0.732154 -0.248283 0.047159 -0.149593 -0.982035 
2.054179 0.705452 -0.245065 0.159655 0.049357 -0.979556 
0.126059 -0.793466 0.058758 -0.060338 -0.403974 -0.908207 
1.785506 0.227695 -0.195332 -0.028242 0.014678 0.971491 
0.342048 -0.161947 0.254328 0.461990 -0.211091 0.824772 
-0.128341 1.033282 0.516925 -0.182847 -0.064888 0.979236 
0.375018 0.697891 0.214798 0.743996 0.635353 -0.145593 
0.696003 0.555061 0.218844 -0.236463 0.561512 -0.660616 
1.167226 -0.135271 -0.084193 -0.286214 0.105139 -0.944026 
-2.246825 0.439771 -0.860651 0.635819 -0.194285 -0.734517 
-2.566414 1.067367 -1.331606 0.601111 -0.196925 -0.760768 
-2.287354 0.473133 -0.916824 0.640746 -0.202703 -0.729871 
-2.083591 1.138858 -0.968776 0.718371 -0.217888 -0.652567 
-1.268139 -0.571558 -0.233535 0.286193 0.131132 -0.925797 
2.505309 1.510368 -0.232489 0.011355 -0.055673 0.975892 
-0.308778 0.084560 0.008382 -0.622661 0.004511 -0.762082 
2.254180 1.324348 -0.257991 -0.171485 -0.144264 -0.964600 
-1.332682 1.023112 -0.090924 0.401308 -0.122638 -0.890359 
0.104362 -0.245484 -0.171565 0.483759 -0.207713 -0.824134 
0.339263 -0.469790 0.153800 0.530863 -0.117466 0.837391 
-2.468738 1.991198 -1.342394 0.529171 0.337933 -0.743859 
0.854172 -0.350469 0.038186 0.369274 -0.067034 0.919090 
0.041864 -0.102409 0.324412 0.118040 -0.107080 0.979928 
1.351603 1.340700 -0.040337 0.531285 -0.256236 0.791450 
-0.102861 -0.585571 0.256080 -0.183752 -0.204451 0.960238 
-2.428909 1.764697 -1.323075 -0.579238 -0.044112 0.802229 
-0.037363 -0.362955 0.314688 -0.102362 -0.026851 0.991898 
1.821588 1.377174 -0.175986 -0.041929 -0.105668 -0.967871 
0.698988 0.740852 0.258560 0.339241 0.011958 0.902457 
2.961108 0.862467 -0.190219 -0.176493 -0.011517 0.975355 
-2.023010 0.079702 -0.478319 -0.589503 0.133201 0.788493 
-0.035182 -0.166815 -0.216883 -0.447078 -0.201004 -0.837617 
-1.198138 0.806403 0.012373 -0.702148 -0.168398 0.680647 
-0.361023 0.764659 0.300561 -0.899081 0.381520 0.073222 
-1.946381 0.571975 -0.566127 -0.593587 0.058817 0.796430 
-1.886733 1.702522 -0.830180 0.749499 -0.069510 -0.654518 
1.310079 0.132951 -0.101249 -0.235118 0.088105 -0.961666 
2.536268 1.214821 -0.266434 -0.090340 -0.130764 0.972154 
1.116150 -0.088420 -0.052976 -0.277207 0.097015 -0.947764 
0.376990 -0.886167 0.148983 0.322775 0.008343 0.929778 
1.325537 0.814819 -0.032629 0.475066 -0.118909 0.822332 
1.187389 0.298436 -0.010832 0.431084 -0.137308 0.873142 
-0.133768 0.254606 -0.226512 -0.651407 0.044231 -0.735875 
0.425516 -1.152136 0.139884 -0.131147 -0.205624 -0.965927 
-0.568482 -1.109244 0.098627 -0.400606 0.324421 0.818821 
-0.344646 0.774584 0.368704 -0.808559 0.397199 0.358767 
-1.700863 1.594886 -0.455594 -0.861381 0.151116 0.435974 
0.332085 -0.213585 0.035716 0.491112 0.017191 -0.865785 
0.408530 0.601607 0.205701 0.678694 0.415615 -0.512259 
-1.885929 -0.042064 -0.405893 0.482441 -0.051618 -0.859343 
0.416575 -1.423739 0.183842 -0.049446 -0.708856 0.461228 
2.426024 0.628362 -0.246787 0.114531 -0.048909 -0.987439 
1.072172 -0.391428 -0.084898 -0.236469 0.055753 -0.947500 
-0.592411 0.284860 0.289933 -0.311478 -0.353861 0.872928 
-2.654765 1.972418 -1.439646 -0.508969 0.067507 0.836147 
-1.652629 0.605310 -0.319155 0.551908 -0.117309 -0.805400 
1.737414 1.019061 -0.206407 -0.261592 -0.140019 -0.944385 
-2.745504 1.848523 -1.497723 -0.508163 -0.048330 0.854522 
0.169301 -0.223733 0.301954 0.263177 -0.091226 0.937401 
-2.426340 1.692250 -1.317458 -0.593657 0.033484 0.797337 
-1.143289 -0.694436 -0.160699 -0.315459 -0.023041 0.911336 
0.328820 0.134608 0.033298 0.589495 0.038679 -0.789057 
3.062978 1.623127 -0.159964 0.244855 0.082790 -0.964224 
-1.838966 1.411152 -0.667027 -0.835330 0.034064 0.510588 
-0.745494 0.042308 0.013443 -0.073943 0.089235 -0.887781 
0.270716 -0.500135 -0.047497 0.485040 -0.213810 -0.820159 
-2.414639 1.869151 -1.328324 0.556591 -0.032234 -0.828775 
0.309284 0.764094 0.121525 0.764045 0.422889 -0.420977 
-0.139569 0.599636 0.515587 -0.166645 -0.251032 0.953180 
-2.476103 1.181089 -1.288174 0.611756 -0.262222 -0.725059 
0.596245 0.111844 0.228168 0.346451 -0.282663 0.881682 
0.776539 0.541824 0.213235 0.134846 0.266540 0.928101 
0.379506 0.714839 0.296760 0.924022 0.354606 0.040580 
-2.012401 0.373211 -0.570325 0.676236 -0.265654 -0.650190 
0.641263 0.533347 0.177698 -0.010934 0.460269 -0.665054 
-1.588575 1.070302 -0.191462 -0.732938 -0.106760 0.637761 
2.195065 1.240922 -0.251858 -0.164788 -0.051128 -0.973622 
-0.261978 1.026358 0.290964 -0.905816 0.366583 -0.004911 
1.529070 0.270197 -0.163086 0.217712 -0.074130 0.960872 
1.159435 0.747530 0.039242 0.574322 -0.133795 0.777218 
0.453285 -0.889493 0.105796 0.345445 0.041741 0.931839 
0.302135 -0.099929 0.275928 0.391530 -0.220924 0.852409 
0.022646 0.297988 0.416435 0.005738 -0.346857 0.935326 
0.149797 0.676358 0.503104 0.148207 0.164121 0.959893 
0.363642 0.490279 0.431248 0.204203 -0.174889 0.948820 
2.560340 0.860814 -0.258513 -0.041813 0.006141 0.987749 
-2.096200 0.540106 -0.727266 -0.564932 0.050383 0.811488 
-0.000997 0.794690 -0.085944 0.381231 0.376639 -0.843735 
0.377170 0.028436 0.262686 0.279967 -0.275641 0.903806 
-1.828331 -0.202310 -0.364461 0.408331 0.014773 -0.909440 
-2.441170 0.364093 -1.028949 0.678636 -0.263858 -0.682978 
1.766480 0.813270 -0.225669 -0.227501 -0.097282 -0.958144 
-2.085044 0.078233 -0.517710 0.604264 -0.194983 -0.767555 
2.121768 0.733466 -0.231642 0.382499 0.218025 0.872375 
-1.278947 -0.320240 -0.181273 -0.393681 -0.182345 0.896975 
1.979210 0.686552 -0.236946 -0.260998 -0.192284 -0.939548 
2.450410 0.711064 -0.248442 0.107451 0.119319 0.954798 
-1.446613 -0.111629 -0.198864 0.363117 0.072182 -0.927202 
-1.811158 1.812193 -0.722772 0.778408 0.013665 -0.625431 
-1.252895 0.278794 -0.080439 -0.529257 -0.106607 0.819179 
0.201863 -0.777045 0.197695 0.148085 -0.127875 0.970965 
-0.275094 -0.100465 -0.064560 -0.647593 -0.091372 -0.732771 
-0.451837 0.352587 0.118777 -0.462990 0.179303 -0.800325 
-1.111566 -0.418695 -0.114674 -0.384895 -0.132257 0.904646 
-0.528263 -0.284304 0.005176 -0.246462 0.021288 -0.895373 
0.332283 0.544015 -0.002791 0.691375 0.234096 -0.672097 
-1.837829 1.323655 -0.651206 -0.838055 0.072246 0.509505 
2.715307 1.171307 -0.253399 -0.200381 -0.167867 0.960643 
0.852754 -0.631055 -0.026300 -0.155423 -0.023148 -0.959086 
-0.598365 -0.888550 0.053181 -0.341951 0.028053 0.932964 
-1.349440 0.950808 -0.060966 -0.719814 -0.155198 0.655981 
1.307413 1.815924 -0.054417 0.085795 0.248511 -0.825791 
-0.141052 -0.284262 -0.147303 -0.515603 -0.203523 -0.811123 
-0.127185 -0.256491 0.311278 -0.200974 -0.049300 0.973409 
-0.164453 -0.322582 0.297194 -0.281115 -0.038475 0.941480 
3.263775 1.521838 -0.098081 0.283558 0.081034 -0.953414 
0.949645 0.040696 -0.011338 -0.110940 0.101069 -0.926469 
2.051198 1.556546 -0.164186 0.215236 -0.057580 0.933831 
0.848917 0.391235 0.086190 -0.116855 0.079087 -0.957497 
-0.085463 -0.691155 0.023511 -0.058469 -0.395894 -0.905067 
-2.490377 1.248963 -1.308618 0.604171 -0.264384 -0.727445 
1.774683 0.131385 -0.202541 -0.035705 -0.005149 0.970647 
-1.367234 0.249963 -0.181052 0.441894 0.006010 -0.872073 
-2.660264 1.712115 -1.461290 0.518563 -0.027792 -0.853235 
1.349053 0.485241 -0.063998 0.379977 -0.095745 0.883173 
0.466081 0.381250 0.379861 0.213559 -0.255351 0.931666 
-0.288135 0.223302 -0.104637 -0.761986 0.014369 -0.633863 
1.399122 1.084134 -0.106760 -0.118653 -0.116828 -0.982044 
1.728628 0.174616 -0.244352 -0.047293 0.028788 -0.985079 
1.435623 0.034028 -0.150760 0.235680 -0.129975 0.949318 
-2.049892 0.479509 -0.649910 -0.556079 0.048110 0.824425 
-2.719524 1.780092 -1.489379 0.503782 -0.008288 -0.861583 
0.910761 0.468584 0.176019 0.533902 -0.078591 0.823340 
1.240397 0.155073 -0.045641 0.357199 -0.128228 0.916466 
2.708658 0.613934 -0.241548 -0.066517 0.072454 0.991437 
-0.601117 0.206668 0.262435 -0.308524 -0.332882 0.881570 
1.657449 0.178749 -0.234296 0.137965 -0.079696 0.980374 
-0.219991 0.177426 -0.157816 -0.706491 0.003368 -0.683574 
1.149310 1.294354 0.042709 -0.062356 0.234856 0.845853 
3.126881 1.323240 -0.153900 0.254345 0.065082 -0.961404 
0.526157 0.661142 0.347608 -0.113464 0.147448 0.940448 
1.653029 1.174567 -0.141237 0.142714 -0.284120 0.870698 
-0.229232 1.088358 0.514679 -0.394956 -0.509477 0.702268 
-1.590865 1.341833 -0.220189 -0.857029 0.094029 0.449269 
-0.489185 0.621420 0.337838 -0.245847 0.671987 -0.634049 
2.527684 1.603353 -0.257857 0.026765 0.084994 -0.991212 
0.185941 -0.686623 0.026921 0.142460 -0.279374 -0.938258 
-1.025974 0.508028 0.033547 0.270748 0.033797 -0.958770 
0.374958 -0.155246 0.038606 0.456840 0.031005 -0.866503 
0.928477 0.709186 0.080250 -0.557945 0.258052 -0.758116 
0.485926 -0.256266 0.007952 0.321528 0.017262 -0.890008 
-0.316343 0.470083 -0.028914 -0.710413 0.134432 -0.680899 
0.257428 0.842684 0.426844 0.680638 0.218659 0.638914 
1.070188 -0.024590 -0.000080 0.392475 -0.136264 0.907275 
0.034789 -0.307236 0.313735 0.131257 0.005336 0.988278 
-0.273298 -0.806438 0.172092 -0.231810 -0.078594 0.940303 
-0.925362 -0.855881 -0.053419 0.235325 -0.175508 -0.922097 
-0.483757 -0.650486 0.088128 -0.422572 -0.027732 0.895017 
-1.274712 0.961105 -0.065203 0.373457 -0.100962 -0.905086 
-1.662867 1.598146 -0.396041 -0.872411 0.150646 0.415638 
-0.798882 0.098260 0.138740 -0.366733 -0.247031 0.884315 
0.510183 0.077416 0.247875 0.352925 -0.285824 0.876433 
-0.377936 0.366582 0.133888 -0.601378 0.196497 -0.754134 
2.027880 0.510816 -0.210954 -0.274517 -0.063585 0.947680 
1.446583 1.414076 -0.077671 0.451696 -0.281995 0.813018 
-2.125311 1.187757 -0.999602 -0.695028 0.092919 0.692661 
2.495380 0.157120 -0.156975 0.021584 -0.161494 -0.983990 
1.725412 -0.084656 -0.240371 0.023128 0.060412 -0.977610 
-0.089663 0.430937 -0.207768 -0.590408 0.211140 -0.747465 
1.160761 0.179616 -0.038410 -0.272551 0.085527 -0.954650 
0.882693 0.275031 0.145283 0.430672 -0.223543 0.860366 
-1.930523 0.807728 -0.684503 0.639840 -0.082299 -0.756148 
-2.394758 0.357403 -0.975260 -0.713315 0.286814 0.614083 
1.988484 1.423976 -0.191321 0.259066 -0.175652 0.911583 
-1.128402 0.168319 -0.048807 0.338280 0.069927 -0.931456 
0.845548 -0.085170 0.043833 0.425725 -0.151913 0.887337 
-1.533089 -0.278026 -0.280056 0.367515 0.120410 -0.918282 
-0.874579 -0.529192 -0.031831 0.193798 0.008715 -0.953257 
-2.416730 0.437795 -1.033735 -0.698588 0.262772 0.649509 
0.544604 0.381375 0.369419 0.254991 -0.197889 0.919563 
1.475536 -0.125219 -0.195270 0.225677 -0.156148 0.948402 
-0.412890 -0.673647 0.101170 -0.437813 -0.031138 0.887433 
-1.402810 0.466557 -0.153119 -0.605285 -0.057820 0.767018 
-0.208945 0.514989 -0.114560 -0.628168 0.179081 -0.719276 
-0.292608 0.938440 0.234832 -0.914474 0.346949 -0.168963 
0.290208 0.433751 0.435624 0.142740 -0.245626 0.955905 
-0.063779 0.756821 -0.071503 -0.428804 0.396285 -0.799306 
0.452668 -0.805922 0.101529 0.370091 0.016617 0.920077 
0.270646 0.274587 0.383037 0.159635 -0.319684 0.932244 
-0.857765 -0.903129 -0.021128 0.220631 -0.221459 -0.923491 
-2.342265 0.644754 -1.040997 -0.715457 0.294005 0.579106 
0.449700 -0.132770 0.181968 0.418915 -0.211834 0.866756 
1.326615 0.557744 -0.080242 -0.188765 -0.013863 -0.977084 
0.283583 0.061253 -0.088276 0.694804 -0.039245 -0.692706 
-1.851765 1.077038 -0.649654 0.699969 0.023229 -0.691407 
-1.526416 1.093902 -0.150211 -0.736964 -0.133212 0.632059 
0.348648 -0.360821 0.177301 0.570254 -0.135928 0.799353 
-2.203286 1.037734 -1.038491 -0.697808 0.149193 0.687616 
-0.358596 0.243477 0.343487 -0.187042 -0.285343 0.937410 
-1.774814 0.798881 -0.402469 -0.670494 -0.012604 0.721895 
0.290497 -0.760072 0.179070 0.329430 -0.062715 0.909278 
-2.376748 1.300459 -1.239486 0.623861 -0.333224 -0.685993 
-0.192989 -0.526163 0.259613 -0.299581 -0.180775 0.931178 
1.779191 1.111052 -0.208010 0.125108 0.166016 -0.972413 
-2.203361 1.691045 -1.169291 0.632482 -0.060357 -0.768342 
-0.386862 -0.583072 0.113629 -0.474245 -0.067685 0.869006 
-0.578871 0.371690 0.107079 -0.254805 0.186079 -0.852895 
-1.618960 -0.359867 -0.334526 -0.393943 -0.159427 0.900459 
-1.359387 1.460933 -0.079112 0.604879 0.227408 -0.675699 
1.043590 -0.741613 -0.092655 0.295163 0.038292 0.926279 
1.866930 1.580624 -0.176347 0.050250 0.137907 -0.984343 
-1.893055 1.900478 -0.840892 0.800025 0.195978 -0.550045 
-1.710898 0.239644 -0.335117 -0.552033 0.025795 0.814701 
0.019564 0.119257 0.352818 0.058378 -0.226327 0.968835 
0.434401 0.259106 0.097043 0.448008 0.104552 -0.848565 
1.231431 0.864704 -0.034068 -0.165437 -0.076516 -0.981108 
1.819225 1.708109 -0.162444 -0.079077 0.188696 -0.976035 
-2.421262 0.953262 -1.214843 0.638631 -0.258704 -0.714643 
0.112280 0.991366 0.048362 0.504457 0.336811 -0.774478 
2.847569 1.656651 -0.223772 0.191881 0.074978 -0.977792 
0.203418 0.369283 -0.155355 0.695053 0.128456 -0.676083 
2.875380 1.105677 -0.214992 -0.215833 -0.123396 0.962945 
-2.020821 1.261637 -0.904680 -0.765999 0.136337 0.624747 
-1.195551 1.108830 0.064433 -0.206408 0.091879 0.906555 
-2.182353 1.765733 -1.152705 -0.663206 0.051494 0.738560 
2.666725 1.655203 -0.240840 0.103355 0.090689 -0.985018 
-1.548780 1.530300 -0.263681 0.529463 -0.341625 -0.758395 
-0.190793 1.072338 0.431897 -0.593527 0.679942 -0.176370 
1.250276 0.079452 -0.082010 -0.250819 0.103712 -0.957445 
-2.010525 0.665839 -0.703987 0.785741 -0.415131 -0.450298 
0.956781 1.036110 0.131500 -0.617275 0.179486 -0.726849 
0.560290 -0.572937 0.078807 0.402305 -0.039038 0.904332 
0.032065 1.203321 0.438245 -0.087439 0.730295 0.663617 
2.504311 1.292714 -0.272290 -0.106923 -0.254054 -0.956905 
-1.076528 0.235176 0.024126 -0.504341 -0.171560 0.833217 
2.100250 1.743248 -0.200977 -0.063773 0.216593 -0.971858 
-1.966368 1.707226 -0.841454 -0.749791 0.101590 0.608776 
1.250754 0.806530 0.001966 0.526558 -0.123737 0.797139 
-0.129244 1.254593 0.235983 -0.688046 0.656252 -0.028694 
-1.440422 -0.261962 -0.243696 0.358759 0.136136 -0.920218 
-2.309993 1.263590 -1.188255 0.640044 -0.363906 -0.664188 
2.206263 0.653821 -0.249215 0.153455 -0.009035 -0.983672 
-1.717311 0.623622 -0.353629 0.582775 -0.133130 -0.788721 
-2.253813 1.392229 -1.161745 -0.599336 -0.091397 0.792713 
-0.036147 -0.094339 0.325275 -0.111258 -0.110370 0.980707 
-2.121735 0.293746 -0.657183 0.690233 -0.306981 -0.618699 
-1.637910 1.045903 -0.238788 -0.723699 -0.092555 0.649933 
0.425427 0.556275 0.375951 0.341131 0.148277 0.848695 
0.396122 0.140759 0.080463 0.489335 0.090303 -0.843908 
-0.917586 0.400261 0.157712 -0.568087 -0.196715 0.798832 
0.435845 -1.349065 0.152653 0.243829 0.053189 -0.953372 
0.491211 0.603195 0.387204 -0.132887 0.146148 0.958374 
1.719132 1.136024 -0.154576 0.074082 -0.230823 0.879962 
1.116226 -0.186557 -0.049384 0.380648 -0.127336 0.911382 
1.206565 1.201366 0.054585 0.404810 0.009463 0.906565 
-2.433012 1.509957 -1.294512 -0.591703 0.220873 0.753959 
-0.384846 -0.926829 0.089418 -0.073579 -0.165249 -0.961491 
-0.206784 -0.171831 -0.129978 -0.607174 -0.118997 -0.767545 
2.719423 1.603200 -0.238621 -0.111812 -0.117164 0.976658 
-0.782350 -0.308708 0.008094 0.103691 0.018856 -0.938485 
2.315706 0.794101 -0.254033 0.186261 0.128164 0.937712 
-0.028672 0.354873 0.440073 -0.012001 -0.355134 0.933025 
-0.093473 1.275431 0.319090 -0.273364 0.863669 0.403662 
2.203295 1.492234 -0.239763 0.016431 0.200620 -0.974801 
2.349191 1.681803 -0.248701 -0.029918 0.116262 -0.991795 
2.418494 0.504321 -0.218226 0.186571 0.196750 0.917033 
-1.593509 0.788093 -0.264998 0.524513 -0.135653 -0.821609 
2.556835 1.386708 -0.266264 0.123409 0.207228 -0.961424 
1.453852 -0.428417 -0.264548 -0.333854 0.147711 -0.922742 
2.871108 0.833314 -0.212414 0.099101 -0.127789 -0.974487 
-1.173935 0.303200 -0.028670 -0.532602 -0.139701 0.813370 
-1.695224 1.290895 -0.446027 0.637734 -0.141632 -0.709655 
-1.763291 -0.237330 -0.345220 0.391277 0.047857 -0.917257 
2.198959 0.927596 -0.250737 0.187177 0.074333 0.960402 
-2.243344 1.995475 -1.207707 -0.534392 0.382282 0.730720 
-1.132847 -0.127598 -0.062869 -0.412558 -0.149800 0.895715 
1.761208 1.226574 -0.155382 0.379807 -0.114751 0.878330 
-1.149519 1.088241 -0.007501 0.531349 0.134184 -0.823784 
-0.847565 0.207502 0.039948 0.076461 0.101809 -0.920896 
-0.376155 0.626157 0.423845 -0.501930 0.078052 0.805644 
2.981600 0.775766 -0.183720 -0.160552 0.027316 0.979856 
-0.572556 -0.184394 0.110084 -0.453819 -0.171716 0.862701 
-0.261281 0.773847 0.009985 -0.592790 0.532079 -0.596324 
-0.468934 -1.338298 0.174471 -0.776411 0.179622 0.454849 
-1.502887 0.654245 -0.228979 0.480823 -0.095698 -0.844453 
-0.534514 0.234995 0.300668 -0.292013 -0.358303 0.880273 
0.297630 -0.112287 -0.001704 0.566408 -0.072139 -0.803089 
-0.468535 -0.060900 0.202964 -0.398081 -0.245239 0.864276 
1.612885 1.636754 -0.090864 0.403395 -0.066188 0.891668 
2.082384 1.608209 -0.214420 0.003372 0.101157 -0.991458 
0.683265 -0.185874 0.065648 0.449753 -0.143210 0.876286 
-1.615192 1.448265 -0.321903 -0.900034 -0.090363 0.358548 
-0.911700 0.326886 0.130488 -0.517388 -0.225477 0.818091 
-1.690062 1.211305 -0.344551 -0.829645 0.097488 0.506593 
-0.710345 0.512914 0.183058 0.187668 0.527905 -0.650707 
0.070994 -0.692811 0.246463 0.274640 -0.126736 0.940867 
2.439714 1.780709 -0.240687 -0.026684 0.258888 -0.960695 
-0.158411 0.179341 -0.201226 -0.653759 0.013598 -0.732120 
-0.853620 0.035078 0.090619 -0.395381 -0.209111 0.883569 
-1.200097 0.884407 0.021634 -0.712737 -0.187534 0.665789 
0.602179 -1.064524 0.089485 -0.158731 -0.263511 -0.948952 
2.638489 0.403515 -0.207519 0.058658 -0.126682 -0.988406 
-0.208361 0.192125 0.362273 -0.148328 -0.289109 0.943755 
0.712293 0.223630 0.056594 0.129673 0.103341 -0.897067 
-0.249954 -0.100722 0.285330 -0.366587 -0.205201 0.864201 
-0.146614 0.361053 0.447540 -0.107181 -0.340082 0.933304 
-0.452223 -0.242443 0.015817 -0.350107 0.025501 -0.879680 
0.890169 0.209216 0.032921 -0.078125 0.101506 -0.929753 
-0.204662 -0.728418 0.206472 -0.173742 -0.170924 0.960885 
0.230876 0.490781 -0.113107 0.660026 0.157842 -0.708757 
-1.996072 0.796895 -0.743565 0.603368 -0.069774 -0.786120 
-2.145319 1.641635 -1.103905 -0.695391 0.118010 0.696052 
0.280171 0.364608 0.415180 0.143895 -0.278756 0.946178 
-1.837464 1.687507 -0.751207 0.735699 -0.063160 -0.668478 
-1.768036 1.108158 -0.455754 -0.839378 0.177920 0.474418 
-0.376058 0.683874 0.141245 -0.825427 0.449148 -0.293435 
1.719496 1.383732 -0.143247 0.370310 -0.220656 0.862131 
-0.397489 0.672195 0.364555 -0.565805 0.358781 0.684841 
-2.002113 1.020242 -0.841018 0.692779 -0.110890 -0.698517 
-0.724477 -0.116770 0.078216 -0.441508 -0.170162 0.871664 
2.123140 0.118175 -0.141508 -0.210273 0.072956 0.954167 
0.928064 -0.682602 -0.058370 0.349457 -0.049264 0.925530 
-0.020683 -0.528942 -0.067226 -0.186256 -0.612281 -0.762448 
0.931292 0.118422 0.004061 -0.083617 0.112264 -0.920018 
-0.346294 0.708140 0.431214 -0.637888 0.388362 0.595046 
-1.355396 1.110401 -0.093852 0.412479 -0.141489 -0.884893 
-1.368153 1.161199 -0.044216 -0.748196 -0.202389 0.616165 
1.000515 -0.537453 -0.077367 -0.203492 0.023223 -0.950596 
-0.987145 0.746208 0.056518 0.379860 0.090160 -0.891495 
-2.223773 0.391537 -0.811542 0.739356 -0.354365 -0.553724 
-1.080432 -0.495692 -0.114982 -0.377669 -0.120587 0.907749 
-1.082909 0.984924 0.016045 0.578892 0.151022 -0.795883 
-0.307438 -0.537941 0.001673 -0.410675 -0.128071 -0.863344 
-1.813402 0.015284 -0.371444 -0.489161 -0.000360 0.858350 
0.129750 0.910875 0.511706 0.244493 -0.080265 0.963279 
0.395966 0.399864 0.394303 0.161682 -0.207728 0.963075 
0.814026 0.146241 0.024565 0.044464 0.111132 -0.902091 
-0.626802 0.315073 0.092348 -0.176732 0.100227 -0.891814 
0.074741 -0.310124 -0.170821 0.437351 -0.272524 -0.832633 
-0.289775 0.083156 -0.060671 -0.687390 -0.021556 -0.700515 
-1.278528 0.891580 -0.025460 -0.712684 -0.163528 0.665928 
1.545616 0.449671 -0.150949 0.244494 -0.051050 0.946770 
0.393927 -0.390665 0.095871 0.502733 -0.116737 0.853997 
-2.629737 1.018666 -1.366770 -0.603332 0.138607 0.778980 
1.048298 0.947553 0.028351 -0.411456 0.032821 -0.878882 
1.823776 1.001955 -0.229543 -0.214489 -0.057509 -0.945941 
0.548929 0.327527 0.095916 0.265852 0.141870 -0.878515 
-0.311940 0.447531 0.433576 -0.145709 -0.230691 0.959839 
0.007941 -0.706602 0.025845 0.572446 -0.333944 -0.709267 
1.035821 0.829345 0.119679 0.527254 -0.079929 0.825235 
-2.483858 1.541790 -1.332021 -0.580163 0.172787 0.774722 
-0.158564 0.698895 0.496464 -0.183875 0.158076 0.949533 
0.877737 0.297941 0.058032 -0.106274 0.090419 -0.944810 
1.522133 0.349410 -0.149546 0.231854 -0.059135 0.959170 
-1.940526 1.892705 -0.897081 -0.753600 0.162408 0.636025 
-2.006567 1.134790 -0.878385 0.753460 -0.166712 -0.631476 
-1.180763 0.127751 -0.082188 0.364335 0.066624 -0.917422 
-1.342626 0.900469 -0.110465 0.405539 -0.104443 -0.887188 
-0.944797 -0.789475 -0.083470 0.209857 -0.071192 -0.935044 
0.091960 0.280966 0.411373 0.065626 -0.324226 0.939613 
2.577658 1.277463 -0.263775 -0.118759 -0.164830 0.966957 
0.113932 -0.378509 0.309315 0.166011 -0.069536 0.979919 
3.123789 0.893946 -0.153170 -0.214666 -0.007875 0.972421 
-0.017107 -0.099739 -0.238420 -0.449005 -0.168697 -0.841190 
-0.492743 -0.293984 0.095829 -0.488275 -0.140926 0.854629 
-0.952768 -0.251916 0.004803 -0.401352 -0.095175 0.904493 
0.259447 1.033203 0.292870 0.904529 0.368566 0.000566 
0.413399 0.663139 0.332956 0.546730 0.424686 0.713343 
0.300756 -0.948506 0.097667 -0.098242 -0.252260 -0.946423 
1.955383 0.513132 -0.216093 -0.168310 -0.047209 0.958852 
1.377566 1.416255 -0.051743 0.523715 -0.273877 0.794685 
0.104659 0.142248 -0.235605 0.591068 0.008404 -0.788373 
2.248276 0.191643 -0.155606 -0.133684 0.070769 0.965260 
2.266547 1.515519 -0.206111 0.129907 -0.047117 0.958082 
-0.629279 0.122342 0.215990 -0.342846 -0.291259 0.878832 
-0.366072 -0.522622 0.040744 -0.324918 -0.041571 -0.906538 
0.189085 -1.188464 0.220272 -0.287474 -0.393818 -0.857086 
-0.291780 0.193942 0.342408 -0.179071 -0.312647 0.931340 
-1.104460 -0.625466 -0.162754 0.236896 0.076631 -0.937263 
-2.638530 1.288528 -1.411712 -0.576136 0.154855 0.791718 
1.347760 0.392475 -0.071323 0.354903 -0.098106 0.900951 
-0.124489 -1.092740 0.190199 0.134787 -0.461510 -0.874658 
-0.866203 0.467937 0.096018 0.312834 0.293485 -0.864591 
1.165311 -0.597039 -0.162403 -0.241349 0.058574 -0.939464 
1.304445 1.001428 -0.066350 -0.141043 -0.101156 -0.981178 
-1.757549 1.012645 -0.546018 0.734069 -0.142330 -0.616368 
-1.027558 0.738021 0.128992 -0.546412 -0.129348 0.803486 
2.225195 1.387280 -0.238760 0.156310 -0.103666 0.966658 
0.286872 -0.239158 -0.017795 0.551380 -0.106646 -0.813657 
-1.121818 0.978199 0.097227 -0.243765 0.059920 0.912317 
-0.556463 0.258215 0.082353 -0.291662 0.099795 -0.863303 
-0.132626 0.520711 0.494749 -0.138594 -0.283936 0.946900 
-0.665409 -0.613426 0.063429 -0.378473 -0.015730 0.916841 
-1.539724 1.023765 -0.167771 -0.727246 -0.111045 0.645708 
2.928542 1.373924 -0.205399 0.220256 0.093019 -0.965604 
0.981850 0.967100 0.123914 0.217916 0.097762 0.946258 
-1.330924 0.502323 -0.141075 0.411022 -0.032774 -0.885698 
2.669934 1.509256 -0.249460 -0.071834 -0.062791 0.987623 
-1.883100 1.596381 -0.733372 -0.802125 0.144198 0.538047 
-1.030038 -0.342414 -0.074215 0.261224 0.067281 -0.942280 
-2.359606 1.209249 -1.207882 -0.611503 0.005240 0.776876 
2.925682 1.674137 -0.192791 -0.234183 -0.287105 0.923596 
-0.401275 -0.743645 0.120034 -0.423697 -0.017885 0.894267 
1.717792 0.302405 -0.253881 -0.101905 0.024387 -0.991237 
0.357481 -1.220674 0.182264 0.004430 0.124899 0.932142 
-1.402475 -0.348719 -0.251820 -0.390603 -0.213601 0.894378 
-2.412947 0.655023 -1.122685 -0.685198 0.242694 0.667345 
2.043883 0.872922 -0.219694 0.321413 0.125898 0.922146 
0.308105 -0.530351 0.181146 0.522609 -0.117700 0.844152 
-0.874831 0.881218 0.187119 0.574215 0.173443 -0.798968 
-1.536501 1.171617 -0.145968 -0.747406 -0.149599 0.617413 
-1.906431 1.703777 -0.758300 -0.773762 0.109689 0.573309 
1.422664 1.544551 -0.114498 0.165145 0.035932 -0.972030 
1.191096 -0.487126 -0.155288 -0.258727 0.076005 -0.938932 
2.903896 1.593319 -0.203147 -0.203073 -0.200492 0.947245 
1.929409 1.726775 -0.146041 0.117505 0.144499 0.943474 
-1.391497 1.295377 -0.093256 0.430422 -0.179052 -0.876430 
2.207806 0.729910 -0.243530 0.324416 0.204664 0.885440 
1.395706 1.352090 -0.109459 -0.092986 -0.162892 -0.979791 
-0.009244 0.775838 0.505332 -0.073486 -0.075040 0.990459 
-1.769482 1.676849 -0.644348 0.717580 -0.059390 -0.686850 
-0.304682 -0.576512 0.186636 -0.512413 -0.108265 0.848928 
-0.146837 -0.477810 0.285388 -0.184375 -0.171291 0.964524 
-1.610430 -0.291466 -0.310412 0.374823 0.107299 -0.916664 
1.406959 -0.042548 -0.161239 -0.174549 0.120128 -0.969563 
1.454411 0.290148 -0.126011 0.259690 -0.077468 0.949821 
-2.088016 1.052336 -0.952965 0.724611 -0.178083 -0.664402 
-0.918912 0.510883 0.076858 0.216826 0.115782 -0.963879 
-1.615121 0.374500 -0.295208 -0.586989 0.032753 0.789772 
0.078146 -0.199137 0.316936 0.159557 -0.065207 0.977856 
2.004767 1.147467 -0.224711 -0.085918 0.087469 -0.976404 
2.880886 1.741532 -0.213323 0.214551 0.138083 -0.960226 
-2.236220 1.318194 -1.142274 0.653651 -0.387384 -0.642527 
-0.858434 -0.460507 -0.011290 0.200183 0.007051 -0.954341 
-0.461159 -1.417491 0.162582 -0.422127 -0.699923 0.241776 
-1.084654 -0.726922 -0.135679 -0.310788 -0.001146 0.913955 
2.621326 1.182881 -0.265917 -0.162689 -0.159829 0.964316 
0.468653 -0.355480 0.015617 0.294760 -0.007013 -0.900253 
-2.362242 1.371447 -1.230658 -0.602694 0.019106 0.787150 
0.716426 0.360070 0.246068 0.415861 -0.271069 0.848821 
-0.702200 -0.302545 0.007400 -0.005885 0.019234 -0.925120 
-0.951742 0.942801 0.142337 0.632806 0.204372 -0.734936 
-1.973481 0.955404 -0.739607 -0.813829 0.306540 0.446367 
-0.850730 -0.358811 0.029018 -0.396210 -0.069092 0.907704 
3.086457 1.455115 -0.159356 -0.238639 -0.138630 0.951036 
0.819164 0.231616 0.174676 0.369308 -0.259043 0.879791 
-2.325191 0.179993 -0.825672 0.690400 -0.292745 -0.648584 
1.796054 0.403424 -0.205073 0.015230 0.014314 0.976987 
3.123905 1.113148 -0.154309 -0.196137 0.038103 0.969438 
0.381638 -0.121675 0.205357 0.362657 -0.219000 0.883941 
0.077342 0.979178 0.524727 0.193862 0.006560 0.973334 
0.081084 0.620053 0.518870 0.056863 0.188392 0.977561 
0.430778 0.608494 0.273537 0.470910 0.539121 -0.596881 
-1.210532 0.017729 -0.070932 -0.436667 -0.126117 0.886477 
-2.510716 1.319281 -1.325510 -0.600373 0.158867 0.776165 
-1.042708 0.351470 0.057427 -0.545931 -0.187907 0.802871 
2.740064 1.686574 -0.223281 -0.136714 -0.199015 0.952932 
-1.517902 1.680354 -0.221857 -0.547945 0.613953 0.513770 
0.290704 0.742084 0.008758 0.621833 0.559354 -0.536022 
0.320006 -0.614469 0.179460 0.491836 -0.089511 0.859403 
-0.150409 -0.467763 -0.077073 -0.387503 -0.376280 -0.822538 
0.146999 -0.038442 -0.186916 0.580258 -0.065182 -0.793032 
-2.027809 1.798738 -1.007519 0.725371 -0.048487 -0.680317 
1.116682 1.128973 0.012164 -0.716507 0.242278 -0.511681 
-2.812505 1.881855 -1.532257 -0.494981 -0.041682 0.864585 
0.206763 0.051758 0.315432 0.197892 -0.241368 0.933939 
1.751042 1.307819 -0.151737 0.367517 -0.168554 0.873518 
-1.443099 1.506681 -0.026511 -0.355594 0.118693 0.886897 
-2.391782 0.897952 -1.182466 -0.653200 0.143826 0.730881 
-1.801981 1.052509 -0.488898 -0.772849 0.059420 0.607311 
2.986376 1.221786 -0.192617 0.260077 0.129008 -0.951163 
0.917729 -0.563958 -0.029313 0.354859 -0.056803 0.923875 
-0.305966 -0.345125 0.011329 -0.500357 -0.022707 -0.861266 
0.366518 0.567846 0.448137 0.408082 -0.094939 0.867909 
-1.394232 0.038678 -0.163931 -0.459618 -0.083192 0.873215 
0.147895 -0.711623 0.220040 0.167379 -0.156620 0.966936 
3.219464 1.321022 -0.129512 0.265817 0.044815 -0.961559 
0.758335 -0.862409 -0.000422 -0.132562 -0.124710 -0.955903 
1.338595 1.146848 -0.082700 -0.121672 -0.126702 -0.980542 
1.593068 -0.073344 -0.237468 0.138511 -0.135854 0.973194 
1.572141 1.207529 -0.123215 0.279371 -0.251180 0.858654 
-1.918099 -0.136075 -0.412684 -0.481700 0.028961 0.862201 
-1.392587 0.553530 -0.137248 -0.635213 -0.067134 0.743642 
-0.562716 -0.404754 0.067634 -0.469839 -0.092001 0.871245 
0.134347 0.762059 -0.041949 0.486741 0.446538 -0.724926 
1.647099 1.373965 -0.126708 0.419459 -0.220298 0.839703 
0.320109 0.431635 -0.017421 0.682296 0.135781 -0.706164 
1.140324 -0.421045 -0.108597 0.370108 -0.113175 0.914538 
-2.539934 1.584910 -1.376785 0.542834 -0.007231 -0.834954 
1.056567 -0.099540 -0.002751 0.382672 -0.122387 0.911795 
-2.257301 0.974850 -1.074631 -0.690282 0.162138 0.694334 
-0.592058 0.528251 0.187432 -0.148874 0.459909 -0.653247 
0.660920 0.520136 0.312181 0.134993 0.169175 0.952288 
-2.059466 0.616783 -0.719965 -0.548317 0.019661 0.829750 
-0.922799 0.713956 0.120963 0.664666 0.352179 -0.633208 
-2.579626 1.730581 -1.418885 0.532799 -0.035012 -0.844440 
0.227511 -1.101815 0.181317 -0.270032 -0.363543 -0.883653 
-1.856543 1.853445 -0.761433 -0.719317 0.243251 0.614839 
2.638036 1.779188 -0.212909 -0.043474 0.117045 0.971602 
-2.474132 0.991299 -1.254879 -0.627491 0.117997 0.756678 
-0.296473 0.156711 -0.056126 -0.700517 0.007516 -0.690268 
1.296021 1.083545 -0.064128 -0.134292 -0.115160 -0.980367 
0.338257 0.369498 0.034495 0.632494 0.136952 -0.748411 
1.270895 1.213001 -0.055727 -0.125440 -0.137058 -0.978896 
1.295317 0.342474 -0.053177 0.374441 -0.111354 0.895623 
1.008332 -0.411871 -0.059410 -0.217622 0.037715 -0.951370 
0.083125 0.703858 0.501223 0.084971 0.064052 0.988348 
-1.844012 0.088712 -0.391353 -0.521782 0.029557 0.836225 
1.910564 0.864736 -0.239912 -0.340533 -0.158101 -0.924665 
0.766371 -0.703744 0.015966 0.342411 -0.015017 0.930935 
2.379779 0.947913 -0.271919 0.044055 0.022790 0.995832 
0.591152 0.694369 0.313398 -0.142758 0.463384 -0.730098 
0.472402 -0.989573 0.103676 0.313141 0.075666 0.945150 
2.637883 1.102042 -0.269495 -0.026072 -0.236003 -0.964051 
-0.141343 0.020054 -0.196279 -0.598919 -0.040496 -0.779197 
0.294538 0.777025 0.427647 0.607490 0.335035 0.651107 
2.517564 0.774741 -0.257698 0.007847 0.059107 0.994334 
-2.013957 0.736266 -0.683322 -0.761595 0.232149 0.565429 
0.308657 -0.414106 0.221697 0.620433 -0.132814 0.769834 
-1.921709 1.345651 -0.799985 0.787970 -0.226086 -0.555098 
-0.554177 0.541365 0.377790 -0.053694 0.124293 0.966896 
2.105209 0.190171 -0.153814 -0.234466 0.045522 0.951542 
-2.443158 0.560284 -1.115121 -0.679096 0.231152 0.694791 
-0.230183 0.431374 0.449910 -0.138560 -0.277051 0.948142 
-2.082752 1.953976 -1.050760 -0.628671 0.337904 0.675229 
1.347516 1.688022 -0.087013 -0.583821 -0.001999 -0.772369 
-1.640700 1.441927 -0.387848 0.614384 -0.270665 -0.700702 
1.034594 -0.176387 -0.007632 0.378107 -0.111736 0.913763 
-2.545696 1.139977 -1.329001 0.600355 -0.218668 -0.750811 
0.539854 -0.170105 0.129850 0.436380 -0.178447 0.869893 
-1.792084 0.778103 -0.479207 0.732698 -0.263282 -0.559710 
0.038076 -0.394118 0.316414 0.073147 -0.082431 0.992628 
-1.832557 1.481216 -0.689220 0.685826 -0.340614 -0.615665 
-2.359562 1.852358 -1.285324 -0.582669 -0.116113 0.794001 
-1.457881 1.417836 -0.064776 -0.781939 -0.237925 0.568884 
-2.479148 0.807205 -1.231018 -0.652948 0.194478 0.728952 
-1.790480 0.854717 -0.455852 -0.658334 -0.052112 0.735877 
-1.781863 0.687323 -0.414851 0.649810 -0.184902 -0.705603 
-1.698462 0.778144 -0.297972 -0.691744 0.003510 0.695663 
1.364310 0.622160 -0.090953 -0.172851 -0.031249 -0.981283 
-1.497139 0.442008 -0.241901 0.489822 -0.055800 -0.842336 
1.417441 0.115419 -0.148275 -0.191710 0.084912 -0.969704 
-1.772412 1.446939 -0.568353 -0.853897 -0.013897 0.465457 
-1.463116 1.152465 -0.149951 0.463932 -0.169739 -0.857173 
-0.264105 1.010284 0.222283 -0.892851 0.373743 -0.207785 
2.857016 1.323492 -0.221399 -0.108567 0.081423 0.976294 
-1.249738 1.267110 -0.047091 0.535004 0.150835 -0.825364 
-2.303183 0.404587 -0.895346 -0.748349 0.346952 0.506028 
-2.357981 1.472828 -1.241775 -0.610858 0.270271 0.728255 
0.604731 0.419281 0.352279 0.292603 -0.131869 0.914937 
-1.178781 0.618038 -0.044242 0.335438 -0.022781 -0.926441 
0.376804 -0.942679 0.096035 0.045526 -0.187825 -0.965558 
-2.439644 0.182630 -0.949548 0.693127 -0.285876 -0.660781 
1.011272 0.544674 0.096662 0.581738 -0.163405 0.789654 
-2.496848 1.071019 -1.284873 0.615082 -0.235016 -0.736448 
1.191905 1.348577 0.021082 -0.788241 0.339752 -0.315805 
-2.190090 1.862824 -1.157566 -0.646340 -0.047537 0.741559 
-0.609380 0.105652 0.041712 -0.243405 0.091446 -0.862575 
2.219342 1.086747 -0.255095 0.124922 -0.009650 0.989797 
3.107848 1.036644 -0.158748 -0.186658 0.050130 0.972090 
0.599741 -0.860098 0.049365 -0.066510 -0.109412 -0.972925 
-2.010398 1.345341 -0.924626 0.739832 -0.303740 -0.589998 
0.271419 -0.166078 -0.069337 0.621922 -0.120571 -0.751889 
-0.163513 -0.669108 0.225803 -0.193807 -0.198533 0.956182 
2.175232 0.418169 -0.192942 -0.196183 -0.006469 0.956338 
-0.943550 0.786139 0.116893 0.701696 0.301968 -0.625576 
-0.224781 0.866300 0.454383 -0.635885 0.122128 0.753371 
-1.921500 1.013823 -0.734679 0.662622 -0.009126 -0.731634 
-0.301952 0.802426 0.138703 -0.776676 0.416985 -0.399686 
-2.754233 1.361370 -1.494416 0.533054 -0.068800 -0.841668 
-0.282477 0.969490 0.333319 -0.918441 0.325703 0.151286 
-1.300879 0.200308 -0.118862 -0.504824 -0.082675 0.839891 
2.496775 0.485841 -0.222509 0.103210 -0.084819 -0.986315 
-1.679442 1.090339 -0.413386 0.717864 -0.321987 -0.521011 
-2.306269 0.073112 -0.757010 0.653184 -0.252708 -0.706464 
0.311274 -0.043971 0.023479 0.557160 -0.035203 -0.813219 
1.089042 -0.265604 -0.052177 0.375782 -0.115458 0.913549 
-0.220971 -0.664653 0.025032 -0.066184 -0.296308 -0.940739 
-1.330967 1.394712 -0.075872 0.485799 0.128444 -0.854477 
-1.875560 1.433486 -0.728022 -0.823972 0.041840 0.535552 
-1.699009 0.009570 -0.314015 -0.477220 -0.025534 0.865023 
-0.977423 0.665893 0.063144 0.237748 0.050551 -0.963240 
-1.836376 0.995782 -0.534971 -0.734983 0.012478 0.669369 
1.966401 0.141099 -0.143804 -0.324616 0.037046 0.938830 
-0.787645 0.223190 0.179095 -0.381353 -0.275908 0.867167 
0.231653 -0.434724 -0.068030 0.495095 -0.264748 -0.804138 
1.648164 0.976368 -0.192015 -0.168373 -0.114037 -0.969099 
-1.198724 0.362365 -0.074986 0.359080 0.019965 -0.916924 
-0.349688 0.261417 0.103108 -0.578218 0.110039 -0.805180 
1.918781 1.622402 -0.136119 0.265289 -0.065188 0.920959 
-0.613076 -0.730040 0.060232 0.097604 -0.084116 -0.971650 
-0.883105 0.467655 0.164820 -0.335297 0.180924 0.897946 
0.839753 0.712495 0.164862 -0.600497 0.267575 -0.724468 
-2.025882 1.593323 -0.952946 -0.757266 0.141041 0.616901 
0.920059 -0.815549 -0.044138 0.281316 0.079884 0.931713 
1.448488 1.503309 -0.059801 0.545846 -0.107576 0.789909 
-1.451472 1.431499 -0.137188 0.480257 -0.181253 -0.825901 
0.305314 0.017709 -0.010281 0.605811 -0.024722 -0.771283 
0.653560 0.640380 0.280148 0.082225 0.154384 0.926901 
-1.351723 0.097702 -0.168038 0.407849 0.040641 -0.895153 
-0.607288 0.039935 0.190211 -0.372072 -0.260494 0.874236 
-0.287843 -0.256568 0.255714 -0.532533 -0.167420 0.795007 
0.936671 0.416193 0.130649 0.559730 -0.172685 0.810455 
-2.263468 0.317760 -0.821142 0.723052 -0.333423 -0.586193 
0.713959 0.014974 0.139481 0.385153 -0.219350 0.884228 
-1.686557 1.008911 -0.317874 -0.701127 -0.093526 0.678974 
0.225232 1.233481 0.559759 0.787977 -0.364836 -0.474462 
0.865110 -0.153288 0.026892 0.423289 -0.124682 0.893271 
-1.275209 1.367036 0.000762 0.119943 0.289171 0.887542 
2.283575 1.712346 -0.207677 0.122767 -0.041940 0.975967 
-0.452559 0.403314 0.393121 -0.190956 -0.218126 0.944878 
2.805800 0.622125 -0.221506 0.104465 -0.095233 -0.986856 
-0.776146 -0.529130 0.037580 -0.375566 -0.035370 0.917538 
-1.749892 1.718883 -0.554545 -0.839503 0.133061 0.483109 
0.273807 0.359663 -0.120336 0.749670 0.073286 -0.648373 
-2.122148 0.755651 -0.866441 0.610277 -0.131824 -0.775389 
-2.106266 0.914180 -0.915114 0.671653 -0.157168 -0.715746 
-1.361552 -0.279336 -0.222441 0.350532 0.162419 -0.920408 
0.003660 1.331742 0.258226 0.229700 0.736223 0.613968 
-0.212799 0.106799 0.323152 -0.155391 -0.259438 0.951677 
