-0.453401 0.392703 1.711596 -0.846391 0.230344 0.473089 
0.724369 -0.639909 0.970853 -0.878432 -0.283616 0.170699 
-0.666245 -0.191154 1.364080 0.887962 -0.151021 -0.006497 
-0.727378 -0.334481 1.602145 -0.643448 0.304095 -0.324793 
-0.349762 0.267922 2.702063 0.989847 -0.089898 0.062483 
-0.679190 -0.235281 1.472086 0.374306 -0.331981 0.255157 
0.574391 -0.469527 0.592153 -0.856411 -0.129040 0.337251 
-0.475092 1.035086 1.578126 0.928644 -0.307393 -0.084720 
-0.058367 1.180093 0.056580 -0.464376 0.378175 -0.786071 
-0.537454 -0.791361 0.471226 0.729022 -0.071096 0.548784 
-0.038095 1.386419 0.208533 -0.506650 0.737926 0.419614 
0.603690 -0.068717 1.752541 -0.982030 -0.042806 -0.055987 
-0.792503 -0.335709 0.871760 -0.975751 -0.007374 -0.155104 
0.619470 -0.889634 0.723345 -0.734967 -0.281769 0.398840 
-0.362985 0.212001 2.744949 0.987388 -0.100177 0.081066 
0.391762 -0.974533 0.165778 -0.582406 -0.144943 0.755806 
0.089768 0.823425 -0.115772 0.456942 0.360386 -0.793961 
0.720921 -0.467553 1.090467 0.892328 0.216467 0.117266 
-0.554412 1.156229 1.352942 -0.557749 0.482653 -0.455407 
-0.212123 -1.151855 0.002888 0.708333 -0.289595 0.512962 
-0.198936 1.215968 0.465200 -0.845121 -0.393363 -0.315151 
0.086333 0.711055 0.422196 0.076920 0.113465 0.984325 
-0.340119 0.221524 0.340864 -0.504992 -0.131518 0.839398 
-0.589031 0.816368 0.933238 0.882900 0.109492 -0.174838 
0.050983 -0.715113 -0.054865 0.175822 -0.044487 -0.955038 
-0.413835 0.531335 0.426576 0.875712 -0.101155 0.428339 
0.501764 -0.332026 0.335576 -0.517934 -0.158906 0.665024 
-0.496100 1.166474 1.501917 0.914988 -0.383985 -0.042655 
-0.289354 0.928780 0.276918 -0.909396 0.261831 0.242052 
0.530279 0.205173 0.215249 0.855612 0.030492 -0.460276 
-0.036880 -0.462464 0.244375 -0.087806 -0.221320 0.962281 
-0.186607 -0.728604 -0.038316 -0.105632 -0.149757 -0.979070 
0.403806 0.923725 1.315463 -0.855502 -0.405420 0.299636 
0.144965 1.111223 0.483516 -0.247254 0.074046 0.902618 
0.693055 0.077145 1.956082 0.954699 0.029461 -0.212178 
-0.624025 0.199863 0.567934 0.751228 -0.364538 0.433384 
0.418489 -0.998006 0.232927 -0.588721 -0.170515 0.724040 
0.123972 -0.515414 0.219286 0.140424 -0.344327 0.925826 
0.526058 0.079961 1.511826 -0.990788 -0.085956 0.102041 
-0.088679 0.148991 0.483491 -0.235226 -0.208772 0.934553 
0.639179 -0.438972 1.287568 0.785204 0.216557 0.435853 
0.261517 -1.080513 -0.006049 0.174110 -0.039087 -0.939309 
0.340046 0.562627 -0.089759 0.559650 0.081065 -0.797794 
-0.521716 0.162324 1.777389 -0.855708 0.347328 0.379355 
0.171573 0.018946 -0.155349 0.479941 -0.053535 -0.867200 
0.015922 0.872418 0.463546 0.139716 -0.169657 0.964606 
0.088689 0.089083 -0.199297 0.477391 -0.002889 -0.870791 
0.443139 0.827835 0.998474 0.713624 0.432288 -0.360387 
-0.066347 -1.063419 -0.122722 -0.312924 0.336603 -0.885800 
0.303087 -0.715259 -0.032298 0.636225 -0.093997 -0.744895 
-0.314222 0.445302 2.629880 -0.995692 0.040925 -0.037847 
-0.403047 0.053326 2.222412 -0.927523 0.257778 0.188756 
-0.049405 0.036377 -0.215097 -0.441671 -0.034325 -0.880648 
-0.397259 0.712815 0.126244 -0.512851 0.832541 -0.032900 
0.555358 0.148144 1.043099 -0.952800 -0.203769 0.174564 
-0.680908 0.138673 0.522210 -0.918349 0.083118 -0.291278 
-0.719786 -0.312399 1.669508 -0.786219 0.315024 -0.196885 
-0.046636 -0.471595 -0.131012 -0.108348 -0.501550 -0.844004 
-0.656849 -0.683646 0.786360 0.849759 -0.027337 0.361645 
1.045461 0.003685 2.605764 -0.823824 -0.136613 0.540997 
0.334913 -0.015120 0.290724 0.610875 -0.185489 0.766594 
0.698718 -0.775403 0.914116 -0.817547 -0.304347 0.249038 
0.310940 -0.823992 0.104987 -0.082951 -0.187353 0.865814 
0.550823 -0.450981 0.495510 0.883847 0.024911 -0.337418 
-0.118130 0.448817 -0.150863 -0.376988 0.025622 -0.923191 
-0.019753 -0.561918 -0.073112 -0.298241 -0.338203 -0.879336 
0.639861 -0.234064 0.671243 0.968807 0.053006 -0.188681 
0.473123 0.555718 1.520662 -0.924962 -0.253978 0.160538 
-0.359200 0.475599 1.990851 -0.971804 0.049584 0.221833 
0.622299 -0.555177 1.893260 0.948570 -0.064713 -0.288596 
-0.420651 -0.289037 2.550966 -0.950787 0.264679 0.115664 
0.701826 0.530549 2.131135 -0.927977 -0.189220 0.304550 
0.544725 -0.562693 0.497283 0.844796 0.040331 -0.382575 
-0.631152 -0.683612 0.696985 0.823676 -0.042026 0.401926 
0.557191 -0.887571 0.570076 -0.702069 -0.236684 0.488855 
-0.383426 0.284096 2.957730 -0.981692 0.074404 -0.149152 
-0.752384 -0.267954 1.144716 -0.988389 0.050442 0.013343 
-0.576641 0.126179 0.230256 -0.841022 0.046762 -0.477422 
-0.430959 0.662835 0.294517 -0.708782 0.690363 -0.012086 
-0.464016 0.921550 1.734746 -0.960164 -0.091731 0.241165 
-0.421480 0.478429 1.686832 0.984640 -0.109480 -0.007692 
0.840612 0.847454 2.525268 0.905951 0.112727 -0.402415 
0.028484 1.142776 0.439074 -0.056050 0.461587 0.856719 
0.011006 0.518256 -0.195357 0.361604 0.068304 -0.929268 
0.620431 0.467839 1.825957 0.960439 0.173257 -0.137354 
0.539981 0.239678 1.533931 0.943463 0.014845 -0.199249 
0.629354 -0.013995 0.664584 0.968132 0.067152 -0.148332 
0.524588 0.622809 0.926277 0.850506 0.375412 -0.299844 
-0.442350 0.325413 3.248198 0.968455 -0.101409 0.210743 
0.409683 1.118585 1.581722 -0.864512 -0.230026 0.412275 
-0.321057 0.225340 2.366850 0.987778 0.003602 0.126758 
0.639738 -0.260133 1.867613 0.966468 -0.024575 -0.189822 
-0.217857 1.030910 0.081985 -0.710781 0.390328 -0.521233 
-0.506521 0.356862 1.631141 -0.955677 0.166640 0.203668 
-0.402415 0.986637 1.999289 0.986179 -0.090946 0.004375 
-0.416467 -0.018116 0.226159 -0.012983 -0.234017 0.850124 
-0.753957 -0.328214 0.794107 0.946848 -0.052542 0.209467 
-0.038179 -0.200352 -0.209247 -0.364416 -0.169370 -0.896029 
0.589763 -0.119422 1.691263 0.843753 -0.108159 -0.325319 
-0.298741 0.677137 2.717462 0.985210 -0.147017 -0.026766 
-0.321620 0.065381 0.331918 -0.543197 -0.192557 0.810558 
-0.430305 0.109346 2.136724 0.816483 -0.405545 -0.395625 
0.496135 -0.687106 0.399185 0.791965 0.031461 -0.470868 
-0.692720 -0.166221 0.552670 -0.942039 -0.001759 -0.252754 
0.475314 0.566438 1.012592 -0.899914 -0.349803 0.249031 
0.543860 -0.085533 0.479179 -0.689750 -0.210191 0.512701 
0.451947 -0.989827 0.295364 -0.607262 -0.209776 0.671148 
-0.604920 -0.706835 0.627339 0.797148 -0.051740 0.443041 
0.691719 -0.429314 0.879944 -0.933833 -0.200255 0.154419 
-0.039839 0.312326 -0.215010 -0.436193 0.055300 -0.896261 
-0.538094 0.035062 2.007376 -0.833518 0.406290 0.368440 
0.497782 0.287842 1.403796 -0.955465 -0.176285 0.157715 
-0.573414 0.841985 1.337458 -0.884006 -0.158033 0.359865 
-0.421271 0.669030 0.079302 -0.695273 0.518969 -0.325697 
-0.745758 -0.027835 0.943406 -0.979905 0.055943 -0.007970 
0.580942 0.075984 1.674809 -0.992524 -0.086681 -0.004714 
-0.592438 0.262533 0.578855 0.740485 -0.431149 0.443121 
0.644042 0.158373 1.816990 0.986753 0.069374 -0.068975 
-0.098708 0.264187 -0.189235 -0.445074 0.028012 -0.891916 
0.067138 1.326981 0.131714 0.607787 0.541797 -0.491384 
-0.562885 1.005484 1.146654 -0.622192 0.444939 -0.470583 
-0.160881 0.461184 0.492039 -0.387702 0.057361 0.918537 
-0.643151 0.221585 1.048161 0.961313 -0.202394 0.047887 
-0.311769 0.496522 2.716983 0.989153 -0.124213 0.018452 
-0.139003 1.230456 0.152268 -0.739048 0.566532 -0.328808 
-0.353288 0.539385 2.025991 0.991217 0.088733 -0.027062 
0.219291 0.369057 0.453391 0.394898 -0.018808 0.910076 
0.558995 0.326263 1.589204 0.884498 -0.007377 -0.354493 
0.823494 0.415807 2.357102 -0.836574 -0.072707 0.532790 
0.098382 1.143256 0.441579 -0.296525 0.395638 0.844676 
0.499151 0.261810 0.649153 -0.926442 -0.088537 0.156456 
0.503510 0.591352 1.654831 -0.917384 -0.176722 0.251557 
-0.152197 1.159733 0.487954 0.439320 0.370456 0.774339 
-0.489974 0.228768 1.694887 0.922199 -0.208076 0.216336 
0.709178 -0.496406 0.892165 0.928512 0.175408 -0.148550 
-0.004663 1.150650 0.021825 -0.340935 0.372458 -0.858025 
-0.598129 -0.003895 1.462564 0.750466 -0.287221 -0.081201 
0.186856 1.082650 0.066220 0.637829 0.416266 -0.617472 
-0.335558 0.636774 0.344749 -0.577231 0.090611 0.740645 
-0.763183 -0.649653 1.124501 0.957544 0.025694 0.194974 
-0.320179 0.759396 2.603616 -0.989379 0.007657 0.037856 
0.533885 0.147695 0.527025 -0.753440 -0.299023 0.443858 
-0.608145 -0.644389 0.580596 0.800163 -0.064072 0.437992 
-0.800421 -0.517443 1.586775 -0.527340 0.324585 -0.361947 
0.882247 0.780062 2.617809 -0.896397 -0.224158 0.377263 
0.222540 1.120233 0.198460 0.867235 0.458694 -0.140952 
-0.537199 0.054624 0.325424 0.507216 -0.306052 0.690440 
0.436238 0.683372 1.042900 -0.956595 -0.215617 0.066216 
-0.325684 0.406179 0.339377 -0.311126 -0.062136 0.939880 
-0.379252 0.088503 2.708712 -0.975844 0.146906 -0.036392 
-0.532154 -0.245819 0.305362 0.442187 -0.174266 0.712094 
0.509070 0.271172 1.258320 -0.952457 -0.200878 0.167184 
-0.800019 -0.517350 1.130336 -0.990437 -0.037079 -0.108711 
0.729287 0.234800 2.060005 0.934630 0.072588 -0.322208 
-0.384998 0.878197 2.095893 0.989020 -0.085667 0.013812 
0.215259 0.861405 -0.044704 0.572344 0.465731 -0.666744 
-0.662031 0.677146 0.954406 -0.971358 0.190492 -0.071534 
0.757906 0.789489 2.303874 0.926017 0.098498 -0.364027 
-0.522560 0.143876 1.702780 0.893775 -0.241185 0.309040 
-0.435784 -1.018117 0.202483 -0.672097 0.129378 -0.628340 
-0.520839 0.608577 1.437485 0.913268 -0.284042 -0.151669 
0.609399 -0.349736 1.845072 -0.938006 0.021027 0.289635 
-0.224526 0.741779 0.400758 -0.445108 0.210633 0.846112 
-0.510977 0.621328 0.228633 -0.814597 0.562671 -0.113735 
0.449001 1.179528 1.519640 0.974511 0.051176 -0.211985 
0.511515 0.299150 1.173324 -0.943731 -0.227646 0.182388 
-0.620487 0.696954 0.871895 -0.887146 0.296959 -0.326628 
-0.361329 0.567727 -0.049494 -0.591066 0.145049 -0.713907 
1.165971 0.108224 2.905264 0.875385 0.200664 -0.439800 
0.438569 0.661972 1.425724 -0.899115 -0.295769 0.235108 
-0.397449 0.372278 1.993224 -0.912692 0.219256 0.297901 
-0.358255 0.197010 2.672447 -0.982981 0.115250 -0.032627 
-0.334417 -0.733072 0.009431 -0.731819 -0.074915 -0.658097 
-0.288578 -0.030064 0.329358 -0.509047 -0.226526 0.819408 
0.447375 0.640413 0.461598 0.830687 0.523287 0.173513 
0.661279 -0.651672 0.815619 -0.840221 -0.242496 0.266026 
0.672366 0.435116 1.957534 0.943102 0.132846 -0.282988 
-0.086411 0.692594 0.430837 -0.076746 0.152224 0.975230 
0.389092 -0.890345 0.141379 -0.548835 -0.136618 0.779826 
0.432471 0.495792 0.468981 -0.933044 0.138194 0.278392 
-0.553633 1.068841 1.424674 -0.852493 -0.267647 0.402165 
0.186556 0.516730 -0.140975 0.442528 0.014369 -0.886661 
0.377127 -1.117610 0.080890 0.613955 0.127577 -0.693713 
-0.004830 -1.057395 -0.060385 -0.616277 -0.448858 0.630742 
-0.390731 0.405509 0.309033 -0.050963 -0.175468 0.892714 
0.133168 1.047756 0.024707 0.512718 0.420276 -0.723619 
0.384805 1.198902 1.426032 -0.634575 0.372120 -0.608760 
0.599627 -0.831406 0.680644 0.794791 0.171543 -0.357570 
-0.551842 0.298280 0.409445 0.607751 -0.431262 0.609514 
0.496237 0.711705 1.106239 0.972550 -0.027965 0.194662 
0.233826 -1.259219 -0.010256 0.020264 0.051345 -0.966234 
0.513362 -0.105845 0.390842 -0.599834 -0.216023 0.613252 
-0.581420 -0.644365 0.487660 0.773037 -0.079346 0.479882 
-0.219993 -0.923023 0.053577 0.355037 -0.256126 0.839513 
-0.490636 0.217937 1.833456 -0.856862 0.341084 0.381068 
-0.317470 0.846133 0.126774 -0.878558 0.397793 -0.213058 
0.608831 -0.092417 0.667186 -0.874037 -0.186116 0.293729 
0.610831 -0.213051 1.778562 0.868386 -0.092609 -0.414122 
-0.568631 0.952895 1.085323 0.683751 0.264995 -0.358067 
0.476787 0.551819 0.521502 0.813460 0.545413 0.090199 
-0.538274 -0.705874 0.394739 0.729500 -0.090032 0.547507 
0.227467 -0.648359 -0.047790 -0.079166 -0.218016 -0.960216 
-0.528109 0.466604 1.436482 0.915990 -0.264828 -0.185289 
-0.651871 -0.569429 0.663051 0.844233 -0.056108 0.369460 
-0.330451 0.465387 2.218186 -0.985558 0.005131 0.132194 
0.534036 0.287847 0.964919 -0.931583 -0.266535 0.206842 
-0.627843 0.829490 1.078271 -0.828158 0.302869 -0.225859 
0.109256 0.844469 0.446634 0.255322 -0.174835 0.945330 
-0.121873 0.556790 0.484536 -0.329306 0.102034 0.929265 
0.558476 -0.052817 1.400811 -0.950869 -0.118870 0.004361 
-0.339800 -0.843012 0.025996 -0.699086 -0.062816 -0.692979 
0.831013 0.942249 2.541327 0.891210 0.343332 -0.273971 
0.080230 -0.957004 -0.090497 0.272216 0.223550 -0.907774 
-0.551964 0.878545 1.117976 0.687532 0.236506 -0.406336 
-0.094980 -0.630756 0.181526 -0.214700 -0.358937 0.904081 
0.954679 0.114087 2.482204 -0.810673 -0.100776 0.569949 
-0.596314 0.479237 0.424935 -0.846734 0.465137 -0.131211 
0.482608 0.647726 0.242314 0.827512 0.512649 -0.081763 
0.769729 -0.646008 1.290818 0.850670 0.325844 0.217963 
0.555930 0.131661 0.675151 -0.878886 -0.322377 0.229795 
0.852777 -0.746106 1.303034 -0.908783 -0.405886 0.001712 
-0.408541 -0.090291 2.741366 0.967813 -0.170234 0.065761 
0.574593 0.444814 1.767805 -0.853939 -0.061454 0.505662 
0.484726 -1.090515 0.155581 0.618620 0.416248 -0.590233 
-0.269956 -0.159202 -0.106569 -0.493354 -0.131356 -0.854113 
-0.415266 0.143757 3.013947 -0.977853 0.115561 -0.159658 
-0.247906 -1.255308 0.051859 0.209562 -0.007473 0.970912 
-0.711069 -0.382771 2.029825 0.851550 -0.446436 -0.206146 
-0.551205 1.419883 1.467333 -0.981880 0.060613 -0.114909 
-0.373455 0.658523 1.976224 0.990186 0.039535 0.000636 
-0.378894 0.162505 2.828471 0.983613 -0.125409 0.099971 
-0.632988 0.676327 1.018781 -0.931090 -0.084746 0.337132 
-0.089840 -0.589898 -0.074595 0.000524 -0.255125 -0.958180 
0.320514 0.783667 0.037621 0.710476 0.517520 -0.390029 
0.683159 1.063466 2.212969 0.862134 0.385357 -0.243308 
-0.481637 1.257854 1.672941 -0.758679 0.483559 0.389855 
-0.465297 0.372768 0.299435 0.496817 -0.368641 0.719969 
0.201594 -0.753962 0.112846 -0.014127 -0.294324 0.874252 
1.068669 -0.092905 2.600248 -0.818138 -0.139555 0.550797 
1.086054 -0.304550 2.534880 -0.802455 -0.130091 0.579911 
0.799954 0.638445 2.375527 -0.875383 -0.132013 0.455095 
-0.779837 0.013477 0.822238 -0.980953 0.003500 -0.023093 
0.371712 0.301446 0.314340 0.176242 -0.193103 0.825154 
0.593068 -0.594936 0.622531 0.855541 0.095356 -0.323228 
-0.229266 0.680290 -0.131271 -0.478399 0.202502 -0.836926 
0.621096 -0.291299 1.265453 0.861923 0.159172 0.235816 
0.774051 -0.083857 2.221114 0.868542 -0.015900 -0.470749 
0.630988 -0.002521 0.890570 0.984048 0.062906 -0.033215 
-0.640636 -0.110180 1.493297 -0.625255 0.252611 -0.364569 
-0.444438 0.215116 3.180267 -0.972703 0.116544 -0.188405 
0.335464 0.819703 0.151115 0.875334 0.444932 -0.119608 
0.597426 0.296217 0.570163 0.969145 0.137482 -0.033892 
-0.426617 0.925511 1.905296 -0.937033 -0.134376 0.272270 
0.471596 0.441226 1.448782 -0.933564 -0.217803 0.186469 
-0.545009 0.043697 1.845694 0.856434 -0.321059 0.156140 
-0.585625 0.607400 1.287984 -0.914431 -0.044078 0.309632 
-0.420464 0.889334 1.778757 0.986800 -0.020529 0.045980 
0.336860 0.793582 0.281026 0.844773 0.343250 0.388768 
0.322704 -1.078965 0.030233 0.619844 -0.017780 -0.758335 
0.399232 0.589243 0.366042 -0.732422 0.211635 0.435065 
-0.487176 -0.399480 0.220107 0.338762 -0.135171 0.806785 
0.336186 -0.852685 0.038356 0.695512 -0.048387 -0.687022 
-0.379641 0.999909 2.106636 0.985879 -0.045589 -0.092336 
-0.575192 -0.997291 0.456656 -0.720140 0.331199 -0.449720 
-0.000274 -0.884042 -0.095460 -0.655475 0.141071 -0.719956 
0.433058 -0.677724 0.212376 -0.524544 -0.141823 0.742135 
-0.342647 0.707473 -0.034136 -0.604096 0.471587 -0.553057 
0.613421 0.249274 0.664068 0.982151 0.125082 0.016252 
0.485095 0.360676 1.429926 -0.945224 -0.195011 0.170975 
0.528290 0.197789 1.406213 0.990228 0.040448 -0.026446 
-0.562870 0.036273 1.669101 0.845146 -0.375943 -0.314113 
-0.367874 -0.017488 2.448112 -0.958133 0.218398 0.138906 
-0.418087 1.058621 1.913932 0.984589 -0.097661 0.011314 
0.297709 0.154288 -0.081450 0.451988 -0.082933 -0.884635 
0.304458 -1.221963 0.051618 0.597243 -0.068448 -0.743408 
0.508124 0.305466 1.478016 0.990577 0.002561 -0.041058 
0.600848 0.091266 0.996454 0.983829 0.057387 -0.002420 
0.590298 0.164108 0.986105 0.981669 0.053949 0.035756 
0.320096 -0.413960 0.195853 0.556551 -0.272256 0.777756 
0.203421 1.004104 0.030819 0.644185 0.406272 -0.645062 
-0.580515 0.562222 0.877450 0.985135 -0.014843 -0.095762 
0.230775 -0.687081 0.127112 0.147296 -0.281141 0.878403 
0.585643 -0.055817 1.165945 -0.984337 -0.110349 0.126342 
0.431459 1.127423 1.371110 0.697065 0.420510 -0.279933 
-0.196999 -0.648686 -0.050716 -0.045321 -0.204293 -0.970574 
-0.483060 0.075938 0.080269 -0.813921 0.019776 -0.552126 
0.611880 0.137943 0.815295 0.986028 0.063120 0.017811 
-0.645308 -0.191964 1.881927 0.860240 -0.367304 0.067384 
-0.335453 0.535314 2.245941 0.994255 0.014284 -0.010047 
0.628363 0.268490 1.789761 0.982795 0.124294 -0.035475 
0.018844 -0.758041 0.128924 0.409292 -0.401979 0.812294 
0.628738 0.675572 1.951267 0.912245 -0.006768 -0.353115 
0.158429 0.028819 0.435923 0.340150 -0.266643 0.897236 
0.530482 -0.524064 1.612769 -0.903204 0.105964 -0.158459 
0.738248 0.533653 2.209090 -0.865430 -0.026383 0.495706 
0.940673 0.069120 2.425192 0.881032 0.231975 -0.364639 
-0.601197 0.578469 0.950781 0.948329 -0.272411 0.157388 
-0.388251 0.784934 2.007463 0.990250 -0.041983 0.036942 
-0.753589 -0.403789 1.695254 0.756512 -0.377271 -0.015192 
0.111711 -0.023818 0.420872 0.232902 -0.294679 0.918239 
0.745901 0.867482 2.297691 0.928703 0.105138 -0.347787 
1.165144 0.298123 2.983958 -0.875683 -0.212796 0.431398 
-0.749078 -0.395723 1.625457 0.624230 -0.361886 0.115973 
-0.154318 0.976153 0.452926 -0.271104 -0.157579 0.926232 
0.925607 0.627147 2.651305 0.886903 0.121056 -0.442531 
0.743113 0.177489 2.107148 0.917524 0.056609 -0.367080 
0.613708 0.127258 0.729035 0.994978 0.074194 -0.030300 
1.190254 0.331292 3.047372 -0.875658 -0.208262 0.433767 
0.377210 0.049127 -0.044562 0.642036 -0.070155 -0.729897 
-0.353441 0.040385 2.389980 -0.959428 0.209019 0.157406 
-0.655852 0.067969 0.395937 -0.883102 0.046318 -0.376702 
-0.798943 -0.076179 0.807011 -0.986291 0.012458 -0.072603 
-0.434064 0.570527 1.727214 -0.914851 0.053808 0.329284 
-0.714114 -0.689705 0.991074 0.907906 0.006753 0.271884 
-0.000164 0.863176 -0.149465 0.406574 0.332707 -0.849709 
-0.677663 0.450405 0.896851 -0.956038 -0.013295 0.191929 
0.520944 0.520641 1.688888 -0.921650 -0.146841 0.291510 
0.369931 -0.344302 0.161780 0.217237 -0.205268 0.847869 
-0.618615 0.392224 0.605154 -0.696017 0.673099 -0.194402 
-0.310666 0.479469 2.464460 0.997424 -0.030742 -0.006966 
-0.104953 -0.325610 0.285479 -0.090606 -0.358096 0.924831 
0.134680 -0.712305 0.144343 0.071870 -0.345662 0.887885 
-0.667442 -0.475024 0.591656 -0.884160 -0.009810 -0.321980 
0.515454 0.352259 0.162404 0.856707 0.089362 -0.409507 
-0.596456 -0.001278 0.315104 -0.873000 0.020555 -0.410214 
-0.208200 -0.826632 -0.021852 -0.121664 -0.103134 -0.982749 
0.605971 -0.174867 0.646112 -0.844324 -0.162814 0.316023 
-0.315384 0.289956 0.360947 -0.438499 -0.092740 0.876520 
0.616095 0.597229 1.881326 0.937737 0.120955 -0.299643 
-0.601596 0.401393 0.798312 0.915943 -0.225908 0.105108 
0.710926 -0.351197 0.920872 0.954159 0.145137 -0.049347 
0.629115 0.141030 1.748861 0.908362 -0.021052 -0.373775 
0.737569 -0.058788 2.104762 0.903533 -0.008570 -0.355448 
0.191575 1.181667 0.283616 0.727580 0.648756 0.004553 
-0.784160 -0.602017 1.320900 0.995123 0.012812 0.072499 
-0.020785 -0.268204 -0.212837 -0.327926 -0.214577 -0.905468 
0.070616 0.889529 -0.098216 0.492991 0.370841 -0.765902 
0.365624 -0.903583 0.074467 -0.471654 -0.141115 0.857354 
-0.480786 0.612097 0.161510 -0.774147 0.454459 -0.267300 
-0.529136 0.007642 2.091151 0.834700 -0.412493 -0.273514 
-0.713061 -0.317647 1.401817 0.223093 -0.312855 0.479003 
-0.440582 -0.379407 2.609401 0.937723 -0.315661 -0.138122 
-0.285355 -0.783572 0.106279 -0.041669 -0.180526 0.901537 
-0.406440 0.936187 2.049554 -0.950117 -0.117907 0.233985 
-0.307624 -1.219278 0.047395 -0.627114 -0.094453 -0.733971 
0.558255 0.003648 1.321755 -0.987515 -0.098349 0.116248 
0.065691 -0.624033 -0.053616 0.104387 -0.171330 -0.966001 
0.544326 0.532137 1.594011 0.863157 -0.054263 -0.366518 
-0.677336 -0.092196 0.578201 0.764719 -0.164379 0.394621 
-0.714439 -0.212405 0.609333 -0.958716 -0.008470 -0.214771 
0.897878 -0.004997 2.373832 -0.873517 -0.138952 0.429683 
-0.511093 0.026281 0.150075 -0.834334 0.012903 -0.505668 
0.473198 0.484786 1.501761 -0.931813 -0.227602 0.169927 
-0.428980 0.352537 1.927300 -0.880660 0.286979 0.350703 
0.748479 0.350818 2.160014 -0.930920 -0.160700 0.315935 
-0.318470 0.870896 2.539078 -0.940153 0.240636 0.220697 
-0.482711 0.987426 1.681260 -0.958866 -0.066418 0.261415 
0.229219 -1.407326 0.020083 -0.679915 -0.613925 0.278837 
-0.371206 -0.732532 0.070934 -0.738505 -0.063740 -0.632676 
0.587663 0.217501 0.941817 0.979296 0.051766 0.069391 
-0.474087 -0.318780 0.195825 0.311086 -0.173063 0.839484 
0.542190 1.052297 1.856880 -0.816726 -0.208519 0.524509 
0.422924 0.845790 1.140556 -0.785546 0.147797 -0.347247 
0.549773 0.125054 1.324165 0.989976 0.052743 -0.035919 
-0.793359 -0.548205 1.208913 -0.992611 -0.030306 -0.067185 
0.448214 0.906068 1.455853 0.962294 -0.132522 0.025933 
0.240797 1.126695 0.537504 0.620970 0.351859 -0.653848 
0.710118 0.850519 2.192030 0.936310 0.084526 -0.319731 
-0.365387 0.157894 -0.051077 -0.534524 -0.049215 -0.816062 
0.256719 0.413830 0.409181 0.334627 -0.044133 0.934815 
-0.348024 0.485159 0.312504 -0.270321 0.031315 0.926328 
-0.309582 0.349493 2.441299 0.993326 -0.020310 0.062382 
0.497717 0.641697 1.598664 -0.926226 -0.290209 0.091755 
0.703225 -0.102327 2.007163 0.929841 -0.015104 -0.266714 
-0.590704 0.347858 0.309520 -0.861168 0.163057 -0.358861 
0.066230 -0.404105 -0.179399 0.294129 -0.296881 -0.898858 
0.515445 0.128881 0.420021 -0.656927 -0.279001 0.591933 
-0.377888 0.489243 3.069314 0.952071 0.054502 0.234551 
-0.526564 0.090107 1.931436 -0.843564 0.386800 0.368091 
0.640589 0.221333 1.872696 -0.792937 -0.002874 0.572925 
-0.376921 -1.084396 0.092069 0.333690 -0.145054 0.757858 
0.229623 1.067368 0.484959 0.331864 -0.665566 0.634860 
0.253934 -0.164196 0.318457 0.489781 -0.260104 0.819861 
0.571722 0.244953 1.607167 0.879667 0.001595 -0.387438 
0.670434 -0.732869 0.838262 0.849596 0.208975 -0.244024 
0.466338 -0.706324 0.327256 -0.672781 -0.133088 0.598124 
0.646804 1.055043 2.069260 0.934036 0.156787 -0.314027 
-0.672144 -0.094719 1.209108 0.972907 -0.142276 -0.044304 
1.047569 0.646538 2.892142 0.876909 0.095707 -0.466587 
0.146776 1.115251 0.359691 0.869994 0.137031 0.006495 
0.156011 0.842807 -0.082924 0.507459 0.428947 -0.731361 
-0.568954 0.910902 1.356852 -0.874629 -0.191387 0.374404 
-0.120608 -0.152118 -0.180664 -0.461259 -0.105110 -0.864452 
-0.045250 -0.991041 -0.092421 -0.293229 0.278696 -0.901075 
-0.250864 0.827538 0.363866 -0.678252 0.120294 0.681645 
0.377183 -0.055066 -0.039983 0.700319 -0.077286 -0.675987 
0.517390 0.379132 1.296258 0.983866 0.017025 0.053432 
-0.670426 0.332793 0.718219 -0.688105 0.654772 -0.284086 
-0.637541 0.059148 1.226057 -0.967405 0.148420 0.119145 
1.007604 0.316185 2.686651 -0.868892 -0.165312 0.458771 
0.882628 0.529157 2.529637 0.899114 0.174586 -0.391019 
-0.578300 0.312291 1.212510 0.952089 -0.251377 -0.037948 
-0.715744 -0.311551 1.471365 -0.397163 0.274378 -0.570167 
-0.799687 -0.392295 1.081867 -0.994530 0.001211 -0.052489 
0.583796 -0.208388 1.694555 0.855543 -0.109688 -0.273502 
-0.305340 0.610868 2.581375 0.991551 -0.083861 -0.040296 
-0.060030 -0.345401 -0.194989 -0.346153 -0.238943 -0.895256 
-0.003928 1.328569 0.254493 -0.231637 0.646394 0.706562 
0.819965 0.347119 2.315280 0.928098 0.268702 -0.251118 
-0.379044 0.708019 2.032800 -0.964588 -0.084940 0.210539 
0.184356 1.178217 0.510100 -0.513376 0.427463 0.693333 
-0.775432 -0.454534 1.598769 -0.580450 0.318912 -0.336531 
-0.536467 0.178220 0.137568 -0.815400 0.052192 -0.536885 
0.218852 -0.916473 0.051781 -0.339015 -0.250694 0.837483 
-0.565260 -0.901279 0.645926 0.751503 -0.056380 0.504483 
0.152290 -0.382051 -0.159109 0.426308 -0.216728 -0.866348 
-0.519166 0.750719 1.500334 -0.921997 -0.121053 0.200719 
0.770335 0.373118 2.223909 -0.934911 -0.219815 0.275898 
0.470029 0.468164 0.877994 -0.949440 -0.252285 0.065487 
0.028084 -0.631083 0.202352 0.341053 -0.358970 0.859587 
0.428602 -1.039140 0.156088 0.640866 0.206415 -0.642568 
0.625285 -0.204559 1.039860 -0.951104 -0.135105 0.036998 
-0.422985 0.034421 2.984563 0.976427 -0.145661 0.156143 
0.433424 0.749038 1.268096 -0.880575 -0.357334 0.266569 
-0.570135 0.246281 1.294006 0.952779 -0.247123 -0.095110 
-0.612695 -0.387816 0.467217 0.675757 -0.099397 0.498790 
-0.395575 0.197187 2.960022 -0.980500 0.096236 -0.149970 
-0.538890 1.258397 1.439667 -0.611441 0.471409 -0.395239 
0.593783 0.050085 0.855730 -0.952051 -0.209314 0.182442 
0.497259 0.350784 0.075254 0.830249 0.064453 -0.501739 
0.580399 0.371395 0.820200 0.983077 0.068155 0.117995 
-0.091208 -0.720215 -0.065827 -0.044766 -0.074115 -0.963685 
1.143002 0.238773 2.913511 0.875839 0.176468 -0.445843 
-0.512940 0.174195 0.285041 0.479812 -0.372733 0.738260 
0.192673 0.448965 0.463774 0.374765 0.019729 0.922004 
0.437479 0.671706 0.088146 0.729295 0.495846 -0.326961 
0.490982 1.199804 1.754962 -0.768341 0.343887 0.458188 
0.416981 -0.270394 0.126523 0.881506 -0.062385 -0.438722 
-0.582838 -0.034536 0.406264 0.583538 -0.241401 0.595587 
-0.031372 -0.821356 -0.066080 -0.258787 0.091876 -0.931236 
0.466951 0.708310 0.890107 0.838395 0.389818 -0.290975 
-0.420752 -0.279525 0.104201 -0.857063 -0.072625 -0.482033 
-0.183108 1.099843 0.075950 -0.637882 0.431200 -0.593782 
-0.712862 -0.551792 0.831436 -0.921349 -0.032921 -0.254299 
-0.500389 0.100292 1.997969 0.855126 -0.366550 -0.179195 
0.164118 0.390934 0.507314 0.410072 0.032969 0.910702 
0.558086 0.393924 0.945738 0.974687 0.043175 0.157388 
-0.433847 0.144604 3.094269 -0.974937 0.124380 -0.173703 
-0.314521 0.586591 -0.108850 -0.539071 0.102194 -0.824329 
0.372401 -1.037873 0.078186 0.631794 0.093760 -0.710976 
0.497585 -0.335132 1.435029 -0.892452 0.042918 -0.282501 
0.493532 0.151916 0.120978 0.840346 0.007282 -0.513072 
-0.559405 0.678047 1.198780 0.942045 -0.299175 0.049461 
-0.321073 0.169684 2.202925 0.771776 -0.403872 -0.489420 
-0.460701 0.246329 3.270072 0.967183 -0.141290 0.199681 
-0.793554 -0.255315 0.870641 0.987377 -0.047016 0.143921 
0.261369 -1.344276 -0.010399 0.015652 0.042521 -0.990354 
-0.370158 0.226960 2.856662 0.981929 -0.145004 0.092295 
-0.525981 -0.112097 0.230208 -0.866458 -0.016638 -0.439313 
1.164686 0.420342 3.034749 -0.877333 -0.217756 0.424410 
-0.576984 0.201242 0.403939 0.614664 -0.350140 0.599679 
0.964695 0.440930 2.658041 -0.884295 -0.170226 0.432773 
-0.154013 1.231908 0.309886 -0.512265 0.801010 0.175179 
-0.304522 0.436035 2.517573 -0.995284 0.057177 0.016611 
0.460898 0.560517 1.301586 -0.910455 -0.287887 0.223890 
-0.487841 0.892392 1.577033 -0.857649 -0.193797 0.325490 
-0.384586 0.808805 2.101879 -0.964106 -0.111894 0.194079 
-0.402864 -0.060326 -0.009765 -0.769473 -0.031834 -0.613136 
-0.517996 0.751212 1.430248 0.919098 -0.307977 -0.094496 
0.522554 0.194958 0.657209 -0.852664 -0.375391 0.262869 
0.429718 -0.827953 0.250230 -0.644254 -0.132462 0.663310 
-0.395341 -0.161470 0.012842 -0.824680 -0.049511 -0.551328 
0.641835 -0.435372 0.757048 -0.904746 -0.166814 0.228809 
0.385946 1.057580 1.486542 -0.800284 -0.276223 0.459641 
0.252327 1.048302 0.261424 0.903904 0.382790 0.072318 
-0.670630 0.092160 1.040678 0.967362 -0.169944 0.033901 
0.077741 0.958009 -0.053177 0.465317 0.482145 -0.722138 
-0.325190 0.842698 0.221573 -0.901601 0.329027 0.117123 
0.340124 -0.582432 0.112264 0.040156 -0.206078 0.904369 
0.572429 -0.577944 1.752892 -0.925144 0.078997 0.075888 
-0.473997 0.567055 0.526804 0.933222 -0.009284 0.324195 
0.428598 0.476913 0.024011 0.702378 0.086214 -0.583599 
0.504544 0.459606 1.564948 -0.946383 -0.223644 0.100431 
-0.612512 -0.764898 0.707621 0.805095 -0.034223 0.431134 
0.517852 -0.408160 1.540875 0.858530 -0.146090 0.118248 
-0.567058 0.638093 0.922560 0.977819 -0.025782 -0.156804 
0.348162 0.485226 -0.083555 0.549391 -0.024442 -0.816839 
0.485676 0.723129 1.198083 0.975137 -0.046718 0.155032 
-0.383625 0.902326 2.167138 -0.963783 -0.091965 0.200481 
-0.809489 -0.543587 1.517989 0.374785 -0.333816 0.485317 
-0.475989 -0.470341 0.228186 -0.837417 -0.056702 -0.468816 
0.584173 0.190982 1.767742 -0.866824 -0.043273 0.413415 
-0.489148 0.354989 0.382463 0.656175 -0.381400 0.602066 
0.664616 -0.264168 1.939041 0.944798 -0.030687 -0.251331 
0.222445 0.046513 0.396699 0.452092 -0.229978 0.848392 
0.801120 0.215467 2.260083 -0.919574 -0.158522 0.336665 
0.709739 0.160273 2.046168 -0.846668 -0.023139 0.491745 
0.631896 -0.689227 0.744889 -0.811296 -0.232536 0.320136 
0.420778 0.759457 1.105783 -0.962115 -0.195919 0.051420 
0.316532 -1.153951 0.044014 0.608005 -0.035251 -0.747041 
-0.592244 1.102499 1.318624 -0.911056 0.224146 -0.043752 
-0.554723 -0.036795 2.044628 0.830914 -0.402455 -0.147414 
0.620553 0.336219 1.777756 0.979653 0.157197 -0.019983 
-0.378116 0.252325 -0.041878 -0.523666 -0.031789 -0.822694 
0.464972 0.603988 1.097700 -0.897023 -0.344595 0.249946 
0.965619 0.002521 2.432311 0.854036 0.179732 -0.455742 
-0.373133 -0.037889 2.344840 0.825535 -0.382981 -0.367743 
-0.603278 0.544172 0.789714 0.954609 0.046676 0.005368 
0.532648 0.039818 0.459878 -0.685696 -0.248409 0.541441 
0.215744 0.588893 -0.131503 0.439381 0.073936 -0.875529 
-0.276506 -0.841295 -0.020057 -0.125804 -0.146858 -0.922237 
-0.525745 0.384262 0.555803 0.913814 0.004104 0.273033 
0.605875 -0.478678 0.670353 -0.870268 -0.153863 0.294228 
-0.347353 0.688619 2.258739 -0.987367 -0.086636 0.129468 
-0.601606 0.185806 1.217582 0.957613 -0.221706 -0.059061 
0.485556 0.061593 0.143329 0.852676 -0.003372 -0.487215 
0.792467 0.295468 2.242803 -0.931778 -0.188734 0.302990 
-0.768225 -0.341547 1.125155 0.990983 -0.050264 0.060232 
-0.233125 1.080751 0.285809 -0.879989 0.439875 0.113365 
0.450698 1.237562 1.648292 -0.728431 0.452323 0.470025 
-0.419684 0.410242 1.625328 0.959378 -0.156297 -0.146912 
-0.522068 0.367167 0.086971 -0.792522 0.135801 -0.540509 
0.508125 0.348493 1.543069 -0.958457 -0.182925 0.107085 
0.167582 0.527009 0.467951 0.377413 0.058184 0.920647 
-0.545447 0.500909 0.492635 -0.721531 0.657786 -0.096654 
0.834517 -0.689671 1.245520 0.924409 0.352574 -0.001805 
-0.367457 0.723238 0.037835 -0.590081 0.671913 -0.306518 
-0.642705 0.306506 0.462528 -0.908931 0.139477 -0.267071 
-0.537488 -0.160309 0.318249 0.468602 -0.209661 0.697555 
0.651210 -0.407865 1.098723 -0.846052 -0.207461 -0.257639 
-0.155370 0.381108 -0.142700 -0.399851 0.010803 -0.913270 
-0.297690 0.743390 2.761453 0.940124 0.243090 0.208604 
-0.580168 0.273034 0.497680 0.681241 -0.422066 0.518449 
-0.710836 0.137827 0.840458 0.961343 -0.175697 0.164795 
0.449542 0.614711 1.483895 -0.910149 -0.271856 0.207418 
-0.382803 0.497910 1.895756 0.935411 -0.111070 -0.288188 
0.618805 -0.758585 0.715160 0.821999 0.168022 -0.318391 
0.083242 0.355217 -0.184174 0.423054 0.037519 -0.902017 
-0.101582 1.221437 0.367704 0.005013 0.815652 0.533276 
-0.212902 -0.482389 -0.094861 -0.192468 -0.286999 -0.887113 
-0.373032 -0.000476 2.521353 -0.962175 0.202499 0.092157 
0.483158 -0.046360 0.188025 0.870408 -0.012496 -0.447853 
-0.361506 0.438883 2.964988 0.978137 -0.161125 0.083639 
0.324034 -0.248155 0.241006 0.588026 -0.242470 0.767318 
0.488910 0.113802 0.343423 -0.579263 -0.284780 0.679255 
-0.276632 0.218176 0.402988 -0.502501 -0.103860 0.846175 
-0.247546 -0.234207 0.292991 -0.443887 -0.285971 0.830100 
0.708017 0.916058 2.245644 -0.878365 -0.187949 0.424313 
-0.554073 0.138317 0.359495 0.556711 -0.334380 0.651172 
0.045792 0.957318 0.477906 0.183653 -0.059357 0.974292 
0.697742 0.347904 2.030465 -0.918424 -0.080508 0.383291 
0.372154 -0.394429 0.061499 0.867677 -0.087777 -0.468204 
-0.014167 -0.738134 -0.060650 -0.420342 -0.006875 -0.860866 
0.537819 0.289011 0.881783 -0.925424 -0.296045 0.206051 
0.308286 0.054124 -0.078486 0.464309 -0.107360 -0.875548 
0.696028 0.150972 1.960731 0.957949 0.049813 -0.219714 
-0.358052 0.313956 2.858723 -0.985681 0.058377 -0.128610 
0.561671 -0.396705 1.672420 0.876255 -0.118881 -0.114059 
0.186591 -0.071378 -0.149636 0.490610 -0.077998 -0.859207 
0.255648 0.482766 0.392627 0.317608 -0.029046 0.940672 
1.099003 -0.065348 2.675709 0.848056 0.179613 -0.481045 
0.670139 -0.371441 1.993228 -0.846889 0.056367 0.488911 
-0.537165 0.583149 0.279873 -0.818429 0.554258 -0.128082 
-0.550925 0.292635 0.149365 -0.809972 0.085492 -0.541269 
-0.455202 0.141607 3.184303 -0.971618 0.135245 -0.189464 
-0.629647 -0.207649 0.454487 -0.925211 -0.021697 -0.300289 
0.471600 -0.017901 0.281362 -0.501985 -0.255450 0.743771 
0.055845 0.166208 -0.215281 0.469893 0.026896 -0.876881 
-0.228961 0.298108 -0.116836 -0.423654 -0.019873 -0.902867 
0.469561 0.731144 1.349598 0.979587 -0.075109 0.087853 
1.108307 -0.242105 2.599267 0.815268 0.144150 -0.555143 
0.592475 -0.485564 1.797326 -0.944345 0.044240 0.121972 
0.563345 0.070514 1.126404 -0.967163 -0.160728 0.151604 
-0.608202 0.010900 1.391001 -0.794817 0.215200 -0.013239 
-0.246678 -1.296597 -0.003183 0.100816 0.004596 -0.986363 
0.152565 -1.169607 -0.105176 0.469385 0.143646 -0.768146 
0.601727 -0.216158 1.256814 -0.903622 -0.159159 -0.113043 
0.824212 0.742385 2.456958 0.909900 0.133346 -0.390720 
-0.760735 -0.487619 0.926905 -0.956075 -0.029946 -0.191022 
0.330610 0.592825 0.346521 0.502731 -0.046396 0.819879 
0.144461 0.914387 -0.042062 0.573620 0.421901 -0.675748 
0.374370 -0.247453 0.008334 0.859627 -0.082256 -0.498210 
0.104224 -0.016943 -0.192429 0.482390 -0.037289 -0.864026 
-0.466746 0.300120 1.662673 0.951114 -0.167141 0.178901 
-0.372769 -0.656978 0.068353 -0.761933 -0.070449 -0.605094 
-0.092037 -0.522399 0.218255 -0.132050 -0.306769 0.936006 
-0.621170 0.756123 1.078287 -0.916890 -0.122428 0.352303 
0.529700 0.855113 1.760262 -0.840858 -0.347498 0.353095 
0.100014 1.006297 0.474860 0.175790 -0.143243 0.968977 
-0.447038 0.271119 1.955828 -0.861085 0.355899 0.363072 
0.251260 0.108770 0.389167 0.496080 -0.201446 0.829552 
0.477139 -0.893958 0.388862 0.728904 0.074837 -0.534285 
-0.559117 0.696265 1.416614 -0.896473 -0.085442 0.312982 
-0.330895 0.297800 2.567181 0.991100 -0.053565 0.067811 
-0.296540 0.671223 -0.117798 -0.549414 0.210736 -0.802494 
0.997420 0.453170 2.724821 -0.884170 -0.199164 0.419290 
-0.571140 0.071738 1.605908 -0.947723 0.250699 -0.115293 
-0.302975 0.778957 2.689217 0.949342 0.222633 0.150350 
0.652541 -0.308524 0.950540 -0.920579 -0.160966 -0.039183 
0.059166 0.453572 0.503364 0.181840 0.085176 0.959359 
-0.008819 0.183417 0.498822 -0.110426 -0.183733 0.964180 
0.790799 0.776399 2.401926 -0.888272 -0.175531 0.416248 
-0.487852 0.294124 1.590947 0.792382 -0.232656 -0.536254 
-0.571228 -0.092009 2.105001 0.818422 -0.431537 -0.212719 
0.475310 0.565185 0.877726 -0.973849 0.000788 -0.186362 
0.454090 0.935207 1.257930 0.973398 -0.107074 0.163240 
-0.141263 0.740003 0.408751 -0.169165 0.090617 0.965728 
-0.574535 -1.051203 0.345186 -0.673429 0.505767 -0.459873 
0.303721 -0.431797 -0.056632 0.689728 -0.134879 -0.668989 
-0.734380 0.129200 0.906633 -0.972184 0.013764 0.062517 
-0.148986 -1.049610 -0.057673 0.349069 -0.430516 0.807378 
0.587449 1.089720 2.020800 -0.908392 -0.068745 0.407326 
0.596615 0.135581 0.614071 0.963229 0.064321 -0.130377 
-0.204316 -1.088739 -0.034269 -0.222406 0.042676 -0.908247 
0.343142 -0.188303 -0.054882 0.679114 -0.106761 -0.689282 
-0.356856 0.270818 2.789126 0.985586 -0.123748 0.073019 
-0.707767 -0.372230 0.674368 0.900149 -0.068938 0.281864 
0.794980 0.709014 2.377993 -0.871203 -0.173093 0.451168 
1.007688 0.097505 2.577279 0.882660 0.226173 -0.379933 
-0.520970 0.279867 0.070456 -0.790018 0.073143 -0.590178 
-0.316970 -1.135070 0.053840 -0.011331 0.032214 0.796109 
0.559816 0.321993 0.733695 0.761850 0.595944 -0.202885 
-0.092165 1.117854 0.034105 -0.427581 0.444279 -0.774446 
-0.394018 0.091861 2.862980 0.981836 -0.130021 0.118983 
-0.617556 0.029918 1.319886 -0.966598 0.165923 0.147660 
0.631939 -0.474745 1.371567 0.750315 0.240923 0.533779 
0.540918 1.147259 1.790638 0.945354 0.156633 -0.276000 
-0.585328 -0.294104 0.401544 0.541250 -0.123833 0.599579 
-0.695017 -0.252315 1.346682 0.342548 -0.271443 0.449305 
-0.497682 0.352917 1.555323 -0.990694 0.068074 0.009790 
-0.543337 0.514709 0.245570 -0.838180 0.398358 -0.220908 
0.054156 0.426693 -0.187695 0.396002 0.049938 -0.914028 
-0.409475 -0.484158 0.080500 0.199216 -0.150650 0.960959 
-0.777620 -0.471627 1.271683 -0.996853 0.012906 0.029870 
-0.345533 0.938384 2.364699 -0.953110 0.152401 0.222970 
-0.427037 -0.377148 0.107098 0.204997 -0.172424 0.942676 
0.661991 -0.259202 0.798229 -0.976771 -0.130553 0.146146 
-0.783841 -0.479378 1.515894 -0.405894 0.305167 -0.493788 
0.501300 -0.265902 1.440806 0.916921 -0.049749 0.218102 
0.593185 -0.909229 0.648545 -0.712637 -0.278716 0.442046 
0.015260 0.376059 -0.217043 0.417743 0.065968 -0.904034 
0.631022 -0.821725 0.749194 -0.764854 -0.269881 0.361529 
0.480641 0.540923 0.630550 -0.968620 -0.080686 0.110223 
0.295351 -0.362529 -0.079086 0.637150 -0.148030 -0.721268 
0.555336 -0.208849 0.499426 -0.694985 -0.172427 0.482979 
-0.501385 -0.180367 0.251053 0.391708 -0.220244 0.775848 
-0.611471 0.858226 1.150277 -0.924559 -0.084524 0.310098 
-0.726981 -0.824385 1.041240 -0.902216 0.060956 -0.229244 
0.323069 0.127184 0.336054 0.600610 -0.160415 0.778704 
-0.320081 0.638381 2.445894 0.993401 -0.053366 -0.050130 
1.210591 0.251481 3.053614 -0.874206 -0.200353 0.441717 
-0.386474 -0.001430 2.658118 0.974684 -0.111458 0.109629 
0.554110 0.221378 0.410851 0.911513 0.047603 -0.277115 
1.199037 0.519668 3.140635 0.878979 0.152963 -0.447192 
-0.359980 0.067962 2.491196 -0.965272 0.185793 0.091740 
0.526570 0.255905 0.733881 -0.948526 -0.001026 0.051614 
-0.417598 0.726795 1.862404 -0.973575 -0.059647 0.201402 
0.487314 0.279445 0.045360 0.815596 0.013482 -0.570305 
-0.329234 0.536171 2.869640 -0.988117 0.001928 -0.132534 
-0.465332 0.499886 0.078894 -0.727278 0.248819 -0.472584 
0.387309 0.607548 0.281991 0.153006 0.392035 0.808701 
0.852665 0.408869 2.420935 -0.836741 -0.095268 0.527565 
0.222606 -0.579320 0.168970 0.307554 -0.302501 0.898718 
-0.697991 -0.177667 1.208473 0.978386 -0.114755 -0.020245 
0.178250 -0.043144 0.398602 0.358201 -0.272180 0.882510 
-0.627599 0.300654 1.048421 0.957752 -0.221508 0.059022 
0.611553 0.090765 0.919972 0.982198 0.058112 0.009106 
0.419918 0.378804 0.445963 -0.856115 -0.143823 0.390699 
0.613483 -0.651888 0.683098 0.848463 0.131423 -0.306083 
0.084796 -1.169910 -0.164379 0.029627 -0.620990 0.346389 
0.763742 0.717941 2.304723 -0.863825 -0.160315 0.466410 
-0.687264 -0.246377 1.684349 0.780432 -0.379137 -0.157768 
0.531045 0.374766 1.164945 0.979966 0.041023 0.112083 
0.964354 0.635804 2.726986 0.881484 0.103300 -0.456526 
-0.299796 -1.331009 0.043012 -0.391653 0.005939 0.676635 
0.512892 0.276835 0.178553 0.849756 0.028053 -0.462935 
-0.634873 0.154537 0.351475 -0.868062 0.066928 -0.408382 
0.577675 0.251956 0.485859 0.935828 0.066825 -0.161159 
-0.476931 -0.636583 0.241195 -0.786644 -0.040604 -0.526497 
-0.065210 0.374811 0.518668 -0.210228 0.025862 0.961615 
-0.320968 0.537944 0.347706 -0.440187 -0.035408 0.863342 
0.650639 -0.132169 1.897934 -0.745362 0.065716 0.633590 
-0.400315 -0.113913 2.393023 -0.945692 0.259164 0.149745 
0.750501 -0.241225 2.176261 0.874082 -0.046290 -0.446114 
0.917888 0.454418 2.566501 0.897842 0.186409 -0.386753 
-0.317358 0.355868 2.524486 0.993654 -0.043398 0.048263 
0.464302 1.003825 1.695600 -0.896566 -0.157059 0.404667 
0.594662 -0.363801 1.765570 0.885655 -0.099000 -0.294569 
0.655683 -0.144545 0.692177 0.967782 0.068195 -0.178869 
0.634727 0.007085 0.730810 0.988026 0.073107 -0.079700 
-0.716308 -0.260008 1.239269 0.983147 -0.091309 -0.008979 
-0.690782 -0.465687 0.661993 -0.901767 -0.012494 -0.289911 
-0.358968 0.710902 2.191915 -0.979639 -0.090670 0.154814 
-0.702563 -0.754402 1.015545 -0.919697 -0.069133 -0.257424 
-0.337366 0.848393 2.427146 -0.986933 -0.003380 0.140307 
-0.513894 -0.882441 0.473847 0.705487 -0.063880 0.585703 
0.458917 -0.117205 0.160224 0.872526 -0.029948 -0.448894 
-0.438557 1.036844 1.641608 0.980001 -0.035205 -0.112471 
-0.258939 -0.601346 -0.056671 -0.101563 -0.216482 -0.895518 
0.571552 -0.126256 1.390412 -0.919071 -0.142053 -0.082320 
-0.567785 0.525544 0.335184 -0.865445 0.437384 -0.125826 
-0.629322 -0.194897 2.043959 -0.828662 0.436114 0.323949 
-0.315919 0.827727 2.593933 -0.940249 0.241694 0.199334 
-0.523061 0.305154 0.308374 0.524228 -0.425884 0.711800 
0.453401 1.059868 1.331133 0.958406 0.210876 0.036048 
0.671129 -0.161605 1.957621 -0.764477 0.061162 0.612029 
0.323114 0.220147 0.344965 0.550944 -0.127320 0.809203 
-0.158629 -0.743139 0.128635 -0.010509 -0.324042 0.881575 
-0.347833 0.152218 2.512919 0.984611 -0.034627 0.138796 
1.069480 0.479206 2.872397 -0.879906 -0.242280 0.404991 
0.206044 -0.279424 -0.143445 0.508087 -0.134766 -0.843153 
0.459887 1.225441 1.578688 0.950801 0.180477 -0.249617 
0.238644 1.003601 0.102151 0.762837 0.382697 -0.429861 
-0.644393 -0.902283 0.756322 -0.817125 0.155224 -0.346405 
-0.084611 0.444322 0.503493 -0.229122 0.084241 0.949087 
0.157183 1.206069 0.444472 -0.363163 0.717650 0.510887 
-0.323670 -0.610134 0.120184 -0.114581 -0.205664 0.901570 
-0.289685 0.952414 0.212035 -0.920333 0.348661 -0.025260 
-0.539037 0.310900 0.579682 0.818139 -0.371076 0.402891 
0.477916 0.527450 1.077564 -0.908029 -0.323399 0.235406 
-0.403637 0.793601 1.826667 0.987737 0.016241 0.024375 
-0.438987 0.066650 0.004834 -0.787792 0.008494 -0.601309 
0.584777 0.220894 0.546931 0.950168 0.063847 -0.131954 
0.607743 0.015799 1.716143 0.855956 -0.074926 -0.451625 
-0.690253 0.231115 0.874367 0.965290 -0.178847 0.154122 
0.517222 -0.881433 0.485752 0.748335 0.108835 -0.477909 
0.952484 0.374618 2.604255 -0.863160 -0.147075 0.472467 
-0.659717 0.331644 0.535160 -0.930699 0.195762 -0.170726 
0.748290 0.283514 2.140075 -0.923509 -0.108643 0.357960 
-0.506323 0.247491 0.275485 0.479756 -0.409137 0.749840 
-0.142133 -0.563701 0.195467 -0.188347 -0.339954 0.918612 
0.585034 0.498543 1.726651 0.972855 0.144524 -0.015898 
-0.499644 0.163098 1.907358 -0.852548 0.370233 0.366545 
-0.378617 0.349677 2.984327 0.977245 -0.157081 0.103771 
0.741440 -0.174937 2.133768 0.889175 -0.034397 -0.392835 
0.228349 0.095669 -0.121627 0.465281 -0.063655 -0.876543 
-0.570543 -0.231879 0.376549 0.522604 -0.159705 0.629108 
-0.041653 0.566894 -0.182464 -0.343313 0.072625 -0.931205 
0.645525 0.364780 1.845815 0.967418 0.157554 -0.092276 
0.767482 0.537268 2.277233 -0.868776 -0.051115 0.484799 
0.481302 -0.825579 0.387041 0.748901 0.058507 -0.516177 
0.502828 0.486689 0.704974 0.910658 0.356358 -0.137698 
-0.318455 -0.707373 0.117713 -0.033386 -0.196897 0.878917 
-0.499143 1.102572 1.324452 0.980635 -0.007228 -0.114893 
0.588423 -0.153920 1.284587 -0.926888 -0.141280 -0.051407 
-0.758109 -0.243369 0.730904 0.949411 -0.069223 0.203657 
-0.745469 -0.095874 0.907961 0.979968 -0.102703 0.086823 
0.719193 -0.628800 1.353297 0.781898 0.315325 0.420213 
0.657070 -0.574479 1.376397 -0.732779 -0.292749 -0.587272 
-0.370103 0.789346 2.178270 0.991303 -0.080854 0.019540 
0.323681 0.310077 -0.062525 0.429410 -0.063793 -0.900326 
-0.585070 -0.776524 0.623004 0.777290 -0.047261 0.474147 
-0.519868 1.034289 1.355000 0.930306 -0.352210 0.047820 
-0.557917 0.691159 0.974382 0.985779 -0.049343 -0.126180 
0.212790 -0.120666 0.354176 0.412016 -0.271513 0.854309 
0.498259 -0.048245 0.353809 -0.570081 -0.237288 0.658854 
-0.439350 1.086281 1.802408 0.985077 -0.112150 0.062947 
0.582033 -0.087201 1.330108 0.948215 0.092530 0.019238 
0.751716 0.137319 2.164083 -0.894639 -0.050334 0.426352 
0.525880 0.295683 0.813987 -0.914407 -0.354543 0.187161 
-0.613276 0.168543 0.280246 -0.847319 0.062572 -0.456623 
0.176703 1.219402 0.366788 0.886263 -0.359294 0.060384 
-0.347648 0.638432 -0.067201 -0.601206 0.225256 -0.712782 
0.361300 -0.499040 0.106328 0.008565 -0.199481 0.925124 
0.416635 0.581062 0.035187 0.699068 0.201654 -0.536965 
-0.314208 0.209268 2.270259 0.986952 0.030955 0.145991 
-0.768324 -0.146075 0.865452 0.983711 -0.082919 0.108396 
-0.481145 1.237217 1.521049 0.987440 -0.087682 0.051561 
0.518049 0.352075 0.992839 -0.925952 -0.282316 0.213632 
0.864471 -0.162997 2.351994 -0.840608 -0.038541 0.519566 
0.543407 0.006207 0.315182 0.886587 0.021830 -0.396974 
0.012859 0.252572 0.512830 0.117584 -0.105693 0.975699 
0.068422 1.023591 -0.012724 0.403432 0.459558 -0.767229 
-0.161683 0.172133 0.475563 -0.362190 -0.172988 0.904616 
0.420783 0.788011 1.392364 -0.878773 -0.344474 0.264549 
0.315899 -0.095341 -0.079942 0.542377 -0.117937 -0.813946 
-0.331304 0.353048 2.126808 0.989267 0.086747 0.040394 
-0.128339 0.016291 -0.179603 -0.481953 -0.035541 -0.865895 
-0.728144 -0.313499 1.283235 -0.987409 0.060537 0.065406 
0.790072 0.954830 2.483219 -0.901313 -0.031705 0.428423 
0.674104 -0.541903 0.841936 -0.885242 -0.220090 0.214133 
-0.617651 0.734438 0.947387 -0.799495 0.369687 -0.418419 
0.467303 -0.958219 0.367095 0.705844 0.093174 -0.560333 
0.639757 -0.191134 0.896143 -0.982578 -0.120302 0.138629 
0.322095 0.663314 0.364900 0.641669 0.239266 0.724451 
0.611476 -0.438363 1.857327 -0.946718 0.026836 0.265322 
0.365588 -0.325050 0.022672 0.869409 -0.092384 -0.478284 
-0.593831 1.050530 1.270685 -0.833050 0.285259 -0.153754 
0.002932 -0.522326 0.236288 0.219281 -0.237757 0.911342 
1.072046 -0.210274 2.543375 -0.803636 -0.130586 0.578218 
0.641709 -0.263413 1.098666 0.910122 0.126697 0.095754 
0.738620 0.941542 2.303614 0.930334 0.116038 -0.333799 
-0.602761 0.019399 0.444884 0.633791 -0.254753 0.550838 
0.028983 -0.326745 0.282592 -0.020634 -0.380720 0.920119 
0.454346 -0.838411 0.322664 0.734652 0.036949 -0.554896 
0.443078 0.174196 0.249095 -0.409138 -0.303677 0.796359 
0.512938 0.122325 0.183800 0.853633 0.014928 -0.478497 
0.373410 -0.208909 0.191751 0.197790 -0.171335 0.857145 
0.603231 -0.012636 1.102404 0.988871 0.061454 -0.070917 
-0.695018 0.384306 0.796649 -0.971119 0.075858 0.055426 
0.403038 0.984939 1.529720 -0.792523 -0.186622 0.547469 
-0.762210 0.045369 0.761312 -0.984980 0.074084 -0.122691 
-0.072220 0.612497 0.467669 -0.049312 0.328961 0.931773 
0.478456 0.942210 1.516553 0.944164 -0.028213 0.028572 
0.657263 -0.102953 0.820384 0.985211 0.068420 -0.072844 
0.273488 0.732703 0.379875 0.566567 0.212825 0.793094 
-0.755012 -0.412323 0.875834 0.948267 -0.032847 0.207805 
0.243733 -0.763323 -0.035904 -0.042560 -0.175600 -0.970183 
-0.776505 -0.081913 0.689000 -0.965001 0.034086 -0.186738 
0.889059 0.349146 2.462695 0.912302 0.243421 -0.308874 
0.006254 -0.040019 0.422420 0.061555 -0.331058 0.938288 
0.074513 0.387712 0.515467 0.229750 0.035250 0.954297 
0.570786 -0.159811 0.548019 -0.748996 -0.179996 0.429641 
0.580152 0.624586 1.775258 0.952190 0.086722 -0.171794 
0.747665 -0.105181 2.157138 -0.800174 0.035102 0.583016 
-0.459164 0.322158 1.806487 -0.852779 0.289016 0.422660 
-0.493416 0.887535 1.463740 0.882696 -0.308152 -0.154519 
0.279064 0.006277 0.341068 0.532471 -0.209669 0.806740 
-0.496153 0.240987 1.765954 -0.853049 0.310756 0.408155 
-0.377427 0.021537 2.594214 -0.966518 0.185113 0.044324 
