-0.226644 0.737297 0.030390 -0.563312 0.435425 -0.656983 
1.419051 1.705038 0.322598 0.447902 -0.506760 0.688328 
0.018574 0.086796 -0.134679 0.472594 -0.025908 -0.862952 
-1.093117 1.292032 -0.324441 -0.842061 -0.048193 0.484779 
-1.101185 0.721749 -0.723835 -0.851845 -0.324153 0.344611 
0.653590 0.119633 0.053794 0.761066 -0.229179 0.601402 
0.216610 0.454244 0.571152 0.284546 -0.097154 0.948604 
0.138305 -0.019343 -0.067006 0.550421 -0.027993 -0.827744 
-0.665044 2.446233 -0.348526 0.710122 -0.458374 -0.528336 
-0.256828 3.018916 -0.211375 0.796080 -0.308407 -0.515497 
0.132258 -0.440551 -0.005910 0.354325 -0.291540 -0.868621 
1.609271 1.892184 0.472624 -0.260744 0.802462 -0.529306 
-0.438014 2.050755 0.490734 -0.747633 0.582431 0.241118 
-0.199531 2.301546 0.468377 0.725305 -0.497264 -0.468506 
0.303979 -0.423444 0.102737 0.299566 0.009470 -0.924964 
-1.264256 1.256076 -0.562162 -0.847262 -0.215900 0.471492 
-0.522051 0.169268 0.177150 -0.837722 -0.299508 0.440541 
1.860074 1.467203 -0.181414 -0.217552 0.765263 -0.587550 
-0.795680 2.177674 -0.214151 -0.351095 0.794577 0.438625 
1.322617 2.207340 1.174207 -0.259986 0.852327 -0.446587 
1.312569 1.312194 -0.249305 -0.255898 0.715365 -0.526981 
-0.645491 1.207154 0.582616 -0.817004 -0.257664 0.501887 
0.727172 1.766955 0.880743 -0.335547 0.719727 -0.592100 
-0.553084 -0.923848 -0.083945 0.558175 -0.076804 -0.818042 
0.601411 -0.614075 -0.070912 0.618301 -0.070539 0.778301 
-0.115148 0.055342 -0.082697 -0.564056 -0.002330 -0.818641 
1.114464 0.706083 -0.259516 0.772622 -0.197835 0.598116 
-1.177409 1.665612 -0.289973 -0.821884 0.076330 0.520746 
0.043004 3.121457 0.156803 -0.851134 0.279064 0.434321 
-0.822936 0.258012 -0.352508 0.717809 0.202656 -0.575620 
-0.714442 1.985428 0.163547 -0.597685 0.653340 0.429334 
-0.991833 1.799828 -0.071851 0.716350 -0.328951 -0.544888 
-0.190500 0.292805 0.564848 -0.318654 -0.164028 0.917741 
1.058773 0.090556 -0.357736 0.577992 0.003866 0.798876 
1.389768 1.432896 -0.018714 -0.013375 -0.934779 0.311127 
-0.457986 1.783764 0.765715 0.689199 -0.506298 -0.513811 
1.483710 1.956181 0.656581 0.264745 -0.857401 0.414026 
-0.363308 0.359613 0.484652 -0.472329 -0.192479 0.844369 
0.810503 0.488566 0.049847 0.760233 -0.287776 0.576715 
-1.253377 2.151509 -0.754543 0.677839 -0.467391 -0.547884 
-0.836823 0.190659 -0.375866 -0.810636 -0.195835 0.487956 
-1.055321 0.714870 -0.645331 0.808660 0.309663 -0.418987 
1.785709 1.465482 -0.149941 0.183905 -0.805511 0.521409 
1.150266 0.275235 -0.416268 0.592164 0.003946 0.787469 
0.488086 1.206243 0.564893 -0.459359 0.474984 -0.739207 
0.092507 0.729788 -0.019953 0.382398 0.329267 -0.828830 
-0.267231 0.852254 0.166782 -0.716754 0.433274 -0.490188 
1.815131 1.619939 0.032466 0.296167 -0.712764 0.603776 
-0.599601 0.302956 0.100578 -0.843040 -0.304120 0.430561 
1.944164 2.109638 0.758873 -0.145011 0.907099 -0.383029 
-0.427636 -0.698665 0.037462 -0.742183 -0.071154 0.651736 
-0.382076 0.578473 0.505388 -0.552562 -0.022056 0.822722 
1.330861 1.792337 0.460230 -0.256507 0.839716 -0.462388 
-0.396125 -1.160074 0.040368 -0.314280 0.232204 -0.791621 
0.874140 1.719277 0.723477 -0.312070 0.765674 -0.524778 
1.857665 2.385781 1.361921 0.079741 -0.768236 0.581716 
-0.701761 1.473025 0.545697 -0.942880 0.135504 0.247351 
-0.843235 1.014615 -0.003700 -0.904164 -0.054530 0.364608 
0.685077 0.029670 -0.026662 0.759074 -0.183950 0.620468 
1.314934 1.633431 0.235573 -0.242653 0.800774 -0.540793 
-0.338978 2.234038 0.335235 0.645892 -0.570168 -0.498717 
1.023177 0.270917 -0.326572 -0.555241 0.065486 -0.794564 
1.451032 2.033951 0.817924 0.252122 -0.788706 0.534393 
-0.427020 0.538942 0.446756 -0.481614 0.025796 0.851265 
-0.161578 1.215950 0.359248 -0.717046 0.649833 -0.108556 
-0.743632 0.472937 -0.094889 -0.857719 -0.272807 0.426749 
0.214141 0.718612 0.548322 0.352071 0.255328 0.877841 
-0.611551 0.011003 -0.121403 0.427881 0.130199 -0.725286 
-0.747231 1.128461 0.260261 -0.942790 0.017926 0.285773 
0.218395 0.650020 -0.009776 0.576090 0.195998 -0.763498 
-0.523688 1.555651 0.813169 0.891168 0.200050 -0.287032 
0.322618 0.408454 0.523647 0.359076 -0.133776 0.919205 
-0.965354 1.921917 -0.169309 0.616921 -0.477775 -0.539198 
-0.515242 0.392299 -0.031673 0.134383 0.192542 -0.818664 
1.003673 0.823758 -0.075678 0.746791 -0.248015 0.573594 
-0.398650 -0.224636 0.169541 -0.809745 -0.167647 0.551640 
0.279968 0.659513 0.546317 0.440666 0.321056 0.808224 
-0.555575 0.389344 0.271449 -0.828510 -0.357750 0.406036 
-0.045405 0.216515 0.567403 -0.122795 -0.206878 0.964290 
-0.805901 2.035830 -0.120122 0.603493 -0.589622 -0.505167 
-0.217462 -0.288580 -0.006251 -0.586141 -0.090377 -0.802063 
-1.050294 2.048548 -0.403548 0.551432 -0.595976 -0.532718 
-0.925441 0.147193 -0.517621 0.682615 0.159641 -0.570774 
-0.765887 1.243392 0.188678 0.741531 0.208484 -0.569590 
0.599845 1.121235 0.488553 0.835968 -0.110538 0.474993 
0.736104 -0.455988 -0.159151 0.583552 -0.030953 0.802480 
0.017693 1.297600 0.421461 0.240367 0.757573 0.583701 
-0.619046 0.872733 0.251648 0.929747 0.200736 -0.186154 
0.155061 -0.365242 -0.027025 0.486967 -0.178201 -0.839722 
-0.517535 2.207135 0.099994 0.695196 -0.561707 -0.444965 
-0.498375 0.558896 0.490233 -0.245464 -0.423171 0.830029 
-0.510596 0.241093 -0.031154 0.133400 0.161436 -0.814783 
-0.905051 0.644375 -0.326915 -0.875338 -0.228007 0.426060 
-0.177656 2.861211 -0.010442 0.784947 -0.341241 -0.508651 
1.793373 1.575247 -0.019694 -0.219824 0.795293 -0.553237 
1.472422 1.921322 0.583419 -0.283649 0.763284 -0.564474 
-0.924861 0.889682 -0.296016 0.826103 0.142226 -0.512820 
-0.098124 1.215515 0.511342 0.033329 0.795645 0.557972 
2.002790 2.383799 1.316912 0.144496 -0.924030 0.339653 
0.564497 1.769087 1.026301 -0.344081 0.835209 -0.420259 
0.479593 -0.150180 0.138657 0.754520 -0.218588 0.613194 
0.475180 -1.081089 -0.000082 0.689868 0.177290 0.666401 
0.354161 0.087438 0.118355 0.244236 0.120957 -0.959378 
0.433121 1.479797 0.714821 -0.370989 0.564202 -0.731909 
-0.204092 0.646827 0.570313 -0.265031 0.303181 0.885285 
0.267355 -0.350024 0.052672 0.476355 -0.062656 -0.859865 
-0.643724 0.779916 0.122646 0.747383 0.399765 -0.483052 
-0.983462 0.229148 -0.570677 0.708237 0.147259 -0.546988 
-0.299936 -0.117396 0.089719 -0.320042 0.048619 -0.919513 
-0.273994 2.204830 0.586737 -0.658303 0.612741 0.389735 
1.121623 1.795080 0.634997 -0.378381 0.790870 -0.470990 
1.917951 2.208518 0.953667 -0.135935 0.910904 -0.379559 
-0.385752 -1.334957 0.008893 0.415242 -0.011915 -0.886321 
1.511151 2.037193 0.776576 0.222816 -0.917750 0.313374 
0.943404 1.690745 0.650557 0.505425 -0.660408 0.512594 
0.245971 0.842637 0.112453 0.626103 0.477333 -0.597495 
0.189097 -0.600171 0.306113 0.293009 -0.358816 0.883131 
-0.279482 2.384810 0.270427 -0.630162 0.597357 0.482760 
0.332804 -0.781409 0.166704 0.553817 -0.205997 0.795186 
0.919140 1.590838 0.437001 -0.449496 0.589363 -0.668371 
-0.025613 -0.986831 0.158034 -0.385107 -0.170410 0.904298 
-0.194475 0.408250 0.581899 -0.289029 -0.122579 0.944725 
0.352029 -1.205824 0.078062 0.053780 -0.146755 0.973242 
0.410232 0.640594 0.391941 0.175793 0.909135 0.091419 
-0.854530 1.535926 0.178846 0.759599 -0.002457 -0.592270 
0.759700 -0.091371 -0.114091 -0.531144 0.122697 -0.792607 
-1.044253 0.415720 -0.647213 -0.754051 -0.199581 0.467023 
-0.226060 -0.447805 0.357796 -0.367486 -0.267631 0.878443 
-0.100421 2.384654 0.582344 -0.657786 0.558871 0.502855 
0.559633 0.075384 0.158239 0.752091 -0.263070 0.596421 
0.255900 -0.749515 0.208977 0.364882 -0.287762 0.857923 
-0.064477 0.248191 -0.121134 -0.555515 0.045260 -0.825051 
0.428439 -1.148925 0.025225 0.730818 0.198719 0.628120 
-0.283096 2.310919 0.335373 0.786330 -0.461371 -0.402536 
-0.247279 0.384520 0.004713 -0.658993 0.018382 -0.743220 
-0.740791 1.250629 0.339659 -0.940658 0.061143 0.279538 
-0.756671 2.151322 -0.134583 -0.388194 0.776246 0.439440 
-0.956337 1.675424 0.051246 0.778344 -0.121404 -0.584771 
-1.027783 0.529739 -0.647109 -0.832798 -0.289105 0.387555 
0.945969 0.957245 0.039453 0.724956 -0.264848 0.562154 
1.218154 1.590010 0.240997 -0.398979 0.607431 -0.683705 
0.348253 0.465891 0.158311 0.515327 0.295934 -0.739712 
0.114132 -0.114175 0.467641 0.166923 -0.247844 0.951967 
0.678388 1.778194 1.026323 0.534170 -0.646425 0.494798 
-0.110628 2.952626 0.019356 0.754453 -0.362902 -0.543836 
-0.629403 -0.135324 -0.120377 -0.803858 -0.130606 0.551719 
0.430485 -0.997323 0.026711 -0.358033 0.008817 -0.929645 
-0.860210 2.058435 -0.163638 -0.855574 0.233850 0.459961 
-0.307114 -0.361551 0.129352 -0.216310 0.044419 -0.966601 
0.846980 0.243206 -0.111287 0.755906 -0.186629 0.619715 
1.355503 1.737788 0.399452 0.433756 -0.562268 0.652968 
0.398105 -0.613061 0.120684 0.662922 -0.166666 0.719030 
-0.853677 1.814466 0.159476 -0.872810 0.232300 0.401870 
-0.995478 1.190238 -0.264596 0.817396 0.038927 -0.528544 
-0.764447 1.528352 0.361224 0.745220 0.026068 -0.619568 
0.483118 1.319715 0.608926 -0.425355 0.514349 -0.732609 
0.643396 1.757665 0.953644 -0.248067 0.871717 -0.413010 
-0.828844 0.598749 -0.295350 0.724430 0.226519 -0.548212 
0.097864 -0.843264 0.216578 0.182699 -0.269419 0.936713 
-0.401617 2.285176 0.180055 0.590361 -0.609901 -0.515572 
0.149361 0.380571 -0.048248 0.546572 0.071588 -0.823878 
-0.199805 -0.013126 -0.024979 -0.605335 -0.036945 -0.787650 
1.874049 2.297629 1.132941 -0.134335 0.886660 -0.441454 
1.106290 1.504075 0.155794 0.365573 -0.751612 0.457177 
-0.446424 -0.118730 0.144637 -0.842201 -0.214742 0.479907 
-0.360892 3.021839 -0.356482 -0.723013 0.384706 0.559904 
-0.938460 1.305015 -0.059457 -0.867245 0.049464 0.435642 
-0.411208 2.536768 -0.097142 0.537467 -0.574167 -0.601058 
-1.230107 1.660954 -0.370810 -0.819631 0.058035 0.520349 
2.180527 2.111521 0.698330 0.138375 -0.876088 0.458592 
-1.203855 1.804824 -0.311719 -0.800776 0.243666 0.545875 
0.427941 0.061154 0.331785 0.669200 -0.252137 0.690302 
0.028217 -0.962379 0.092877 0.295236 -0.128457 -0.943601 
0.824678 0.730579 0.036971 -0.614486 0.353256 -0.696671 
-0.579759 -0.825968 -0.109739 -0.608022 0.114416 0.767615 
-1.115427 0.625761 -0.734734 -0.791907 -0.260350 0.402440 
1.046995 1.430904 0.072714 -0.476758 0.627272 -0.612170 
1.384627 1.976474 0.727372 -0.288884 0.684728 -0.653832 
1.541143 2.248989 1.141609 0.226445 -0.891009 0.374932 
-0.435139 2.078493 0.425242 0.580672 -0.508071 -0.591179 
1.004440 1.969979 0.983637 -0.310171 0.844900 -0.426133 
-0.845337 2.219383 -0.319278 -0.375535 0.769216 0.449460 
-0.681250 0.121835 -0.148409 -0.842932 -0.171515 0.492329 
-1.021846 0.764431 -0.564621 0.834727 0.295868 -0.427086 
-0.672301 1.406220 0.479191 0.728332 0.130993 -0.627092 
0.617684 0.153718 0.123175 0.754902 -0.262042 0.593793 
-0.448842 -1.043731 -0.003560 -0.714040 0.142158 0.663973 
-0.109513 -0.520121 0.348381 -0.115342 -0.303346 0.940960 
2.162895 2.363045 1.224431 0.114873 -0.908551 0.398878 
-1.209460 1.546832 -0.377892 -0.829369 -0.014389 0.506085 
2.158565 2.189406 0.851807 0.129945 -0.885272 0.444820 
-0.421809 1.850851 0.763025 0.767893 -0.372583 -0.512113 
-0.691975 1.303837 0.376978 0.729491 0.193659 -0.602577 
0.030673 2.653003 0.459940 0.888563 -0.364328 -0.203386 
-0.676882 1.533836 0.633275 -0.947877 0.156344 0.227452 
-0.867857 0.240883 -0.422126 -0.813404 -0.211056 0.471984 
-0.363318 2.344678 0.181084 -0.734082 0.535655 0.413867 
1.138539 1.117594 -0.194143 -0.581352 0.458060 -0.637488 
0.227653 1.030186 0.241616 0.755048 0.392887 -0.443505 
1.720519 1.591242 0.038623 0.346803 -0.635666 0.643287 
1.182353 1.099631 -0.251873 0.624308 -0.432818 0.613130 
-0.630952 0.791409 0.254822 0.948968 0.181487 -0.091427 
-0.584057 1.143523 0.469130 0.819610 0.289432 -0.451550 
-0.057058 -0.146589 -0.091192 -0.454294 -0.124586 -0.857951 
-0.664189 -0.219394 -0.207684 0.599642 0.127238 -0.703344 
-1.340619 1.268427 -0.778208 0.844207 0.317024 -0.413281 
-0.674143 2.605347 -0.510687 -0.700585 0.477607 0.529129 
-0.144744 3.218518 -0.178587 0.776709 -0.302448 -0.551952 
0.342641 -0.636694 0.189936 0.642073 -0.212553 0.730157 
0.850102 0.472145 -0.014436 0.765897 -0.259800 0.582737 
0.288150 -0.230505 0.064886 0.424654 -0.020088 -0.880610 
0.043778 -0.937530 0.180297 0.322383 -0.199282 0.915518 
-0.402113 -1.237435 0.042391 -0.778003 0.302110 0.472299 
-0.956218 1.264204 -0.118373 -0.860032 0.027449 0.450574 
1.202592 2.207308 1.266007 -0.393075 0.887001 -0.174318 
-0.549963 0.256084 0.175904 -0.837263 -0.320874 0.429673 
0.703894 0.109040 -0.021933 0.767710 -0.197649 0.607903 
-0.671889 1.863982 0.278026 0.546113 -0.554986 -0.493920 
-0.181108 -0.279193 0.405508 -0.285961 -0.236028 0.893548 
-0.603824 0.549873 0.000682 0.421500 0.302121 -0.686145 
-1.255618 1.608590 -0.417572 -0.825505 -0.012205 0.511224 
0.719054 1.279628 0.354903 -0.472206 0.531390 -0.688046 
-0.918226 1.990732 -0.161903 -0.844017 0.229260 0.482422 
0.731803 1.187513 0.310283 -0.501106 0.500586 -0.691658 
0.108017 1.084068 0.593990 -0.119761 0.122185 0.928639 
-0.595272 0.100788 -0.027549 -0.854682 -0.204712 0.467723 
0.975987 1.467561 0.162961 -0.456451 0.629379 -0.625206 
0.063921 0.273249 0.581745 0.134445 -0.180972 0.968130 
0.484856 0.184690 0.324609 0.698756 -0.302726 0.636554 
0.989773 1.524677 0.254255 -0.460321 0.613875 -0.638365 
-0.594334 2.148011 0.095254 -0.613376 0.636614 0.453943 
-0.014455 -0.314651 0.403257 0.009474 -0.237978 0.969504 
-0.516291 -0.682485 -0.078871 0.483337 0.056716 -0.824636 
0.872495 1.598133 0.491696 -0.441435 0.583720 -0.678304 
-0.326013 -0.764470 0.046855 0.213126 -0.088416 -0.908611 
-0.423687 0.083322 0.312912 -0.753527 -0.254137 0.584721 
1.083666 0.160565 -0.375140 0.592324 -0.002627 0.788864 
-0.474001 1.608799 1.008575 0.503030 -0.801519 -0.283867 
0.304687 -0.285605 0.111090 0.343104 0.028829 -0.929297 
-1.205684 1.014236 -0.810042 0.861180 0.366242 -0.336217 
-0.825961 1.799005 0.227343 -0.882576 0.228850 0.377855 
0.284462 -0.470705 0.053255 0.360469 -0.054223 -0.873813 
-0.279061 -0.176211 0.056185 -0.423989 -0.006525 -0.871363 
-0.590765 0.480438 0.350659 -0.698102 -0.301496 0.584099 
-0.484184 0.614235 0.341531 0.230439 0.620972 -0.344469 
-0.393146 2.138337 0.408281 0.545642 -0.528212 -0.615577 
-1.098862 1.367626 -0.322691 0.814836 0.030577 -0.531082 
0.477620 0.563692 0.214150 0.214538 0.506478 -0.691012 
-0.185529 1.228021 0.559657 0.321255 0.881182 0.277543 
-0.338306 -1.067807 0.078298 -0.228878 -0.174792 0.931797 
0.566550 -0.519885 -0.023451 -0.395770 0.073578 -0.870528 
0.800299 1.539816 0.519428 0.469612 -0.696099 0.293287 
-0.669882 2.028683 0.085161 0.854257 -0.307934 -0.403671 
0.059643 3.336148 0.087169 -0.803437 0.277618 0.518047 
0.289977 -0.510733 0.289041 0.603975 -0.259503 0.738800 
-0.845985 1.457266 0.149413 0.756751 0.051863 -0.580960 
-0.250159 1.157036 0.706501 -0.249150 -0.667656 0.699928 
1.013022 0.716627 -0.124935 0.780560 -0.200304 0.575756 
-0.821108 0.776351 -0.077683 -0.911839 -0.154933 0.351007 
-0.737892 1.055153 0.146871 0.748521 0.281749 -0.557810 
1.847988 2.358050 1.282047 -0.131702 0.894809 -0.423050 
1.664214 1.623678 0.093259 -0.191364 0.832881 -0.502511 
-0.638718 -0.426932 -0.213150 -0.742269 -0.102536 0.610868 
1.214580 2.131261 1.088229 -0.308432 0.828879 -0.462780 
-0.955832 2.160414 -0.361656 -0.583977 0.643324 0.486498 
-0.097225 1.142484 0.579588 0.295892 0.397546 0.844837 
1.100043 1.091109 -0.140505 -0.587647 0.448354 -0.633504 
-0.335512 0.526704 0.518181 -0.446426 -0.094732 0.872067 
-0.678790 0.858486 0.291960 -0.695972 -0.258715 0.638390 
1.348220 1.023414 -0.493536 0.701506 -0.194285 0.655450 
1.719920 1.695005 0.161361 -0.194104 0.831210 -0.508591 
0.350423 0.721057 0.459589 0.766301 0.356402 0.456330 
-0.321933 2.331934 0.237847 0.567538 -0.615784 -0.538011 
0.386634 0.598550 0.482315 0.576392 0.098218 0.791608 
-0.189897 2.742905 0.045086 0.793532 -0.347234 -0.489536 
-0.960148 1.114562 -0.249609 0.818374 0.052924 -0.526591 
-0.165928 0.356154 -0.040433 -0.602788 0.053822 -0.782722 
-0.762280 1.715019 0.461053 -0.910682 0.209328 0.306159 
-0.887521 1.213624 0.003045 -0.887215 0.021720 0.396507 
0.369447 -0.230055 0.100556 0.229256 0.061820 -0.924465 
1.863110 2.160247 0.877024 -0.145129 0.916553 -0.360576 
1.218845 0.811961 -0.364860 0.758256 -0.150419 0.625586 
-0.566898 2.361537 -0.129601 -0.669931 0.545492 0.494930 
-0.965611 0.483944 -0.550509 0.755072 0.267588 -0.486294 
-0.357408 0.282636 0.467486 -0.533256 -0.207636 0.795126 
-0.345164 2.474419 0.059205 0.505354 -0.611836 -0.600700 
0.515636 1.503852 0.639058 -0.376213 0.583591 -0.713776 
-0.373546 0.096646 0.409284 -0.669352 -0.248615 0.692173 
-1.413870 1.494215 -0.679123 0.818327 0.186839 -0.511661 
-0.825553 0.969892 -0.064675 0.785567 0.218221 -0.536049 
-1.342609 1.616721 -0.556133 0.804757 0.019324 -0.534512 
0.031313 -0.765960 0.264742 0.354333 -0.265440 0.890981 
-0.552525 1.354073 0.640970 0.850963 0.287818 -0.411029 
-0.239509 2.504503 0.185267 0.795949 -0.421067 -0.423052 
0.565045 -0.290493 -0.010308 -0.238285 0.086811 -0.858583 
0.660387 0.469470 0.001796 -0.233300 0.229383 -0.817205 
0.716481 1.199477 0.384080 0.752500 -0.238165 0.502472 
-0.728235 0.522762 -0.210981 0.535644 0.213603 -0.634458 
-0.770400 0.149583 -0.247201 -0.816048 -0.162392 0.517456 
1.018592 1.970213 1.059756 0.406096 -0.738737 0.480754 
-0.750016 2.439939 -0.442336 0.721529 -0.424922 -0.539653 
0.803587 1.408015 0.312919 -0.447146 0.587843 -0.662528 
-0.702186 0.438675 -0.190609 0.490137 0.196954 -0.653360 
-1.413014 1.702787 -0.649291 -0.801432 0.085533 0.531304 
0.270542 -0.847340 0.162029 0.304523 -0.258736 0.894408 
0.247953 1.167843 0.706785 0.683881 0.123065 -0.710392 
-0.399462 1.811203 0.867862 0.836302 -0.449691 -0.059528 
-0.176920 3.061344 -0.129620 0.782477 -0.317205 -0.531270 
0.503629 -0.188733 0.083121 0.759491 -0.190446 0.620047 
0.409755 -0.448504 0.120115 0.716003 -0.178435 0.667024 
0.318559 0.120843 0.453635 0.502763 -0.257989 0.801376 
0.830006 -0.168623 -0.226453 -0.457748 0.027254 -0.861837 
-0.853959 1.052482 -0.077282 0.787943 0.170537 -0.538578 
0.536298 -0.998616 -0.033190 0.639330 0.156907 0.712194 
1.461893 1.183382 -0.607919 -0.640608 0.215680 -0.698416 
-0.083007 -0.275352 0.419555 -0.091465 -0.236252 0.964114 
1.091776 0.835897 -0.189055 0.715796 -0.307740 0.591760 
1.836984 1.544309 -0.072825 0.296617 -0.712130 0.611947 
1.684206 2.318800 1.225404 -0.150991 0.881838 -0.445693 
-0.848738 -0.197187 -0.399056 -0.628614 -0.006024 0.668227 
0.795709 0.127982 -0.090672 0.744460 -0.177143 0.633294 
1.281312 1.576404 0.205994 0.111413 -0.918278 0.303507 
-0.798047 0.528046 -0.174931 -0.863823 -0.256338 0.427021 
1.601695 2.156385 0.942220 -0.180341 0.905594 -0.368996 
0.531893 1.130055 0.589363 0.747488 -0.117267 0.622942 
0.844523 1.044404 0.189057 0.738725 -0.216832 0.542577 
0.063002 1.150162 0.570833 -0.190357 0.462606 0.833571 
2.102940 2.203601 0.894997 0.134711 -0.872988 0.459662 
-0.329455 -1.236151 0.044336 0.648234 -0.512115 0.276272 
-0.938418 0.984762 -0.273779 0.822376 0.105782 -0.518865 
0.235200 1.088976 0.327613 0.872093 0.427919 -0.146775 
-0.524829 1.877652 0.601822 -0.733381 0.617747 0.177360 
-1.029104 2.108420 -0.442520 0.541463 -0.623596 -0.528300 
-0.702322 1.042764 0.208862 0.737593 0.319078 -0.562556 
0.495758 -0.758918 0.002283 0.621853 -0.083031 0.772375 
0.045395 0.202613 0.563626 0.117922 -0.214412 0.964140 
-0.094550 0.396876 0.601363 -0.173271 -0.112768 0.970628 
0.387642 1.648971 1.012177 -0.523667 0.801824 -0.013332 
-0.666856 0.499810 -0.158974 0.419244 0.210559 -0.688321 
0.190487 1.557108 1.002806 -0.608520 0.452040 -0.606682 
0.969756 1.885757 0.878869 -0.307277 0.827512 -0.458081 
0.165673 1.013151 0.156903 0.590436 0.413361 -0.681250 
-0.397078 -1.042449 0.044846 -0.645439 0.024965 0.729863 
1.339744 2.129129 1.066081 0.289414 -0.819899 0.463614 
-0.179528 2.947154 -0.064387 0.785207 -0.329396 -0.517299 
-0.089167 0.766460 0.000485 -0.461101 0.373756 -0.773153 
1.374755 1.277612 -0.240067 0.064513 -0.829175 0.429789 
0.111759 0.632244 0.588350 0.073318 0.224599 0.961876 
-0.607570 2.083459 0.162406 -0.597957 0.665406 0.436371 
-1.144259 2.120136 -0.584900 -0.743487 0.386984 0.514506 
-0.779475 2.468796 -0.500818 -0.608960 0.564291 0.508269 
-0.503791 0.615109 0.185450 0.033130 0.526617 -0.612786 
-0.208922 -0.372472 0.369276 -0.358681 -0.234776 0.848105 
0.054234 -0.047480 0.492812 0.116151 -0.258851 0.957194 
1.997090 2.356000 1.243900 -0.117332 0.900824 -0.414950 
-0.014240 0.771084 -0.026830 -0.395149 0.316160 -0.858023 
-0.941671 1.811993 0.026749 -0.847832 0.230916 0.460538 
0.210630 -0.679754 0.262168 0.315564 -0.349002 0.872844 
-0.189663 -0.361080 -0.012703 -0.540113 -0.137321 -0.819078 
1.625183 1.298941 -0.290821 0.009804 0.861499 -0.445447 
-0.885516 0.952991 -0.125818 -0.887113 -0.091449 0.399531 
-0.151456 1.204888 0.284673 -0.733295 0.547128 -0.342089 
-0.303957 2.398767 0.203512 -0.610456 0.606005 0.506572 
-0.155890 0.117160 -0.057346 -0.594010 -0.002220 -0.796151 
0.324637 -0.837387 0.057079 -0.259078 -0.073550 -0.954503 
1.604669 2.189140 1.007573 0.212712 -0.830330 0.499812 
-0.198335 0.036170 0.486002 -0.368630 -0.256030 0.867014 
1.195701 0.740003 -0.361706 0.747317 -0.139615 0.638821 
-0.714471 0.635525 0.163616 -0.880389 -0.221678 0.322743 
-0.276764 3.163766 -0.330252 -0.770526 0.329720 0.544670 
-0.966434 0.564125 -0.525311 0.782056 0.269070 -0.475890 
0.343537 0.008252 0.116761 0.265514 0.101280 -0.952929 
-0.314895 0.816020 0.438293 -0.812119 0.341328 0.415676 
-0.023419 1.070087 0.138595 -0.300218 0.451200 -0.832251 
0.399348 1.274743 0.654912 -0.834286 0.062789 -0.507482 
0.314947 0.543415 0.058716 0.652159 0.165463 -0.710559 
-0.291400 2.454013 0.158706 0.821707 -0.404490 -0.391106 
0.147447 0.086323 0.522088 0.241376 -0.262897 0.933740 
0.430847 0.457628 0.186451 0.247121 0.388827 -0.782421 
-0.956265 1.041650 -0.232179 -0.859244 -0.069604 0.454563 
0.474359 0.438723 0.464195 0.458686 -0.180251 0.859244 
-0.883980 2.077054 -0.236885 0.453056 -0.723973 -0.515768 
-0.744320 -0.149780 -0.338014 0.601132 0.162902 -0.660357 
0.214514 -0.269384 0.396442 0.378354 -0.244878 0.848067 
1.227410 0.712701 -0.419526 0.723575 -0.101285 0.671786 
0.682082 1.706318 0.907702 0.523532 -0.704241 0.442169 
0.692986 -0.341842 -0.088702 0.657741 -0.108017 0.731001 
-0.595997 0.240640 0.065985 -0.846233 -0.275336 0.441572 
1.172191 1.260496 -0.193050 -0.538523 0.528153 -0.633756 
-0.787399 0.544025 -0.261130 0.647887 0.216360 -0.582494 
-0.618470 1.631412 0.814465 -0.961611 0.190445 0.181078 
1.390889 1.266130 -0.426886 0.341931 -0.637602 0.558891 
-0.172800 2.212389 0.687367 0.857930 -0.452282 -0.076696 
0.638604 0.650400 0.139584 -0.277686 0.478012 -0.633208 
-0.177754 3.127682 -0.170487 0.782309 -0.308487 -0.538242 
0.564201 -0.376103 -0.014433 -0.293789 0.081631 -0.863497 
0.115061 1.562385 1.135094 0.225222 -0.716510 0.632427 
-0.262367 0.906420 0.486621 -0.801682 0.080402 0.546364 
0.789959 1.810537 1.001170 0.498177 -0.667848 0.486645 
0.569540 -0.175454 0.026875 0.747542 -0.172467 0.635786 
0.484170 0.502259 0.169779 0.119021 0.410512 -0.765540 
-0.368871 2.013092 0.618000 0.771572 -0.405649 -0.476438 
0.415615 0.166812 0.409701 0.633595 -0.267729 0.721781 
0.667060 1.550991 0.680720 0.518392 -0.623844 0.302070 
-0.544558 0.026801 -0.064813 0.229036 0.120379 -0.775796 
1.509599 1.146605 -0.652776 -0.685971 0.070925 -0.716509 
-0.579617 -0.189147 -0.097422 0.454346 0.106283 -0.754870 
1.039054 1.509688 0.183264 -0.468655 0.621946 -0.625893 
0.776939 -0.267669 -0.179549 0.639938 -0.068348 0.758833 
-0.592067 2.036432 0.213871 0.767757 -0.437007 -0.420134 
0.875246 -0.095179 -0.254066 -0.473486 0.025791 -0.853110 
0.478856 1.612320 0.915199 0.717913 -0.584761 0.304633 
-0.773278 1.107852 0.193897 -0.932346 0.002750 0.306979 
-0.258045 0.593778 0.558869 -0.404588 -0.025035 0.892259 
0.173130 1.225897 0.512493 0.013599 0.885302 0.195117 
0.932540 0.539311 -0.170755 -0.567369 0.204726 -0.700599 
0.910781 1.053625 0.115021 0.706345 -0.282993 0.555125 
1.829242 1.989496 0.558771 -0.199229 0.763771 -0.591192 
-0.833092 2.427518 -0.524644 -0.594140 0.580890 0.504491 
-0.677469 -0.078201 -0.164517 -0.798244 -0.131261 0.555220 
0.976067 1.395663 0.133040 -0.476426 0.606280 -0.628816 
-1.171338 0.924055 -0.797831 0.847604 0.362821 -0.343159 
-0.023555 0.711662 0.559053 -0.043271 0.035324 0.995890 
-0.495411 1.848989 0.754583 -0.699461 0.606033 0.367667 
-0.248512 0.463747 0.002247 -0.662581 0.012360 -0.740035 
-0.772569 0.673427 -0.021943 -0.914899 -0.229919 0.324933 
0.240205 0.950767 0.200954 0.730556 0.392261 -0.500882 
-0.133640 0.300468 -0.073897 -0.596858 0.038985 -0.792821 
0.934726 1.047894 0.044720 -0.578194 0.434610 -0.655802 
1.537989 1.482960 -0.026577 -0.217270 0.719293 -0.602805 
0.992489 1.541079 0.330542 0.343238 -0.803647 0.321447 
1.316103 1.161153 -0.463951 0.606722 -0.441315 0.646063 
-0.262214 1.004703 0.450201 -0.891428 0.305846 0.248190 
0.363630 -0.536435 0.171727 0.677828 -0.207437 0.697527 
-0.764652 1.471781 0.406727 -0.923501 0.132848 0.296489 
-0.708183 -0.114701 -0.257039 0.623019 0.147751 -0.671410 
0.026432 0.617538 0.591879 0.014265 0.234408 0.961050 
-1.147717 1.257222 -0.427696 0.821408 0.130776 -0.517089 
-1.043076 1.642418 -0.140873 0.800266 -0.156788 -0.558898 
0.031348 1.390659 0.345022 0.463124 0.741691 0.444495 
-0.770744 2.043839 -0.004357 -0.456092 0.745864 0.428968 
-1.046531 1.350366 -0.240927 -0.837824 0.023157 0.493670 
1.075545 2.001836 0.975789 -0.322343 0.845125 -0.417109 
-0.720367 0.618507 0.053533 -0.902988 -0.256308 0.331751 
0.315814 0.866378 0.358847 0.904549 0.329115 0.077407 
1.229867 1.599756 0.336901 0.386637 -0.708677 0.547839 
-0.425774 2.444777 -0.013426 -0.764519 0.439694 0.444662 
0.129457 0.662871 -0.034029 0.467209 0.219112 -0.826182 
-0.365035 2.063033 0.555433 0.781451 -0.410390 -0.456264 
-0.950574 0.391575 -0.537915 -0.823656 -0.251408 0.428225 
-0.258470 0.959320 0.249727 -0.792677 0.363595 -0.383802 
-0.282594 -0.520049 0.286815 -0.627111 -0.253654 0.715656 
1.881470 1.799179 0.228790 -0.212665 0.810174 -0.543815 
-0.758033 1.583490 0.407594 0.745257 -0.008771 -0.631441 
1.178145 0.342126 -0.434892 -0.580117 0.003850 -0.797346 
0.892972 1.946202 1.037376 -0.292884 0.838735 -0.452226 
0.572407 1.075270 0.434045 -0.510297 0.439933 -0.731087 
-0.649672 0.383057 -0.146937 0.392434 0.186917 -0.697527 
0.181687 0.218662 -0.046874 0.579792 0.007371 -0.809915 
-0.523828 1.736887 0.819839 -0.772389 0.619875 0.039865 
0.575742 0.159835 0.184746 0.749508 -0.287271 0.588676 
0.148906 -0.524119 0.037102 0.145030 -0.322216 -0.914457 
-0.151555 2.530886 0.341846 -0.711142 0.502763 0.464728 
0.686641 1.455823 0.490673 0.699790 -0.462606 0.465225 
1.088325 1.733125 0.595151 0.433035 -0.697000 0.563943 
-0.809486 2.278656 -0.355937 0.749674 -0.380438 -0.532450 
-0.474537 -0.668231 -0.013092 -0.741432 -0.056773 0.653130 
1.352355 2.240640 1.244388 0.281041 -0.880792 0.344243 
-0.813165 2.519751 -0.597445 0.680795 -0.488629 -0.543506 
0.003882 -0.323812 -0.091305 0.331410 -0.270863 -0.894324 
-0.822257 1.085506 0.000333 0.774355 0.192972 -0.546638 
-1.032394 0.612374 -0.635617 0.780210 0.298300 -0.441640 
0.045844 -0.262675 -0.082156 0.396672 -0.203809 -0.874602 
-0.497990 1.951443 0.505297 0.621876 -0.450275 -0.586250 
-0.369502 2.011469 0.706907 -0.627060 0.671279 0.346536 
0.834394 0.874926 0.084676 -0.615498 0.349218 -0.686301 
1.813067 1.669788 0.092204 -0.213624 0.805634 -0.543511 
-0.755088 2.234965 -0.224857 -0.421532 0.736367 0.453360 
-0.313360 -0.199676 0.127572 -0.221418 0.075841 -0.968325 
-0.961345 2.179911 -0.443152 0.733477 -0.405198 -0.528400 
-0.636990 0.472676 0.134966 -0.859092 -0.322403 0.384361 
-0.197535 -0.099208 -0.024275 -0.594868 -0.051573 -0.795509 
-0.258150 -0.364433 0.045062 -0.487292 -0.066341 -0.848628 
0.765864 -0.005093 -0.087248 0.720538 -0.159644 0.659696 
0.218078 1.107008 0.424870 0.336468 0.320176 0.740475 
-0.502098 -0.763698 -0.061137 -0.710338 -0.037033 0.689343 
-0.673342 2.535047 -0.444161 0.701982 -0.462610 -0.538804 
-0.249993 0.213819 0.002388 -0.658287 -0.010128 -0.747891 
-0.206122 0.716230 0.550086 -0.329880 0.240336 0.887584 
-0.832446 0.328226 -0.347287 0.739010 0.207758 -0.562751 
1.538822 1.807831 0.385704 -0.220733 0.841833 -0.480938 
-0.866940 1.875978 0.040155 -0.861810 0.246899 0.431807 
0.653422 1.129021 0.432426 0.805172 -0.142973 0.490694 
-0.602719 1.771348 0.514223 0.781949 -0.192246 -0.532962 
-0.214731 2.374032 0.454977 -0.685740 0.554423 0.428889 
1.397990 2.181720 1.094065 0.263764 -0.840979 0.464635 
-0.247291 2.613043 0.063933 0.822750 -0.341017 -0.443606 
-0.042961 -1.019741 0.093378 -0.235530 -0.124644 -0.951326 
-0.247140 1.059203 0.401821 -0.901276 0.394733 0.063356 
0.490638 0.055577 0.242185 0.733002 -0.279462 0.609871 
0.948481 -0.195474 -0.282435 0.527295 0.024670 0.834792 
0.140122 0.501570 0.601250 0.224300 -0.064936 0.969684 
1.107547 0.406324 -0.388008 -0.572344 0.056346 -0.787180 
-0.102427 -0.600410 0.318494 -0.161841 -0.340997 0.921394 
-0.131673 -0.701466 0.067852 0.080369 -0.159993 -0.978143 
0.633524 1.634094 0.783579 -0.168235 0.763895 -0.571538 
0.223007 -0.256034 -0.005547 0.572970 -0.097118 -0.810527 
-0.469638 3.000238 -0.494967 0.736530 -0.376357 -0.554966 
0.300491 0.009601 0.049619 0.458470 0.001824 -0.856973 
-0.519889 2.675041 -0.343780 -0.765465 0.400783 0.487416 
-0.554821 0.200326 -0.069937 0.220271 0.151793 -0.772922 
1.271811 2.235525 1.283159 0.161502 -0.672915 0.707033 
0.327208 -0.513826 0.107008 0.166888 0.030079 -0.945194 
0.572641 0.465905 0.083274 -0.161385 0.270349 -0.842781 
1.128756 1.574232 0.257281 -0.432891 0.607563 -0.662401 
1.354796 2.025463 0.821155 -0.293319 0.730554 -0.597402 
0.105115 0.223162 -0.095817 0.549015 0.028595 -0.830734 
-0.502284 0.240065 0.266109 -0.822506 -0.343302 0.438495 
-0.321178 0.382077 0.086950 -0.435988 0.124524 -0.832581 
1.141249 1.717794 0.485332 -0.238173 0.906008 -0.316202 
-1.179335 1.482067 -0.377349 0.813790 0.036750 -0.531209 
0.194571 1.159586 0.315339 0.830494 0.507256 -0.204592 
-0.821954 1.163710 0.040609 0.767421 0.174036 -0.553485 
-0.295030 3.089629 -0.307600 -0.741167 0.359782 0.555458 
0.776355 1.057703 0.216324 -0.547968 0.444791 -0.689756 
1.011621 0.562729 -0.212477 -0.703103 0.213638 -0.667400 
-0.064895 0.777430 0.574242 -0.126025 -0.144015 0.969500 
0.928502 1.405168 0.184741 -0.466563 0.603347 -0.637705 
1.302729 1.543352 0.134823 -0.329337 0.642737 -0.659436 
-0.908203 1.573257 0.145907 -0.874651 0.161013 0.407853 
1.082168 0.557537 -0.273762 0.746118 -0.158587 0.634531 
0.928983 0.443196 -0.172888 -0.591827 0.192598 -0.700549 
-0.919529 0.725768 -0.355338 0.832665 0.224235 -0.500541 
-0.261532 2.357559 0.386931 -0.662752 0.571824 0.444273 
0.110127 -0.775889 0.243889 0.171626 -0.308553 0.929877 
0.612535 1.671640 0.916448 0.542008 -0.691386 0.440815 
-0.071944 -0.759203 0.077501 -0.100474 -0.161306 -0.966202 
-0.193834 -0.115672 0.448571 -0.365036 -0.250344 0.860838 
-0.693867 1.960311 0.088317 0.784846 -0.423062 -0.439903 
-0.873036 1.807258 0.084741 0.644487 -0.391039 -0.545363 
-1.218236 1.453543 -0.437248 0.816644 0.084692 -0.524712 
-1.091523 2.065105 -0.459236 -0.787505 0.313641 0.507034 
-0.605288 2.701518 -0.481259 0.691140 -0.452003 -0.555266 
-0.164013 2.610023 0.191200 0.762413 -0.426058 -0.478445 
0.780512 1.694441 0.782824 0.576408 -0.656383 0.407457 
0.220040 0.536066 0.566832 0.283524 -0.063524 0.950593 
0.185018 1.218058 0.589194 -0.391562 0.765272 0.404912 
-0.367640 2.703353 -0.151616 -0.833439 0.325626 0.438065 
1.602048 2.294950 1.201871 -0.166956 0.875475 -0.452425 
0.569699 0.875568 0.392014 -0.908838 -0.075077 -0.375375 
0.737730 0.373001 0.083770 0.757641 -0.282285 0.581951 
1.887872 1.677694 0.072333 -0.226389 0.789534 -0.566730 
-1.138293 1.531493 -0.306434 0.810004 -0.024197 -0.539576 
-0.151497 2.817232 0.050960 -0.709976 0.428968 0.543776 
1.205470 1.475968 0.073899 0.273279 -0.781696 0.451283 
1.319110 1.306958 -0.419647 -0.531526 0.537094 -0.652252 
-0.290346 -0.700234 0.061465 0.268300 -0.150872 -0.935399 
0.518417 0.110974 0.033018 0.015803 0.125231 -0.876956 
-0.850762 1.729160 0.238521 0.726576 -0.189245 -0.601725 
-0.300276 2.543390 0.067079 -0.561089 0.574206 0.590428 
0.870601 0.132903 -0.179085 -0.576027 0.132592 -0.763785 
0.136888 1.212939 0.266902 0.692364 0.530219 -0.431172 
0.282648 -0.926510 0.069341 -0.238190 -0.047658 -0.957288 
0.564615 0.319949 0.292660 0.739577 -0.355847 0.569589 
-0.158957 -0.424055 -0.003797 -0.427684 -0.233636 -0.848263 
1.163605 1.766181 0.583095 0.407071 -0.716459 0.556623 
0.899857 -0.009878 -0.249161 0.659770 -0.073233 0.739026 
1.636004 1.711912 0.216304 -0.177119 0.853336 -0.478128 
-0.413232 2.774380 -0.269867 0.595807 -0.497351 -0.600256 
-0.692369 1.737710 0.449430 0.632393 -0.268384 -0.603318 
-1.259037 1.931694 -0.525935 0.671210 -0.419019 -0.557247 
-0.093989 2.449436 0.440561 0.733416 -0.519368 -0.437449 
-1.055083 0.924740 -0.416963 -0.862713 -0.209574 0.446960 
1.149349 0.681805 -0.347488 -0.681674 0.150454 -0.697458 
-0.064783 -0.755443 0.264382 -0.270203 -0.288738 0.908650 
-1.128680 1.884259 -0.322162 0.687176 -0.382740 -0.554520 
0.853363 -0.414563 -0.219557 0.498199 0.033518 0.856122 
0.642956 -0.774239 -0.090752 0.512298 0.022705 0.847154 
-0.566689 0.473042 0.436736 -0.574962 -0.299730 0.759598 
1.812361 1.423787 -0.215062 -0.159698 0.791479 -0.550811 
-0.003212 -0.738940 0.066008 -0.644147 -0.136183 -0.731634 
-0.610964 0.483602 0.257656 -0.813841 -0.304288 0.422360 
-1.319514 1.302330 -0.616507 -0.845579 -0.239421 0.473489 
0.588147 0.411299 0.024326 -0.112928 0.202806 -0.856680 
-0.080434 2.616271 0.304072 0.739568 -0.458436 -0.487201 
0.506960 -0.267578 0.023153 -0.087871 0.078163 -0.876216 
-0.206730 0.109211 0.499036 -0.362740 -0.252342 0.873290 
-0.370078 -0.141526 0.080359 -0.115792 0.086285 -0.920519 
-0.094962 -1.098507 0.121266 -0.243468 -0.103707 0.953910 
0.265829 -1.240886 0.069534 -0.462706 -0.082361 -0.846109 
1.620404 1.792155 0.327225 -0.189830 0.853140 -0.476395 
0.091795 1.299025 0.297840 0.697970 0.606236 -0.247091 
-0.379791 2.752591 -0.210330 0.563491 -0.520261 -0.612562 
1.487571 1.074752 -0.640932 0.707318 -0.034875 0.703932 
1.391949 2.079891 0.907523 -0.251758 0.896656 -0.346301 
-0.259423 -0.811639 0.181453 -0.323737 -0.280002 0.883335 
-0.949698 0.786022 -0.332881 -0.868858 -0.191451 0.437665 
-0.711535 2.069100 0.040544 -0.490133 0.734237 0.443875 
0.248912 -0.194110 0.406260 0.498584 -0.258582 0.787619 
0.555828 1.062402 0.561322 0.674680 -0.249701 0.688768 
0.313473 -0.183488 0.379446 0.600949 -0.257137 0.734984 
0.073702 0.042221 -0.107713 0.520359 -0.008887 -0.844893 
-0.533784 0.638132 0.268916 0.392626 0.527362 -0.242568 
-0.258309 2.822512 -0.090099 0.828701 -0.296166 -0.469321 
-0.974861 1.881323 -0.110495 -0.834482 0.228725 0.497017 
-0.122467 -0.029766 -0.075679 -0.559194 -0.019334 -0.822292 
-0.342473 2.188883 0.416320 0.797294 -0.427964 -0.414941 
0.600442 1.273066 0.531779 0.794957 -0.252064 0.458577 
-0.975537 2.333349 -0.611234 0.686210 -0.479391 -0.535474 
0.086621 -0.836868 0.079800 0.047592 -0.159067 -0.973650 
-0.489295 0.067075 -0.016903 0.101702 0.126079 -0.824634 
-0.297455 3.028391 -0.270963 -0.714677 0.385274 0.565765 
0.663028 0.194944 0.084252 0.758167 -0.253445 0.593974 
1.475189 1.285670 -0.240292 -0.102025 -0.931319 0.335220 
1.857902 1.872601 0.331218 -0.200794 0.827217 -0.523494 
-0.544606 0.546114 0.430658 -0.393649 -0.351179 0.803465 
-0.516197 0.130394 -0.038480 0.149931 0.138415 -0.803862 
1.309480 1.982592 0.787996 -0.302397 0.654083 -0.685624 
-0.094996 3.183102 -0.088686 0.775452 -0.307224 -0.550139 
-0.202798 1.150067 0.417765 -0.550601 -0.010440 0.744758 
0.801838 0.973933 0.157172 -0.578727 0.401024 -0.688416 
0.601620 0.890244 0.311689 -0.675440 0.252554 -0.642923 
-0.971856 1.435458 -0.064401 -0.854396 0.098405 0.460046 
-1.020939 0.803661 -0.465681 -0.872609 -0.257743 0.404809 
-0.334169 -0.059575 0.112966 -0.188885 0.104205 -0.957110 
-0.386071 3.055659 -0.414258 -0.742331 0.369244 0.551288 
0.142709 0.589625 -0.029176 0.484477 0.150700 -0.829759 
0.640373 -0.550440 -0.100661 0.619025 -0.064457 0.779361 
-0.411792 -0.458800 0.039884 0.136752 0.053042 -0.889603 
0.063722 3.192427 0.160768 -0.810878 0.293698 0.491810 
-0.672801 1.604381 0.596973 0.732186 -0.000362 -0.662272 
1.079274 1.377620 0.008962 -0.497279 0.597876 -0.613233 
0.015776 1.193842 0.538009 -0.022963 0.664622 0.734473 
-0.759429 0.297642 -0.211902 -0.852932 -0.189623 0.471246 
-0.867200 2.471662 -0.615743 0.678675 -0.491716 -0.541472 
0.402760 0.253516 0.445516 0.545423 -0.212438 0.799333 
0.659349 0.754229 0.250723 -0.912366 0.146098 -0.293610 
0.436079 1.340644 0.664014 -0.412222 0.515514 -0.740628 
0.993867 1.645063 0.443409 -0.372905 0.740767 -0.524522 
-0.512237 -0.002243 0.081716 -0.846528 -0.220200 0.470868 
-0.634275 0.171414 -0.063754 -0.857149 -0.208758 0.462067 
-0.403143 2.203164 0.318803 -0.730808 0.566774 0.346975 
-0.222951 2.384240 0.321944 0.762565 -0.492122 -0.413137 
0.190307 0.019564 0.487113 0.332500 -0.261398 0.884595 
1.265399 0.803471 -0.436325 0.733118 -0.107478 0.661160 
0.697921 1.664899 0.781473 -0.220059 0.752439 -0.575942 
0.340123 -0.448345 0.240221 0.690767 -0.237346 0.679869 
-0.947167 1.742498 0.081131 0.761609 -0.190864 -0.587629 
-0.183642 2.536044 0.232827 0.762793 -0.450333 -0.454607 
0.046408 -0.676154 0.304835 0.318840 -0.312686 0.889237 
1.050922 0.710515 -0.211020 -0.703780 0.257545 -0.649313 
0.794150 1.896746 1.107928 0.405722 -0.741582 0.520259 
-1.205292 1.175292 -0.532206 0.827223 0.223027 -0.504366 
0.275860 0.048588 0.455091 0.459543 -0.258997 0.820139 
0.358626 0.381582 0.138635 0.388796 0.234491 -0.834751 
-1.086540 1.056507 -0.407063 -0.855628 -0.167152 0.459551 
2.074857 2.383632 1.297306 0.131139 -0.918835 0.361844 
-0.768767 1.841156 0.248546 -0.894071 0.239451 0.353542 
0.366310 -0.092807 0.373049 0.651822 -0.253843 0.712704 
0.794898 0.662616 0.163669 0.802937 -0.138034 0.510133 
1.260918 0.891792 -0.405795 0.735712 -0.177455 0.634148 
1.411140 1.932797 0.655733 0.290499 -0.836186 0.441366 
-0.424835 -0.626472 0.026494 0.271561 0.039709 -0.884133 
-0.897554 1.489445 0.061703 0.765513 0.017095 -0.570299 
0.711312 1.884132 1.126684 0.134136 -0.549713 0.788022 
-0.576825 2.495747 -0.285043 0.663381 -0.507499 -0.539311 
-0.682384 1.342700 0.517863 -0.954633 0.093438 0.233209 
0.830673 1.195603 0.258540 0.692347 -0.288254 0.538173 
-0.420747 -0.958903 0.024988 0.421788 -0.004908 -0.904930 
1.122147 1.607200 0.324407 -0.430407 0.597413 -0.673859 
0.507329 -0.070282 0.033239 0.034753 0.091483 -0.867210 
-0.865686 0.651867 -0.237043 -0.884983 -0.232098 0.398587 
0.906327 1.958508 1.107049 0.438606 -0.722098 0.494364 
0.180576 -0.814266 0.206245 0.189953 -0.296467 0.932005 
1.853353 2.328961 1.211776 -0.133635 0.890576 -0.432369 
-0.478124 0.277405 0.332256 -0.771667 -0.332965 0.513188 
-1.141549 1.134366 -0.469058 0.826059 0.191475 -0.508155 
-1.207201 2.049095 -0.584615 -0.757357 0.352670 0.524947 
-0.551882 2.462401 -0.206325 -0.713816 0.486794 0.490300 
-0.559594 0.047472 0.013248 -0.851733 -0.206761 0.470775 
0.660663 0.496092 0.273136 0.751060 -0.245884 0.561238 
-0.860312 0.543591 -0.328775 0.804401 0.222843 -0.523837 
0.243645 -0.934755 0.133614 0.194508 -0.244623 0.947517 
-0.199593 0.530293 0.574922 -0.286226 -0.077552 0.946715 
-1.244925 1.523255 -0.442696 0.815024 0.069712 -0.527238 
-0.343790 0.557996 0.170926 -0.586329 0.343463 -0.681645 
-0.204999 1.099026 0.634761 -0.697460 0.465035 -0.522488 
1.758223 1.986976 0.574163 -0.210727 0.735870 -0.622361 
-0.670322 1.399466 0.575071 -0.955849 0.112493 0.223353 
-0.880261 2.270054 -0.417077 -0.449885 0.708001 0.468142 
-0.743876 0.868216 0.040503 0.766870 0.321944 -0.540582 
0.050665 -0.148140 0.460766 0.087753 -0.250575 0.961768 
-0.458982 0.508074 0.153636 -0.006036 0.407279 -0.726559 
-1.159702 0.975522 -0.676467 -0.872327 -0.315670 0.352180 
1.150499 1.920631 0.818351 0.399924 -0.784427 0.461938 
-0.310772 0.868437 0.387582 -0.894003 0.298173 0.193574 
-0.281782 2.750691 -0.077874 0.836777 -0.296732 -0.455324 
0.626263 0.278296 -0.018329 -0.137163 0.156320 -0.835782 
-0.471302 -0.001891 -0.003081 0.070839 0.112331 -0.837110 
-0.763519 2.373095 -0.379168 -0.496411 0.659635 0.479956 
0.522780 0.337408 0.037715 0.005301 0.167398 -0.894010 
0.533836 -0.078269 0.105150 0.757215 -0.217125 0.610883 
1.660009 1.381661 -0.200547 0.060440 -0.857153 0.445681 
-0.113004 1.268878 0.292866 -0.722744 0.586707 -0.333925 
-0.618697 2.328087 -0.180146 0.712677 -0.474077 -0.508175 
1.059299 1.305861 0.011690 -0.518263 0.562780 -0.615766 
-0.027647 -0.641808 0.324271 -0.357215 -0.311552 0.878745 
0.760257 0.595939 0.162405 0.832895 -0.205792 0.497723 
-0.197389 3.185522 -0.232119 -0.766056 0.324759 0.549663 
0.312645 -0.680049 0.031535 0.103822 -0.068623 -0.885574 
-0.920530 1.844620 -0.036582 0.629552 -0.459710 -0.522863 
0.617792 1.390225 0.546732 0.754262 -0.369211 0.451127 
0.511747 -0.368711 0.041879 0.718068 -0.150274 0.668854 
-0.224913 -0.217403 0.408417 -0.447642 -0.248299 0.808543 
-0.283297 -1.120270 0.077873 0.101370 -0.284522 0.703143 
-0.413132 2.003449 0.550793 0.580980 -0.535552 -0.586516 
-0.138218 1.069880 0.613148 0.079159 -0.013173 0.922156 
0.054451 2.912926 0.270620 -0.875793 0.293802 0.378769 
0.009827 -0.394771 -0.076969 0.302589 -0.315548 -0.898804 
0.327899 -0.707563 0.190251 0.594492 -0.218312 0.763568 
1.768627 2.281946 1.142005 0.187029 -0.909766 0.348969 
-1.032462 1.135344 -0.305811 -0.850064 -0.078441 0.471081 
0.675339 0.812501 0.208407 -0.531293 0.442237 -0.721212 
1.033052 1.356726 0.080794 0.545442 -0.555594 0.577248 
0.293867 0.939819 0.345990 0.922142 0.346787 -0.041415 
-0.129303 3.112489 -0.098064 -0.786457 0.324869 0.518770 
-0.515391 1.626518 0.948952 0.139160 -0.958398 -0.044862 
-0.200098 -0.588596 0.306629 -0.334343 -0.347451 0.869220 
-0.272368 0.194544 0.490299 -0.471589 -0.216822 0.816693 
-0.851098 -0.121509 -0.416753 -0.670891 -0.058966 0.620575 
-0.394588 0.225007 0.067764 -0.088027 0.161320 -0.918038 
-0.369248 0.590708 0.242113 -0.612137 0.413763 -0.596768 
-0.553076 0.421957 0.375990 -0.686136 -0.333834 0.603385 
-0.463906 1.962114 0.580724 -0.753453 0.593621 0.186263 
0.876499 2.004046 1.176836 0.184222 -0.624359 0.726583 
0.218399 -0.529193 0.324447 0.360836 -0.301397 0.871411 
0.129455 0.703142 0.563419 0.116211 0.092677 0.978749 
-0.013216 3.093346 0.072682 0.770249 -0.321724 -0.548104 
-0.284707 0.961816 0.316658 -0.908349 0.371818 -0.133461 
-0.081492 1.125778 0.172994 -0.420896 0.419811 -0.792144 
0.061715 0.162389 -0.121558 0.528430 0.028150 -0.844122 
0.940402 -0.118253 -0.284230 -0.499130 -0.005061 -0.846861 
-0.636685 0.183114 -0.140068 0.398541 0.150374 -0.701615 
-0.762336 1.615330 0.489412 -0.917865 0.180029 0.293584 
-0.283944 0.781210 0.115747 -0.677380 0.491900 -0.508487 
-0.803174 0.189333 -0.301987 -0.816703 -0.178639 0.501526 
-0.209231 2.468076 0.331652 -0.689676 0.527218 0.461611 
-0.249109 2.285141 0.419415 0.755981 -0.474621 -0.439486 
-0.927662 0.537994 -0.459727 0.783898 0.251919 -0.495743 
-0.568391 2.794318 -0.491932 -0.731331 0.422607 0.529069 
-1.017752 2.164667 -0.489275 0.537223 -0.643254 -0.524963 
-1.172469 1.946780 -0.429205 -0.810632 0.256757 0.522678 
0.129280 -1.191093 0.125705 -0.084338 -0.164335 -0.974699 
-0.152139 2.693722 0.124296 0.770256 -0.382149 -0.501915 
1.290725 0.984522 -0.451181 -0.662554 0.251204 -0.676667 
-0.283090 0.362885 0.531849 -0.385654 -0.167024 0.891982 
0.439072 0.128164 0.075121 0.125587 0.128485 -0.919204 
0.746485 1.540921 0.575428 0.501531 -0.669479 0.281096 
-0.255642 2.287557 0.510691 -0.671760 0.581128 0.409470 
-0.491460 -0.419419 -0.026573 0.339256 0.070107 -0.827994 
1.795041 2.373508 1.330386 -0.140407 0.900308 -0.402595 
1.184940 0.896446 -0.330338 0.697205 -0.323167 0.614625 
1.302602 0.868002 -0.463129 0.734969 -0.103262 0.660643 
-1.176884 0.819543 -0.812981 -0.832007 -0.322025 0.338450 
-1.253021 1.386633 -0.496903 -0.839471 -0.137031 0.486292 
-0.591892 0.401091 0.183922 -0.838470 -0.355147 0.407581 
1.165718 0.782672 -0.311010 0.752939 -0.206767 0.610628 
-0.775187 0.446700 -0.180877 -0.864827 -0.233623 0.437848 
-0.617509 -0.352893 -0.133157 -0.758874 -0.090723 0.614139 
0.824135 0.004649 -0.132615 0.700879 -0.143381 0.680871 
0.895857 0.808619 -0.005906 -0.646920 0.313231 -0.676258 
1.808905 2.236834 1.039039 0.177409 -0.872419 0.449189 
-0.994730 2.239638 -0.542391 0.707011 -0.446625 -0.531241 
0.553050 0.587811 0.406543 0.129395 -0.271368 0.887028 
1.639773 1.997005 0.643421 0.215166 -0.895007 0.368735 
0.382532 -0.375449 0.188022 0.724522 -0.209971 0.653217 
0.061150 1.247152 0.237894 0.533480 0.254314 -0.797321 
-0.318342 -0.541609 0.213580 -0.720808 -0.221906 0.647930 
0.650559 1.219287 0.403927 -0.479705 0.501056 -0.705800 
1.058399 1.643042 0.400334 -0.370285 0.726367 -0.546489 
0.618256 1.471352 0.523397 -0.401007 0.585690 -0.695402 
-0.659435 1.274132 0.531265 -0.964758 0.071761 0.215805 
-0.325691 2.805191 -0.173611 0.820278 -0.309874 -0.473718 
0.784306 0.367461 0.016119 0.763564 -0.254757 0.587494 
0.164817 1.164364 0.636802 -0.465857 0.392354 0.744736 
1.815499 1.770264 0.222122 0.273791 -0.746741 0.572036 
-0.224779 -0.901973 0.071596 0.214527 -0.099079 -0.959871 
0.125941 0.836681 0.583643 0.273568 -0.177852 0.942257 
1.899996 1.525330 -0.125026 0.268517 -0.754938 0.593643 
0.156554 -0.500636 0.350031 0.168240 -0.304568 0.927986 
0.884433 -0.212797 -0.249837 0.576727 -0.012293 0.803638 
-0.005418 3.333729 -0.019134 0.794505 -0.270627 -0.540441 
-0.915294 1.428521 -0.004154 0.775805 0.018964 -0.561224 
-0.669090 0.895286 0.194089 0.729458 0.391704 -0.557707 
-0.194497 2.635299 0.125106 -0.655171 0.501871 0.548233 
-1.375444 1.456998 -0.629739 -0.837608 -0.206137 0.487227 
0.594345 1.205852 0.456555 -0.475281 0.488889 -0.717956 
-1.139904 0.912535 -0.724352 -0.877169 -0.341476 0.315644 
0.450886 -1.389610 -0.007205 0.697722 -0.448314 -0.340729 
0.488840 0.888606 0.522313 0.634912 -0.293658 0.692278 
-0.699799 0.380630 -0.062993 -0.855739 -0.261674 0.435537 
-0.897224 0.824084 -0.276259 0.822502 0.184992 -0.511642 
-1.108480 1.234523 -0.366805 -0.845682 -0.091982 0.477689 
0.987324 1.594146 0.505083 0.344754 -0.832713 0.359251 
-0.336112 -0.992771 0.080354 -0.380345 -0.168833 0.892190 
-1.286803 1.579733 -0.477725 0.812601 0.059351 -0.529039 
0.031432 -0.191928 -0.096278 0.402151 -0.174632 -0.875608 
0.170101 1.218359 0.432764 0.618455 0.770590 0.011090 
1.301599 1.228030 -0.414191 0.582273 -0.479913 0.642183 
0.642334 0.244466 0.141503 0.753012 -0.284050 0.586247 
0.872302 1.148663 0.149545 -0.535749 0.488291 -0.664324 
-0.039863 0.533897 -0.084126 -0.479042 0.157085 -0.853867 
-0.230447 2.166125 0.628349 0.753524 -0.445627 -0.471236 
0.999076 1.701887 0.584683 -0.284180 0.858423 -0.370292 
0.190182 -0.896664 0.166282 0.178919 -0.258776 0.945021 
0.701667 0.728054 0.186146 -0.941829 0.199159 -0.198260 
-0.424280 -0.870994 0.027903 -0.670812 -0.058160 0.731387 
0.757347 1.612382 0.591807 -0.327821 0.783860 -0.484289 
-0.345728 -0.597470 0.168595 -0.720652 -0.182319 0.655858 
