2.303534 0.834519 0.133535 0.175696 -0.262225 -0.928180 
-2.176223 0.584408 -0.015776 0.173973 -0.081093 -0.952709 
-2.298992 -0.234325 0.043566 0.455604 -0.337987 -0.802116 
1.691233 -0.471403 0.146199 0.129328 -0.165311 -0.962560 
0.248207 0.877653 0.372530 0.702699 0.216094 0.634474 
-0.125664 0.991168 0.450260 -0.208900 0.008715 0.974469 
-1.941436 0.465134 0.149124 -0.285381 -0.115292 0.916584 
0.324969 0.846498 0.240862 0.884915 0.379298 0.053519 
1.110584 0.507158 0.268502 0.191095 -0.085351 0.964600 
-2.127105 0.937565 0.049096 -0.541618 -0.321599 0.739748 
0.450163 -0.028979 0.046191 0.558469 0.004807 -0.788452 
-0.277191 0.231958 0.316654 -0.109626 -0.318563 0.941307 
-1.438605 -0.325204 0.186317 -0.008620 -0.057385 -0.986617 
-3.004687 -0.208196 -0.199353 0.182839 -0.267256 -0.943032 
-2.625437 0.941390 -0.239073 0.284522 0.037319 -0.954826 
-1.715060 0.435039 0.143350 0.112955 -0.191146 -0.967105 
0.298692 0.118294 -0.092653 0.716075 -0.036393 -0.676801 
-0.953037 0.202241 0.264239 -0.157413 -0.204197 0.963237 
1.463486 0.920231 0.185960 -0.362759 0.425503 -0.715378 
-1.211408 0.595232 0.275612 -0.111687 -0.021982 0.980428 
1.500559 -0.666970 0.125910 0.081580 -0.080655 -0.991662 
-3.363400 0.607974 -0.359920 -0.031236 0.113532 0.980318 
1.845865 -0.604741 0.288614 -0.355488 0.351761 0.862606 
-1.611697 0.845664 0.232949 -0.144906 -0.025245 0.973095 
2.322054 -0.628835 0.411722 0.237693 -0.371479 -0.891318 
-2.185096 0.183060 -0.033018 0.607102 -0.199967 -0.748440 
-0.378989 0.015181 0.216916 -0.139880 -0.259723 0.940443 
2.700402 0.095873 0.207327 0.262771 -0.194338 -0.940140 
-2.203459 0.961857 0.025002 -0.498393 -0.186774 0.821705 
2.263576 0.891040 0.147637 0.032900 -0.265240 0.918883 
-0.844557 -0.695788 0.155489 -0.016157 -0.056585 0.990846 
2.743876 -0.056555 0.265675 0.291641 -0.234605 -0.921493 
-0.207141 -0.176877 0.243921 -0.350264 -0.142294 0.879456 
1.760647 -0.616797 0.254231 0.274151 -0.314397 -0.891651 
-2.716812 -0.541506 0.006763 0.277151 -0.314832 -0.904972 
2.021047 0.600348 0.081238 -0.070079 -0.189037 -0.971881 
-1.743257 0.525674 0.142340 0.118166 -0.201960 -0.965183 
-1.136719 0.507758 0.275093 -0.201415 -0.144650 0.953699 
-0.166908 -0.040414 0.268679 -0.205852 -0.179059 0.939882 
2.680520 0.019486 0.224593 0.287779 -0.209272 -0.928316 
-3.061791 0.655207 -0.375910 0.025631 0.037751 -0.990456 
0.040181 -0.718037 0.215474 0.348294 -0.066384 0.926222 
2.668364 0.713722 0.163606 0.073298 -0.293389 -0.946179 
-0.287573 -0.468766 0.184426 -0.581212 -0.118955 0.796019 
1.485253 0.822540 0.120844 -0.250706 0.184226 -0.950221 
1.436471 0.431401 0.147862 0.034326 -0.170548 -0.984432 
-0.655223 0.257776 0.141638 -0.404556 -0.017690 -0.850909 
-0.006035 -0.644149 0.236311 -0.485789 -0.093558 0.865057 
2.265773 1.115047 0.147611 0.244143 0.382770 -0.837326 
2.417558 -0.351487 0.315060 -0.001887 0.326601 0.901949 
0.916671 -0.284700 0.173199 0.082275 0.003268 -0.986915 
-3.112039 1.045736 -0.373485 0.051974 0.390517 -0.886633 
0.333368 0.275447 0.315915 0.096188 -0.266071 0.955940 
0.952147 -0.846555 0.125675 0.066866 -0.063608 0.991095 
-2.892626 0.628281 -0.346409 0.248554 -0.099199 -0.948655 
1.649591 -0.534932 0.151441 0.131149 -0.158190 -0.963118 
1.177081 -0.542127 0.157127 0.032879 -0.096247 0.992657 
-1.579682 -0.115295 0.144881 0.092642 -0.082919 -0.975754 
-0.238767 0.546589 0.428332 -0.135728 -0.209478 0.965743 
-1.599086 -0.036343 0.144603 0.095893 -0.102813 -0.974656 
3.238901 0.125476 0.506252 -0.535126 0.151729 0.815977 
-0.681712 -0.054707 0.225262 -0.058271 -0.189816 0.960675 
2.902122 0.419854 0.237584 -0.401903 0.032236 0.889983 
-2.506573 -0.393254 0.025921 0.210281 -0.274077 -0.928698 
2.432592 0.108305 0.144852 0.360681 -0.148119 -0.907837 
-0.462556 0.038492 0.232784 -0.081361 -0.255371 0.938776 
3.629997 0.694409 0.696908 -0.555135 0.207537 0.765902 
-1.102122 -0.141363 0.218115 -0.027760 -0.086389 0.990754 
2.089537 -0.352373 0.242786 -0.438705 0.266668 0.843765 
2.255191 1.004132 0.175568 0.051729 -0.076672 0.957677 
-2.261745 -0.052678 0.006741 -0.035508 0.116986 0.986348 
-2.061942 0.973351 0.066121 0.212850 -0.308428 -0.911483 
2.777404 0.864057 0.255483 -0.226095 0.000009 0.920828 
0.067433 0.097078 -0.304574 0.538985 -0.001810 -0.829766 
-1.384418 0.262608 0.209643 -0.223121 -0.140589 0.941219 
0.447084 -0.219694 0.019421 0.517696 -0.007816 -0.822688 
-0.005970 -0.228450 0.275594 -0.106665 -0.020301 0.989033 
-2.725870 -0.234996 -0.110038 -0.396698 0.287718 0.822821 
1.826086 -0.469508 0.223940 0.243365 -0.299674 -0.903988 
0.010017 0.393994 0.405889 0.002264 -0.346079 0.936660 
0.530609 -0.310999 0.113025 0.256085 -0.122850 0.946005 
-0.190112 -0.086155 -0.200230 -0.600834 -0.095854 -0.769023 
1.824575 0.279120 0.114589 0.041191 -0.039778 0.963887 
2.369317 -0.547618 0.385092 0.265854 -0.353896 -0.888461 
2.889932 -0.205071 0.372442 0.333699 -0.321171 -0.883608 
2.574623 -0.260704 0.298876 0.363485 -0.293430 -0.879317 
-0.492583 0.360343 0.107756 -0.608010 0.108981 -0.730522 
-2.646197 1.083092 -0.232119 0.305536 0.166622 -0.935696 
-1.183213 0.262441 0.233750 -0.181615 -0.195284 0.945673 
3.075921 0.275863 0.348130 -0.529080 0.058717 0.829822 
-3.070482 0.988858 -0.378915 0.142197 0.028943 -0.976517 
-1.584535 0.054217 0.172572 -0.193568 -0.018551 0.959149 
0.032518 0.543634 -0.244795 0.461401 0.347245 -0.802275 
-2.918233 0.127392 -0.257751 -0.158995 0.120970 0.958394 
-3.573221 0.486671 -0.328087 -0.103353 -0.073292 -0.988642 
-0.785578 0.082074 0.270878 -0.006939 -0.215560 0.966642 
-0.724126 0.262445 0.160649 -0.335325 -0.015020 -0.886182 
-3.077354 0.082764 -0.265145 0.195017 -0.302556 -0.923666 
-1.751509 0.610832 0.143310 0.117017 -0.210729 -0.964089 
2.940246 -0.230454 0.415628 -0.365598 0.279804 0.880375 
0.179909 -0.629183 -0.030665 0.185149 -0.350500 -0.909185 
0.724502 -0.418370 0.126472 0.190119 -0.034981 -0.951667 
0.483477 -0.296675 0.019007 0.469884 -0.010064 -0.848542 
2.668604 0.967561 0.178882 0.311185 0.047693 -0.947365 
-0.780893 0.654048 0.295799 0.015063 0.272717 -0.882014 
-1.391046 0.167236 0.170918 0.017663 -0.107854 -0.980992 
-2.496350 0.034487 -0.128130 0.184597 -0.189712 -0.957650 
-1.284499 0.455821 0.188851 -0.030731 -0.149260 -0.983337 
2.624548 0.634700 0.166443 -0.120960 -0.034164 0.976699 
0.625357 0.521081 0.231439 0.323904 0.483730 -0.699453 
-2.568430 0.564300 -0.220089 0.447896 -0.115875 -0.871756 
-1.078378 0.003765 0.230073 -0.072160 -0.139917 0.975718 
-2.782289 -0.434912 -0.058633 0.249684 -0.299662 -0.917605 
-0.367561 0.753756 0.286141 -0.867899 0.410912 0.205948 
0.504130 -1.118859 0.144571 0.180335 0.187062 0.901274 
3.106540 0.339682 0.348804 -0.553317 0.032668 0.821531 
0.327761 0.002211 0.242732 0.256573 -0.257161 0.886708 
-1.474275 -0.384590 0.202881 -0.023427 0.021486 0.988974 
-0.773913 -0.222044 0.177777 -0.115301 -0.118106 0.970265 
0.109426 -0.704076 0.197325 0.199015 -0.116814 0.965938 
-0.343937 0.399099 -0.012331 -0.716180 0.092148 -0.684090 
-2.270122 0.195244 -0.012405 -0.325736 0.049754 0.927119 
-0.277166 -0.198867 -0.092053 -0.626807 -0.155514 -0.746409 
-1.511971 -0.329548 0.180472 0.012313 -0.072315 -0.984327 
0.396171 0.533151 0.333653 0.222436 0.086289 0.883462 
-3.444853 0.510678 -0.340174 -0.085716 -0.038668 -0.990374 
-2.180146 0.886295 0.017228 -0.528371 -0.279008 0.760046 
-0.042362 0.521856 0.454646 -0.061662 -0.305613 0.948769 
0.017941 0.678642 -0.174354 0.322750 0.538617 -0.767806 
3.509526 0.790087 0.572343 -0.440928 0.345778 0.786484 
-1.321408 0.829200 0.228847 0.000685 0.187139 0.922633 
-2.496705 0.725757 -0.162553 -0.444125 -0.095244 0.861962 
-2.001656 -0.123811 0.111180 0.234306 -0.185310 -0.947033 
0.188150 -0.632894 0.189534 0.215165 -0.184606 0.950772 
1.678427 -0.636625 0.216022 -0.211936 0.219673 0.926563 
-0.041593 1.154703 0.002782 -0.467656 0.153310 -0.856959 
-0.624387 -0.630619 0.132677 -0.202163 -0.087493 -0.959426 
-3.132720 0.670655 -0.382522 -0.139248 0.162485 0.964888 
-0.277121 -0.872850 0.134908 -0.134169 -0.008830 0.956078 
0.037262 0.366805 -0.309085 0.539320 0.171445 -0.803253 
-1.066751 -0.070538 0.226801 -0.044528 -0.118983 0.983940 
1.926845 0.828284 0.084919 -0.007589 -0.226471 -0.969633 
-0.367734 -0.536894 0.015324 -0.478350 -0.061256 -0.850551 
3.308479 0.384083 0.480870 -0.457788 0.253558 0.833907 
0.580537 0.054788 0.247565 0.059062 -0.243265 0.950045 
-1.120646 0.121190 0.197613 -0.069976 -0.048976 -0.990746 
-1.876691 0.688674 0.171013 -0.311582 -0.223084 0.896125 
-0.106020 0.008720 0.280625 -0.127485 -0.178578 0.970421 
-1.528414 0.795369 0.157970 0.047108 -0.024523 -0.980574 
-0.525971 -0.626838 0.093697 -0.291413 -0.085717 -0.924682 
0.046238 -0.473698 0.251705 0.132962 -0.203153 0.964030 
1.193115 -0.340448 0.182963 0.013696 -0.059755 0.994012 
-2.075758 0.688783 0.031582 0.066413 -0.049059 -0.983245 
-0.470324 -0.318721 0.110097 -0.264898 -0.131153 0.940590 
0.772030 -0.196865 0.175555 0.140135 -0.130051 0.967983 
3.212294 0.461003 0.389202 -0.400554 0.271400 0.860236 
2.583599 0.288203 0.144868 0.203093 -0.091758 -0.969466 
-0.258256 0.792186 0.002874 -0.609465 0.466496 -0.621698 
-0.929319 0.360867 0.211420 -0.039247 0.235593 -0.938942 
1.931311 1.115309 0.079330 -0.061283 0.044034 -0.976293 
-0.151141 0.914193 0.443289 -0.301550 0.006954 0.938018 
1.084760 -0.621260 0.142090 0.015579 0.050044 -0.993702 
1.831391 -0.354718 0.173692 0.180353 -0.242321 -0.933629 
0.518369 -0.723202 0.132450 0.150204 0.001155 0.979391 
1.771225 0.429236 0.097967 0.041611 -0.188544 -0.979761 
-2.487748 0.329483 -0.180572 0.313678 -0.053316 -0.934733 
-0.056051 0.863841 -0.068520 -0.440985 0.358747 -0.806234 
1.955930 -0.410174 0.230781 0.184151 -0.342178 -0.898921 
-1.026929 -0.130055 0.228265 -0.018902 -0.108331 0.991585 
0.034499 1.029353 -0.021550 0.326112 0.233393 -0.906653 
3.326827 0.162976 0.547301 0.512300 -0.237299 -0.816928 
0.887663 -0.458806 0.180839 0.069502 -0.063027 0.991742 
-0.153938 -0.587249 -0.058840 -0.240708 -0.394813 -0.879660 
2.983398 0.716598 0.261068 -0.312965 0.022760 0.924178 
-0.036378 0.184064 0.326773 -0.043323 -0.271944 0.955676 
-0.197024 0.181191 0.313275 -0.120916 -0.278869 0.951409 
-1.650637 0.180789 0.144550 0.103185 -0.157923 -0.971779 
0.749059 0.146680 0.275683 0.041635 -0.240302 0.959887 
-0.359087 -0.295294 0.122823 -0.343574 -0.155046 0.904747 
-2.723817 1.060731 -0.271350 0.298690 0.109069 -0.946697 
-1.675644 -0.138542 0.139666 0.115112 -0.102703 -0.973279 
0.845857 -0.048056 0.235158 0.047074 -0.171841 0.974535 
0.826319 0.210225 0.175393 0.224022 -0.021767 -0.933362 
-0.961692 0.524562 0.271850 -0.046432 0.211132 0.961236 
1.896227 1.170186 0.122633 -0.858997 0.028513 0.450523 
1.782179 0.897424 0.148351 0.184226 -0.315236 0.919028 
-1.522532 -0.052285 0.173317 -0.144622 -0.000882 0.971935 
-0.330066 0.447628 -0.065297 -0.709949 0.106379 -0.690320 
-1.358349 0.696674 0.262901 -0.095596 0.013954 0.986779 
-0.959390 0.305551 0.280897 -0.198346 -0.200269 0.957806 
1.863852 -0.536200 0.263369 0.270393 -0.355766 -0.880481 
-0.665979 0.496821 0.238195 -0.276836 0.490834 -0.715520 
2.411829 -0.282102 0.284802 0.054330 0.318472 0.901668 
-0.384300 0.642328 0.040604 -0.726317 0.419171 -0.494377 
-1.698711 -0.649687 0.227646 0.009094 0.107402 0.985671 
-2.798476 1.090088 -0.300219 0.290858 0.267481 -0.908110 
-2.811638 -0.146153 -0.178147 0.206680 -0.246571 -0.943606 
-0.303496 -0.246580 -0.044564 -0.615663 -0.094210 -0.771049 
0.073559 -1.204396 0.229370 0.042591 -0.430494 -0.882006 
-0.864237 -0.268729 0.158196 -0.176879 0.003784 -0.963265 
0.602663 -0.710531 0.154188 0.105296 0.007078 0.989046 
-0.532214 -0.056493 0.207784 -0.108069 -0.212023 0.945928 
1.538996 0.679305 0.181192 0.237297 -0.257154 0.917015 
-1.803493 1.011473 0.142669 0.345842 0.431308 -0.717477 
0.996505 0.316413 0.203786 0.088953 -0.066907 -0.991646 
0.473191 -0.541159 0.054500 0.358991 -0.070621 -0.894851 
-2.974180 0.632345 -0.349556 -0.262338 0.190701 0.928144 
-1.436505 0.642470 0.225112 -0.309990 -0.275862 0.903182 
2.341479 0.308224 0.136894 0.008067 0.077893 0.988693 
-1.086691 0.620979 0.259954 0.010961 0.203005 0.967984 
0.636590 0.527730 0.320378 -0.043481 0.326515 0.934213 
1.275337 0.051562 0.162611 0.042496 -0.052448 -0.992353 
2.230145 0.822492 0.140237 0.036559 -0.245652 0.927276 
-0.298381 0.650185 -0.100208 -0.605716 0.367632 -0.699590 
3.279092 0.454415 0.434325 0.605994 -0.034684 -0.786559 
-0.519685 -0.810019 0.139929 -0.100310 0.020466 0.989396 
-0.612919 -0.034020 0.224660 -0.069982 -0.207443 0.953826 
-0.103978 0.859363 0.456262 -0.233862 -0.043826 0.966798 
-0.285050 0.155056 -0.159179 -0.751659 -0.023433 -0.639573 
-1.148132 0.327265 0.242956 -0.202491 -0.221087 0.940338 
-1.238769 -0.576042 0.178823 -0.086829 0.031629 -0.992144 
-2.398068 0.621321 -0.128798 0.399974 -0.090844 -0.889361 
-1.879303 1.068577 0.145459 0.509413 0.589937 -0.524540 
2.170046 -0.454785 0.300296 0.128232 -0.369906 -0.904744 
0.960947 -0.614764 0.144461 0.050594 0.007892 -0.988434 
-0.453397 0.199813 0.287610 -0.000989 -0.312319 0.937744 
-2.142011 1.052561 0.069713 -0.605930 -0.052615 0.761438 
0.074294 0.114389 0.298700 0.082680 -0.233595 0.965644 
-2.036270 0.580420 0.087125 -0.227744 -0.197728 0.929590 
-0.910296 0.071492 0.194244 -0.171907 -0.005306 -0.961670 
0.293863 -0.761088 0.029414 0.052150 -0.316202 -0.923744 
3.451118 0.433173 0.572738 0.600439 -0.122709 -0.783770 
0.237096 0.481029 -0.166709 0.647372 0.143457 -0.728636 
0.404176 0.210593 0.066053 0.651220 0.016892 -0.729502 
1.103557 -0.385386 0.166025 0.021792 0.053335 -0.997402 
1.483789 0.471975 0.181905 0.217177 -0.175301 0.927261 
0.206578 1.137072 0.474079 -0.047214 -0.142654 0.871996 
2.944702 -0.148451 0.391365 0.345582 -0.320155 -0.876077 
2.050860 1.059118 0.094067 0.217101 -0.052234 -0.972635 
0.060780 -0.575018 -0.080248 0.177546 -0.445973 -0.867133 
1.491554 -0.075031 0.150032 0.005504 0.001411 0.989074 
-2.765060 1.004446 -0.259311 -0.366837 0.023345 0.908478 
1.466041 0.767453 0.209856 0.244309 -0.134187 0.941205 
0.554839 0.524691 0.359378 -0.062513 0.241975 0.955618 
-0.041344 0.264192 0.354826 -0.019241 -0.328524 0.939989 
0.137878 0.543260 -0.187433 0.527348 0.277061 -0.761340 
1.974049 0.909302 0.075875 0.377083 -0.025027 -0.923965 
-1.470630 -0.004997 0.158571 0.051854 -0.086052 -0.979029 
-2.323775 1.107790 -0.035339 -0.432528 0.200220 0.825809 
-2.374280 -0.575279 0.145579 0.309927 -0.333824 -0.873872 
0.464389 -0.974140 0.128467 0.113921 0.053282 0.990035 
0.832103 0.540502 0.261331 -0.082378 0.368797 -0.869065 
-1.253528 -0.784666 0.149110 -0.090623 0.075611 -0.989699 
0.795497 0.389799 0.317477 0.091209 0.090070 0.963086 
1.400615 0.285649 0.185631 0.175496 -0.130677 0.943383 
-0.005229 0.653816 0.471543 -0.030217 0.175034 0.979453 
0.268246 0.679742 -0.085720 0.550440 0.485677 -0.651101 
-2.976245 1.072553 -0.349304 0.182894 0.326799 -0.901727 
-3.145759 0.497853 -0.349956 -0.170831 0.291397 0.935062 
-2.603934 1.026474 -0.177132 -0.434297 0.004806 0.870736 
0.131417 0.092358 -0.260167 0.594521 -0.016515 -0.779156 
-2.818031 -0.042808 -0.206502 -0.265050 0.214621 0.935971 
-0.939747 -0.692894 0.143042 -0.126152 0.018317 -0.982532 
-0.643971 0.336441 0.140433 -0.438910 0.096665 -0.827287 
-0.160707 -0.149680 -0.213419 -0.556797 -0.114013 -0.807113 
0.972745 -0.339659 0.172773 0.055148 0.016478 -0.992820 
2.992656 -0.060593 0.395286 0.343602 -0.326867 -0.871717 
0.333373 -0.268488 -0.018607 0.601342 -0.019588 -0.795334 
-0.414403 0.569403 0.073172 -0.709869 0.285426 -0.639797 
-0.707938 -0.636899 0.148573 -0.158638 -0.071950 -0.975374 
0.150478 0.297692 -0.262756 0.664717 0.068383 -0.717930 
2.174090 1.032207 0.163483 0.095477 -0.087854 0.963682 
-0.074537 1.006155 -0.009356 -0.398980 0.234358 -0.863564 
-0.371954 0.617314 0.371499 -0.435342 0.070716 0.818323 
-0.503992 0.083333 0.078716 -0.555929 0.009583 -0.776682 
-2.327251 0.265856 -0.103500 0.140087 0.011690 -0.980813 
2.429222 0.032069 0.157313 0.365377 -0.202707 -0.900638 
0.345633 0.274678 0.049526 0.711955 0.031157 -0.698909 
-0.305922 0.224596 -0.088584 -0.753060 0.000402 -0.648154 
-1.393970 -0.477977 0.221333 0.024305 0.006142 0.994291 
2.330600 0.023590 0.147543 0.421519 -0.173973 -0.879420 
1.451166 0.352142 0.144451 0.037383 -0.157396 -0.985596 
-0.183404 -1.055091 0.142463 0.182106 -0.382062 -0.901262 
-1.101130 0.756492 0.256107 0.190905 0.182998 -0.963742 
-2.094873 0.019658 0.037481 0.406432 -0.198244 -0.857072 
2.579007 0.703395 0.154627 0.096077 -0.246123 -0.948968 
1.156503 -0.634701 0.145957 0.045747 -0.118404 0.991847 
3.642148 0.403334 0.741717 -0.641372 0.132109 0.753847 
3.773146 0.521544 0.849070 -0.670590 0.097856 0.734406 
-1.367982 0.467457 0.224475 -0.289311 -0.211498 0.919620 
-0.039365 0.570382 -0.227312 -0.439587 0.368395 -0.799997 
-2.922021 0.847058 -0.357357 0.230428 0.014066 -0.962718 
-2.007811 0.194659 0.072570 0.316350 -0.182145 -0.901391 
-0.200262 0.354141 -0.210375 -0.697060 0.112151 -0.670652 
-2.933442 0.221321 -0.278565 -0.127959 0.080005 0.965884 
0.221499 -0.100749 -0.177763 0.617787 -0.110003 -0.750946 
0.407923 0.009458 0.216258 0.132033 -0.252423 0.938573 
2.324676 -0.213285 0.226428 0.393348 -0.271234 -0.870786 
1.148208 0.304715 0.185106 0.035077 -0.088324 -0.989748 
-1.689202 0.346701 0.144164 0.108414 -0.180729 -0.968915 
0.092166 -0.175736 0.271286 0.170882 -0.074556 0.974728 
2.456773 0.830200 0.148043 0.135361 -0.321408 -0.927370 
-0.382563 0.426694 0.055255 -0.725001 0.142969 -0.661485 
-1.942668 1.019788 0.118267 0.081717 -0.212785 -0.957330 
3.370449 -0.023683 0.642638 -0.533037 0.239932 0.806520 
1.420064 0.211316 0.145885 0.041130 -0.118075 -0.988192 
2.270977 0.640797 0.121565 0.206716 -0.082837 -0.947532 
0.258640 -0.530657 0.189777 0.481812 -0.106249 0.866660 
-2.583787 -0.611383 0.082561 0.286584 -0.318900 -0.898532 
2.470663 1.101836 0.180384 -0.077837 0.394219 0.877575 
-3.189824 0.856558 -0.404759 0.055398 -0.047218 -0.994062 
0.060196 -1.141505 0.197523 0.097585 -0.448236 -0.877319 
0.006447 -1.187392 0.211451 0.340312 -0.424358 -0.813337 
0.083613 0.679651 0.463650 0.069671 0.161277 0.978752 
-0.729098 0.165899 0.152873 -0.342101 -0.008090 -0.879272 
-0.210880 -0.786479 0.023011 -0.015897 -0.324765 -0.918018 
2.226224 0.279765 0.075655 0.338899 0.001472 -0.933431 
1.190106 -0.076537 0.197206 0.058060 -0.087377 0.985298 
2.639759 0.539376 0.163058 -0.139224 0.012723 0.988422 
0.260045 0.272068 0.338073 0.110642 -0.314341 0.941812 
1.686252 0.747872 0.158592 0.192215 -0.264689 0.922541 
-0.308156 0.767493 0.071254 -0.732982 0.445290 -0.454604 
3.482626 0.203394 0.658225 -0.573664 0.203087 0.787034 
3.404770 0.370472 0.551592 0.621251 -0.090393 -0.770225 
-0.139394 1.216937 0.088850 -0.756807 0.485623 -0.422561 
-0.367977 0.700634 0.336961 -0.734325 0.402251 0.390758 
3.137699 0.709481 0.314117 -0.432919 0.045303 0.886086 
0.129862 1.255358 0.243937 0.380730 0.860442 0.141203 
2.209045 0.977467 0.107121 0.204822 -0.049446 -0.976516 
0.624487 -0.834576 0.126324 0.138951 -0.110593 -0.970772 
-1.370757 -0.549883 0.208823 -0.079196 -0.034212 -0.993439 
-0.059042 -0.144028 -0.259082 -0.467758 -0.173256 -0.833061 
0.764668 0.000823 0.245141 0.041939 -0.199747 0.967016 
0.131983 1.097958 0.009814 0.506116 0.234054 -0.825165 
0.334739 0.483247 -0.070439 0.708565 0.134537 -0.686567 
-1.844244 0.819270 0.138053 0.138246 -0.237729 -0.958579 
-2.721871 -0.473219 -0.021651 0.256045 -0.302708 -0.913819 
-2.950431 0.718770 -0.353247 0.120703 0.089239 -0.974720 
-2.242466 -0.187065 0.046321 0.436520 -0.318725 -0.814871 
-1.186655 0.705196 0.227908 0.298663 0.317692 -0.889950 
0.694281 0.551893 0.284719 0.147468 0.535640 -0.741688 
-0.574782 0.350888 0.126123 -0.517678 0.105347 -0.781514 
0.865772 0.018876 0.165328 0.200807 0.018501 -0.932855 
-1.063619 0.538737 0.228757 0.249172 0.430214 -0.855409 
-1.709303 0.669654 0.149020 0.100346 -0.213128 -0.965205 
0.948995 0.711360 0.261035 -0.199720 0.149537 -0.966594 
1.548199 0.428325 0.168875 0.182448 -0.146554 0.934671 
-0.141174 0.123254 0.297448 -0.116047 -0.249235 0.959770 
0.807396 0.432773 0.234143 0.015374 0.502100 -0.798649 
1.878812 -0.055200 0.077195 0.061872 -0.143086 -0.987353 
-1.173727 -0.646026 0.155114 -0.091845 0.077932 -0.990807 
-2.309478 0.338051 -0.098328 0.191999 0.048320 -0.966257 
-0.154083 1.154059 0.342647 -0.910634 0.063929 -0.165810 
3.427931 0.215532 0.614542 -0.540042 0.222394 0.801042 
0.423647 0.038145 0.047992 0.595812 0.007162 -0.767576 
0.843139 0.257925 0.271776 0.145049 -0.234291 0.954009 
1.624954 0.423374 0.119706 0.038682 -0.180003 -0.981931 
0.683523 -0.085673 0.102917 0.351172 0.018777 -0.873550 
1.468113 -0.165878 0.149241 -0.008572 0.006250 0.992658 
-0.198015 1.257185 0.401462 -0.846405 -0.437074 -0.247918 
-1.391268 -0.755156 0.180929 0.067472 -0.038865 0.991087 
-3.545334 0.633197 -0.353209 -0.076889 -0.078946 -0.991254 
-1.516725 0.295041 0.195821 -0.261394 -0.115106 0.934825 
0.325039 0.251134 -0.019157 0.734879 0.014708 -0.673483 
0.721488 -0.839517 0.136119 0.088521 -0.010808 0.990725 
-2.054293 -0.299869 0.166862 -0.154114 0.192900 0.961794 
-0.491527 0.648427 0.311584 -0.494046 0.654444 -0.549861 
-0.160326 1.014392 0.017602 -0.571267 0.210956 -0.778339 
-0.330645 -1.118650 0.152981 -0.078452 0.145116 0.918769 
0.130037 -0.356904 -0.185720 0.464286 -0.279044 -0.821611 
1.677932 -0.364240 0.107784 -0.058410 0.074783 0.994324 
1.693553 0.460850 0.109833 0.038761 -0.187465 -0.980256 
0.199343 -1.205248 0.189204 -0.188826 0.016357 0.623237 
-3.833430 0.749448 -0.299895 0.163418 -0.013115 0.981053 
-0.002401 0.488765 -0.285494 -0.471678 0.306914 -0.820802 
-3.264026 0.853773 -0.399639 0.007847 -0.082982 0.983585 
1.487294 -0.426245 0.134576 -0.038337 0.027209 0.994880 
0.231539 0.400785 -0.184714 0.694660 0.115014 -0.683345 
-0.540251 -1.099485 0.138111 -0.093203 0.158110 0.938343 
1.578509 0.044355 0.143462 0.041114 -0.007662 0.975489 
1.904240 -0.661304 0.326435 0.309528 -0.384848 -0.867404 
-3.659619 0.366657 -0.304869 -0.094507 -0.126075 -0.985817 
-2.878690 0.847289 -0.276229 -0.238996 0.020349 0.931084 
0.870644 -0.229361 0.143764 0.154850 0.018255 -0.960468 
0.748608 0.185940 0.152706 0.305036 -0.008836 -0.893121 
0.692256 0.471488 0.321507 -0.012132 0.284680 0.947193 
-1.656649 0.676346 0.198630 -0.311927 -0.254208 0.898681 
0.190421 1.168826 0.170805 0.831350 0.490866 -0.200677 
-0.475075 -1.057850 0.123220 -0.140863 -0.196866 -0.967037 
-2.038089 1.144616 0.099633 -0.435064 0.588517 0.666697 
-0.370532 0.201967 0.281394 -0.073955 -0.296230 0.949390 
2.751934 0.584882 0.167464 0.065281 -0.241273 -0.959802 
2.646658 -0.356600 0.356529 0.324052 -0.319686 -0.885852 
-0.041520 1.367781 0.097957 -0.551473 0.772377 0.124372 
0.453045 -0.753106 0.117686 0.177649 0.002573 0.973810 
3.540629 0.288022 0.677786 0.621079 -0.168210 -0.762909 
3.239807 0.943958 0.362245 0.531570 0.397051 -0.712969 
-2.326680 -0.030386 -0.011821 -0.197217 0.154554 0.927172 
0.297962 0.191287 -0.115866 0.746314 -0.008728 -0.650107 
-2.067253 -0.680920 0.295902 0.107071 -0.316019 -0.942588 
-0.130119 0.113118 -0.263071 -0.602393 -0.007863 -0.773639 
0.635166 -1.017019 0.128046 0.076207 -0.158205 -0.976115 
0.385665 -0.395565 -0.009903 0.518598 -0.030964 -0.836242 
-0.594304 0.432270 0.145324 -0.531473 0.176954 -0.756844 
-2.764827 -0.189638 -0.147531 0.172250 -0.253696 -0.949671 
-2.528130 0.243155 -0.174548 -0.418115 0.155360 0.878605 
1.153783 0.565075 0.268910 0.114821 0.021892 0.986788 
-0.264241 0.390368 0.380393 -0.103249 -0.259029 0.955898 
-1.888996 1.257538 0.180579 0.971687 -0.009346 0.030106 
0.680985 -0.162827 0.179367 0.144883 -0.154124 0.959581 
2.842266 0.579733 0.192323 0.085473 -0.300859 -0.943154 
-2.342542 -0.099118 -0.031171 0.419445 -0.313143 -0.840032 
-3.612791 0.422062 -0.316024 -0.099590 -0.097855 -0.987241 
-0.402521 -1.425925 0.163190 -0.397338 -0.787595 0.036374 
0.208459 0.728812 -0.069909 0.526490 0.489885 -0.667711 
0.679438 0.269310 0.142035 0.368234 -0.008026 -0.868200 
2.967454 0.961002 0.226831 0.312728 0.073468 -0.944991 
0.754461 0.258337 0.161892 0.292728 -0.026036 -0.903406 
0.324094 0.401796 -0.055230 0.707066 0.079840 -0.698706 
0.534580 0.553981 0.212612 0.494683 0.440567 -0.654934 
-2.117974 0.113124 0.007613 0.494667 -0.184764 -0.811081 
-2.747559 0.714380 -0.317316 0.355289 -0.031901 -0.928109 
1.402723 0.876522 0.196050 -0.056795 0.282292 0.879447 
0.780084 0.213071 0.276584 0.090060 -0.243491 0.955596 
-0.262302 0.980406 0.338884 -0.833005 0.154336 0.470753 
-1.189680 0.615149 0.185670 0.240710 0.234742 -0.934160 
-0.025822 0.879950 0.465068 -0.138687 -0.042560 0.980461 
2.259221 -0.014842 0.184466 -0.075167 0.207926 0.957196 
3.012817 0.591908 0.253588 0.499856 0.099986 -0.844831 
0.189223 1.261897 0.363582 0.858384 -0.468321 -0.151007 
2.101506 0.591516 0.074451 0.353209 -0.010976 -0.930812 
2.886650 0.764946 0.256296 -0.272561 0.009828 0.922784 
1.076517 0.649833 0.222693 -0.300773 0.321563 -0.882078 
1.460165 0.271238 0.141569 0.040244 -0.139967 -0.986789 
-0.105019 -0.864301 0.061761 0.036438 -0.433785 -0.895687 
1.545396 0.860724 0.112658 -0.247388 0.183302 -0.950568 
-3.581255 0.743149 -0.353516 -0.092365 -0.051140 -0.990601 
0.378046 0.659463 0.038720 0.741881 0.448315 -0.444804 
1.110645 -0.310753 0.191324 0.039615 -0.097053 0.992848 
0.083920 -1.025131 0.139564 0.043362 -0.428361 -0.884363 
3.485157 0.665586 0.552166 0.605355 -0.081634 -0.787403 
-0.123193 0.228289 0.342356 -0.095017 -0.293942 0.947251 
-0.330370 -0.824387 0.146694 -0.257201 -0.012919 0.935250 
-0.512992 -0.121391 0.056005 -0.504560 0.001573 -0.817100 
-0.045988 -0.696733 -0.003034 -0.206320 -0.435656 -0.865503 
3.026602 1.012201 0.264868 0.349169 0.303005 -0.865857 
-1.879526 1.024096 0.211639 -0.087086 0.082395 0.981780 
1.255409 0.700058 0.178994 -0.347677 0.335784 -0.846619 
1.367375 -0.455536 0.151865 -0.024700 -0.003306 0.995147 
1.624555 0.498242 0.120460 0.035883 -0.187432 -0.980519 
-0.521558 -0.704513 0.131595 -0.138521 -0.009759 0.979416 
-0.212186 -0.639008 -0.019069 -0.082893 -0.344619 -0.921332 
2.907479 -0.033366 0.332321 0.297055 -0.335201 -0.890256 
0.214773 -0.260895 0.235401 0.391629 -0.102655 0.869159 
3.396769 0.526368 0.509816 -0.553978 0.095038 0.818454 
0.335540 -1.298222 0.147288 0.167051 -0.066356 -0.942456 
2.260629 0.069524 0.159410 0.123108 0.185831 0.927569 
0.988027 -0.067675 0.229141 0.064719 -0.138526 0.984301 
3.310121 0.229202 0.523811 -0.468396 0.264947 0.831014 
3.060799 -0.156548 0.474208 -0.416524 0.261085 0.858692 
1.702871 -0.560727 0.194492 0.191824 -0.225771 -0.932585 
-2.793960 0.131524 -0.244604 0.274333 -0.230876 -0.927370 
-2.428177 0.032019 -0.102070 0.158037 -0.181435 -0.963890 
0.063658 -0.841735 0.056256 0.159105 -0.415235 -0.880784 
-2.336371 0.609265 -0.085655 -0.493847 -0.092551 0.836492 
-0.383678 -0.778529 0.066762 -0.339048 -0.123636 -0.908680 
0.156841 -0.977870 0.109408 -0.122871 -0.409250 -0.897972 
-0.101486 0.296784 0.371251 -0.072224 -0.325680 0.938684 
3.295030 0.913035 0.395294 -0.407741 0.236242 0.850907 
-0.808251 -0.375979 0.156504 -0.170982 -0.023390 -0.967331 
-2.314608 -0.449310 0.119357 0.348586 -0.333838 -0.851797 
-0.025678 0.726356 0.453285 -0.052585 0.081551 0.991638 
0.871094 0.193869 0.263459 0.128954 -0.215599 0.959951 
0.306415 0.262989 -0.100315 0.764014 0.018698 -0.638884 
0.794260 -0.001877 0.144620 0.275218 0.030034 -0.895988 
-1.141274 0.196799 0.197319 -0.066548 -0.068653 -0.989649 
0.563297 0.440715 0.136559 0.553170 0.183426 -0.743460 
0.517466 -1.050491 0.131700 0.034209 0.099242 0.992082 
0.385423 -0.387960 0.072463 0.330025 -0.115626 0.932800 
1.684132 -0.280291 0.101166 0.065817 -0.105899 -0.990562 
1.604077 0.725341 0.171876 0.220579 -0.267330 0.918391 
-2.521049 -0.464391 0.048305 0.234147 -0.287997 -0.919079 
-2.647340 -0.597708 0.054015 0.288308 -0.320551 -0.899026 
2.809186 0.644117 0.187181 -0.190389 0.016684 0.979409 
0.278813 0.800242 0.381070 0.577590 0.350529 0.674892 
-0.428315 -1.114650 0.134315 -0.120601 -0.210362 -0.966911 
1.941967 0.320930 0.105036 -0.062191 -0.059709 0.949374 
0.556565 -0.408431 0.059165 0.352193 -0.033367 -0.894740 
1.772093 -0.206723 0.089993 0.065189 -0.123321 -0.989214 
-1.021563 -0.675555 0.145131 -0.112985 0.048704 -0.985768 
-0.184426 -0.357120 -0.161705 -0.520737 -0.240569 -0.804829 
-2.421833 0.279680 -0.150643 0.210115 -0.031809 -0.963513 
-2.431438 -0.033557 -0.066362 -0.657744 0.300588 0.651020 
0.221016 0.550289 -0.151125 0.590692 0.246668 -0.730551 
-0.195974 0.553054 -0.160039 -0.565632 0.258061 -0.741689 
-3.151502 0.587873 -0.371267 -0.032337 0.028176 -0.994319 
2.173406 0.879226 0.122875 0.212312 -0.252720 -0.921468 
-3.141612 0.402754 -0.337500 0.215479 -0.345196 -0.900476 
0.770454 0.566526 0.286514 0.038774 0.234594 0.947971 
-1.000286 -0.187372 0.195871 -0.098350 0.023635 -0.992435 
2.573128 0.559929 0.148262 0.089346 -0.101230 -0.974899 
1.677532 0.352468 0.143213 0.115115 -0.093961 0.948752 
-2.578564 0.003083 -0.132739 -0.489556 0.253150 0.780142 
0.345855 -0.790025 0.133447 0.279895 -0.009952 0.937027 
-2.650672 0.669681 -0.259117 0.454420 -0.227747 -0.849059 
-0.007696 -0.033891 -0.303651 -0.452365 -0.129659 -0.844512 
-1.070811 -0.529537 0.173236 0.029671 -0.116039 0.990322 
0.337429 0.722870 0.071689 0.757436 0.469501 -0.404301 
3.645294 0.578470 0.722897 -0.654531 0.036896 0.743284 
-1.269502 0.693263 0.200318 0.341586 0.369328 -0.836984 
0.200270 0.143586 0.295976 0.119036 -0.267816 0.955020 
-1.688493 0.106016 0.163364 -0.232578 -0.007062 0.951304 
-2.852808 0.883796 -0.345939 0.287968 0.028040 -0.952150 
-2.143209 0.672029 0.006513 0.182651 -0.128592 -0.944176 
3.425637 0.142898 0.630848 0.587100 -0.184873 -0.781168 
2.343855 0.637395 0.139764 -0.023883 -0.126516 0.961032 
1.619511 0.106830 0.116252 0.049779 -0.131645 -0.987645 
2.086947 -0.527423 0.311996 0.188431 -0.375290 -0.892472 
-2.560985 -0.339875 -0.014729 0.198584 -0.267891 -0.934582 
1.485557 -0.593671 0.127329 -0.055520 0.036897 0.996311 
-0.307353 -0.782262 0.032393 -0.116956 -0.282715 -0.923280 
2.682331 0.431671 0.157694 0.136704 -0.180512 -0.962645 
-1.006761 -0.012518 0.240057 -0.067706 -0.141726 0.981230 
0.431024 -1.107673 0.137703 0.103629 -0.220683 -0.966657 
-0.427079 -0.481734 0.028075 -0.454286 -0.047529 -0.858990 
0.041357 -0.223269 -0.250557 0.425989 -0.241701 -0.839129 
-2.553551 0.954897 -0.200420 0.269781 0.037956 -0.958301 
-2.337181 -0.322189 0.070829 -0.081399 0.202951 0.961306 
2.716148 0.931139 0.234059 -0.166900 -0.001013 0.942636 
-2.800756 0.783975 -0.324995 0.233830 0.146667 -0.953661 
2.694748 0.860212 0.246419 -0.191915 -0.015841 0.920384 
2.161235 -0.542664 0.339759 -0.325899 0.323654 0.871918 
0.129307 1.245369 0.329737 -0.189499 0.892298 0.301284 
-1.679396 -0.038330 0.155391 -0.181677 0.037276 0.966980 
0.529152 -0.177442 0.047823 0.458926 0.001137 -0.841130 
-1.578413 0.252613 0.153713 0.075975 -0.159915 -0.973973 
-0.352846 -0.059190 0.016587 -0.645324 -0.005052 -0.752245 
3.345443 0.847210 0.411490 -0.620373 -0.170630 0.761453 
2.384227 -0.032484 0.167378 0.400747 -0.223239 -0.883030 
1.695619 0.930181 0.183224 0.192294 -0.074106 0.961491 
-0.583823 -0.839821 0.141742 -0.071944 0.012706 0.992020 
-0.349881 0.651009 -0.028553 -0.678185 0.398379 -0.581363 
0.331221 0.184804 0.025012 0.700178 -0.010282 -0.706764 
0.358004 -0.972841 0.134734 0.126661 0.053953 0.978144 
-0.109224 -1.068921 0.184010 -0.233398 0.142666 0.957157 
-0.289994 -0.654955 0.165273 -0.419761 -0.077261 0.883762 
-1.766037 0.283044 0.134706 0.136782 -0.180511 -0.966490 
0.149418 1.232902 0.166261 0.687911 0.655210 -0.153985 
1.281934 0.657844 0.243356 0.175567 -0.057893 0.962704 
1.475270 0.545232 0.186512 0.235526 -0.208466 0.921704 
1.865509 0.360825 0.083285 0.046190 -0.186865 -0.979730 
0.135200 -0.422354 0.259649 0.175459 -0.133294 0.973837 
1.211829 0.633834 0.257857 0.067433 0.090600 0.988838 
1.428243 0.121241 0.171571 0.100448 -0.074560 0.964028 
0.980444 0.126249 0.202713 0.081387 -0.017662 -0.994772 
-1.728553 0.947248 0.209610 0.063967 0.271889 0.878299 
1.527855 0.229362 0.162351 0.129017 -0.076602 0.951999 
-0.136720 0.288414 -0.275478 -0.654504 0.060502 -0.729854 
3.477706 0.117908 0.677622 -0.576018 0.211530 0.786909 
2.419587 0.339265 0.123449 0.277855 0.001952 -0.942974 
-0.585177 0.375164 0.354472 0.002447 -0.113249 0.967643 
0.258966 1.017051 0.315678 0.864543 0.227281 0.318833 
-2.664147 0.596389 -0.256041 -0.389393 0.020299 0.918234 
-2.178989 1.034911 0.000988 0.198184 0.031754 -0.976183 
0.721410 -0.502642 0.142870 0.147911 -0.058298 -0.968025 
-1.851439 0.875050 0.184198 -0.331515 -0.309346 0.879469 
2.216229 -0.602820 0.376118 0.176928 -0.383543 -0.897616 
0.076744 -0.941746 0.101118 0.089491 -0.421718 -0.884133 
-3.551337 0.219220 -0.289643 0.010764 0.178173 0.978718 
1.628746 0.172106 0.143144 0.086774 -0.030043 0.960389 
3.171576 0.370759 0.367247 0.506692 -0.146329 -0.839314 
-0.046083 -0.554937 0.234453 -0.249508 -0.165595 0.942972 
1.387940 -0.369302 0.152546 -0.018587 -0.002999 0.994407 
-0.757912 0.285088 0.298906 -0.099434 -0.245708 0.953795 
2.458685 0.174219 0.157738 -0.027168 0.162812 0.958429 
0.143667 0.642086 0.470704 0.104161 0.242464 0.959466 
-1.894655 -0.142774 0.121010 0.180042 -0.147144 -0.966186 
1.933123 0.752509 0.125240 0.027633 -0.249347 0.918979 
2.507287 -0.090035 0.229556 0.039319 0.273456 0.911228 
0.054691 -0.697282 -0.004636 0.178439 -0.435316 -0.870083 
-2.071045 0.363814 0.024200 0.454007 -0.192217 -0.823768 
-0.769401 -0.317095 0.130372 -0.235941 -0.007904 -0.941114 
0.928913 0.362431 0.192901 0.073471 0.149522 -0.967901 
2.026385 -0.390061 0.237370 0.149324 -0.362418 -0.897617 
-0.147893 0.918361 -0.008026 -0.563314 0.310756 -0.742190 
-0.336630 -0.406763 -0.021133 -0.573343 -0.027479 -0.811485 
-0.344868 0.566504 -0.052046 -0.676710 0.251116 -0.679733 
1.495353 0.151981 0.162868 0.101725 -0.063659 0.961118 
3.738762 0.612303 0.806528 -0.624923 0.144101 0.743065 
0.338523 0.735182 0.377211 0.654533 0.406753 0.566666 
-1.276119 0.598989 0.193070 -0.039999 -0.173306 -0.982767 
-0.297721 0.919458 0.239998 -0.914166 0.312681 0.042617 
1.899823 1.060588 0.151387 0.258297 -0.159098 0.928419 
-0.253966 -1.025936 0.117725 0.245841 -0.334801 -0.908562 
3.148419 -0.024128 0.491967 -0.473285 0.210276 0.838069 
-3.155178 0.139673 -0.278019 0.168683 -0.293947 -0.927564 
-0.711716 0.077540 0.138323 -0.371306 0.009518 -0.861810 
0.615602 -0.018383 0.093309 0.423047 0.018010 -0.839402 
-3.592836 0.563346 -0.338986 -0.088172 -0.091452 -0.989456 
0.164548 1.066185 0.294822 0.491335 0.838644 0.143740 
-2.635720 0.525932 -0.252295 0.420012 -0.181737 -0.876598 
1.553166 0.778487 0.182972 0.251831 -0.298164 0.911269 
3.509945 0.486297 0.605336 0.610358 -0.128698 -0.777848 
0.544310 -0.654063 0.105704 0.232190 -0.101352 -0.941361 
1.018043 0.457912 0.268126 0.101549 0.166406 0.960254 
-2.291234 -0.697366 0.221830 -0.203367 0.307300 0.922097 
-0.132930 1.125646 0.243637 -0.784983 0.071972 0.595876 
-1.792503 0.702791 0.182584 -0.313709 -0.243285 0.895403 
-0.009256 -0.938886 0.206424 -0.536924 0.054136 0.823696 
2.960102 0.641520 0.233368 -0.255602 0.074674 0.945928 
-3.189985 1.002975 -0.377388 -0.113683 0.070929 0.980172 
2.385466 0.843414 0.156375 -0.014586 -0.204504 0.932606 
-1.511947 0.464469 0.165355 0.044296 -0.178453 -0.974773 
0.044972 1.331235 0.030193 0.552076 0.443245 -0.627365 
-2.219613 0.118300 -0.007723 -0.074882 0.002623 0.987265 
2.155881 0.272232 0.075946 -0.159420 -0.135282 -0.975136 
1.467958 0.038926 0.160474 0.058306 -0.038802 0.974706 
1.098109 -0.516468 0.152753 0.014823 0.056338 -0.995756 
-3.191615 -0.002681 -0.245837 0.130226 -0.259119 -0.945737 
3.410086 0.289373 0.581462 -0.524730 0.223281 0.806731 
0.380947 -0.812797 0.075400 0.299736 -0.146335 -0.920692 
-2.350218 0.523709 -0.095799 -0.502649 -0.036276 0.842469 
-0.346019 0.797150 0.224647 -0.884907 0.398394 -0.023730 
0.066325 1.088565 0.440014 0.000811 0.250833 0.922491 
2.303124 0.951618 0.159391 0.054363 -0.071048 0.974819 
-0.307611 0.564635 -0.117827 -0.658730 0.233035 -0.700940 
-1.738513 -0.338448 0.161801 0.078211 -0.118351 -0.977124 
2.196529 -0.385467 0.276394 0.088914 -0.364116 -0.912073 
0.629989 0.059541 0.107872 0.428769 0.024161 -0.829613 
-0.684238 -1.004123 0.130808 0.015571 0.046124 0.991575 
2.570548 0.369840 0.144579 0.164300 -0.076533 -0.974165 
2.255380 -0.257632 0.243754 -0.455372 0.232634 0.840752 
-1.787076 0.171398 0.130082 0.148847 -0.171447 -0.966679 
2.359372 0.378820 0.134626 -0.008367 0.033330 0.994152 
3.319525 0.313762 0.507977 -0.468794 0.254916 0.829992 
-1.455925 0.777038 0.154499 0.185307 0.144548 -0.964506 
-0.081124 1.297334 0.070958 -0.668479 0.564478 -0.387546 
-0.175815 -0.844791 0.042450 0.122685 -0.389352 -0.904479 
-3.523593 0.699951 -0.356758 0.099542 -0.044391 0.982386 
-0.310190 0.601111 0.420228 -0.367313 -0.117456 0.878401 
-0.032587 0.935040 -0.050705 -0.368209 0.323317 -0.856858 
-1.812527 -0.346782 0.164263 -0.106148 0.103190 0.977741 
1.907770 1.379107 0.120332 0.078557 0.259088 -0.921678 
-0.358195 -0.223508 0.144321 -0.300824 -0.180036 0.913165 
-0.998700 0.416510 0.194566 -0.031799 0.135476 -0.970478 
-2.988868 0.128343 -0.271090 -0.110345 0.101710 0.967058 
-2.598846 0.628184 -0.234012 0.451946 -0.169345 -0.859717 
-1.779287 0.459822 0.171323 -0.288069 -0.138494 0.917419 
-0.146610 0.780907 0.436777 -0.204988 0.088269 0.958325 
0.281374 0.935744 0.320975 0.867236 0.227534 0.406761 
0.277537 -0.787637 0.151105 0.245185 -0.027674 0.925473 
-0.278379 0.715016 -0.054057 -0.575338 0.551373 -0.593658 
0.768950 -0.370440 0.164405 0.132126 -0.075496 0.978270 
-0.147470 1.255595 0.323656 0.181459 0.929558 0.196613 
-0.320210 -0.038736 0.237616 -0.300588 -0.240270 0.871172 
-1.587938 -0.594654 0.213957 0.023138 0.059207 0.992313 
-0.999235 -0.743671 0.137657 -0.119485 0.042927 -0.983674 
-2.364572 -0.263671 0.040034 -0.070570 0.187044 0.965218 
-1.669476 0.734545 0.154611 0.084187 -0.216290 -0.966174 
0.036858 1.223936 0.342068 -0.091441 0.795319 0.578781 
-1.193544 -0.440583 0.191117 -0.086272 0.019137 -0.993467 
-0.230060 0.612158 -0.134115 -0.565564 0.335053 -0.727052 
0.448306 -0.652075 0.105916 0.217444 -0.028197 0.963637 
0.179535 0.350159 0.392948 0.122106 -0.330739 0.935518 
-1.329170 0.392708 0.182731 -0.013057 -0.144091 -0.982071 
1.835341 0.091736 0.085283 0.055569 -0.158443 -0.985250 
-1.734778 -0.087678 0.129408 0.143237 -0.116680 -0.970125 
-2.454184 -0.208973 -0.013422 -0.617827 0.320892 0.673508 
-0.952984 -0.618788 0.151146 -0.120752 0.020403 -0.984418 
0.162989 0.285409 0.368155 0.124277 -0.306806 0.942484 
1.335811 0.115955 0.155574 0.042002 -0.079311 -0.990652 
-3.295792 0.347281 -0.316913 -0.028653 0.117685 0.986184 
1.420546 0.701407 0.152740 0.023920 -0.196554 -0.979544 
-1.287304 0.535421 0.238413 -0.295775 -0.255493 0.914112 
0.685262 0.185868 0.286780 0.026775 -0.264332 0.954797 
0.724725 0.369398 0.158293 0.347809 0.124290 -0.866919 
-2.162580 0.817616 0.021650 -0.535812 -0.251641 0.764648 
-0.921777 0.584975 0.264377 0.178296 0.275081 -0.925079 
-2.368177 0.010306 -0.068138 0.116042 -0.163239 -0.972998 
0.030291 -0.128599 0.277826 0.115884 -0.082340 0.982222 
-0.235401 -0.347189 0.222016 -0.474394 -0.077389 0.836127 
-2.551199 0.309864 -0.209996 0.338666 -0.094518 -0.928869 
-0.359614 -0.624095 0.028492 -0.440385 -0.083655 -0.866747 
-0.133926 0.521903 -0.201915 -0.543802 0.253407 -0.767269 
-0.268062 1.016386 0.251253 -0.915377 0.361588 0.046932 
0.030094 -1.049930 0.181525 0.386086 0.121285 0.913523 
3.088156 -0.033648 0.451993 0.387544 -0.310843 -0.854400 
-0.044348 -0.733005 0.213494 -0.341668 -0.058510 0.928394 
0.361866 0.086149 0.240391 0.121979 -0.288832 0.943233 
0.113101 -1.075295 0.186084 0.225657 0.152154 0.957523 
3.443999 0.020066 0.679076 -0.561840 0.231587 0.793855 
3.142935 0.788717 0.306114 -0.410296 0.036895 0.897796 
0.952087 -0.416463 0.165107 0.058761 0.008154 -0.990844 
-0.417740 -1.015114 0.109607 -0.208542 -0.176483 -0.959122 
1.798757 0.160212 0.091369 0.052230 -0.163267 -0.984468 
3.257751 0.033246 0.548138 -0.517048 0.197862 0.819001 
-2.636848 0.921867 -0.163524 -0.361735 -0.002946 0.875480 
3.095322 0.170810 0.389374 0.325355 -0.349836 -0.864906 
-1.814082 0.553225 0.135483 0.140383 -0.210000 -0.962166 
2.731683 -0.340259 0.366653 0.326066 -0.319394 -0.887144 
-2.745573 -0.301223 -0.097223 0.203929 -0.272883 -0.935876 
1.143266 -0.461092 0.157117 0.019811 0.048819 -0.997011 
-0.568198 0.523836 0.354879 0.070207 0.254372 0.952166 
-3.124424 0.209718 -0.289944 -0.056173 0.080258 0.977163 
-1.963333 -0.042975 0.120857 -0.233424 0.113478 0.961593 
-2.862050 -0.102297 -0.203313 -0.247913 0.226220 0.937766 
0.287705 0.841180 0.099469 0.786636 0.365480 -0.433636 
1.556632 -0.624811 0.139010 0.104655 -0.113933 -0.978828 
-0.451830 -0.487992 0.094304 -0.265744 -0.081479 0.949074 
-0.540678 -0.310143 0.120999 -0.237432 -0.123368 0.947508 
2.061934 -0.131894 0.138943 0.031279 -0.263976 -0.950767 
-1.753705 0.774401 0.146610 0.110285 -0.226529 -0.962522 
-3.080208 0.443016 -0.339834 -0.000614 -0.028214 0.992695 
-0.269201 -0.272824 -0.105420 -0.608280 -0.182422 -0.759065 
1.323812 0.709720 0.147009 -0.210432 0.124261 -0.955279 
-0.079097 -0.059404 0.278210 -0.133192 -0.134933 0.974549 
2.317893 0.456490 0.115863 0.274744 0.009296 -0.937294 
-0.281597 -0.086676 -0.104954 -0.664072 -0.113857 -0.715500 
-0.935585 -0.165409 0.174899 -0.159055 0.024057 -0.966287 
1.839025 0.006598 0.100382 -0.020977 0.080460 0.983571 
-0.118669 -0.526767 0.230024 -0.187983 -0.158860 0.968510 
1.223676 0.821609 0.220783 -0.241348 0.227676 -0.917361 
0.297380 0.706560 0.428888 0.462506 0.363080 0.795459 
0.819147 -0.165370 0.129532 0.220072 0.023859 -0.931641 
1.963107 1.057487 0.109894 0.278917 -0.343658 -0.890881 
1.215047 0.037555 0.200047 0.102355 -0.113263 0.971550 
0.176424 0.425834 0.415096 0.132477 -0.300259 0.942366 
-0.214670 1.013069 0.395389 -0.653871 0.026976 0.721541 
2.210373 0.245501 0.142243 -0.283707 -0.000212 0.947500 
-0.721318 -0.896498 0.120330 -0.168520 -0.056563 -0.970888 
3.299046 0.090922 0.555721 0.463528 -0.288378 -0.819956 
-2.971747 0.439173 -0.336284 0.280995 -0.348488 -0.889190 
-0.992631 -0.380297 0.196241 0.000909 -0.092120 0.992984 
-0.650688 -0.483499 0.148492 -0.135506 -0.056578 0.975293 
-0.489589 0.259918 0.312426 0.042819 -0.327509 0.940794 
2.015724 -0.540569 0.303327 -0.355503 0.327092 0.863707 
0.224429 1.070164 0.404309 0.615036 -0.157480 0.698306 
0.777614 0.085425 0.149563 0.284435 0.011534 -0.896877 
1.858194 -0.133955 0.086732 0.073344 -0.148685 -0.983360 
-0.865041 0.083730 0.263067 -0.049770 -0.196874 0.969459 
1.350648 0.346754 0.158208 0.034907 -0.136812 -0.986799 
1.707249 0.925610 0.110346 0.000598 -0.198151 -0.970004 
-2.983097 0.883918 -0.342970 -0.222282 0.037975 0.956863 
0.336860 0.671366 -0.030027 0.653384 0.466902 -0.554134 
0.702909 -0.353937 0.144634 0.176991 -0.088044 0.968204 
0.633467 0.279223 0.300323 0.044382 -0.294556 0.945792 
-2.635893 -0.374851 -0.023166 -0.414734 0.303187 0.816412 
-0.296766 -0.097124 -0.037039 -0.642355 -0.118574 -0.741890 
0.986254 0.422601 0.187869 -0.007859 0.175283 -0.957662 
0.948315 -0.735577 0.140862 0.066243 -0.066806 0.991304 
-3.924765 0.682288 -0.280738 -0.192783 -0.039875 -0.979498 
0.107045 0.329229 0.385557 0.074266 -0.336626 0.935486 
0.507120 0.356677 0.349326 -0.027550 -0.181642 0.958699 
2.822707 0.244809 0.235974 -0.362730 0.100609 0.902930 
-3.723983 0.522245 -0.313812 -0.129680 -0.091272 -0.986076 
0.289008 -0.645663 -0.026734 0.325100 -0.258121 -0.868380 
-1.931700 -0.383176 0.187420 0.132009 -0.197850 -0.961425 
0.323407 -0.707388 0.144062 0.355750 -0.044146 0.910062 
-1.973701 0.909920 0.087538 0.028084 -0.077040 -0.987713 
1.727820 0.787150 0.107756 0.027338 -0.221804 -0.973595 
-0.371000 -0.271120 -0.004323 -0.585120 -0.012835 -0.797037 
-0.841272 0.381794 0.299328 -0.049127 0.248362 0.950574 
1.209446 -0.783054 0.123496 0.038337 -0.113926 0.991867 
1.521882 0.870853 0.186194 -0.174726 0.424810 0.823839 
0.172536 0.566245 0.451273 0.159762 -0.243352 0.954759 
1.633476 -0.453364 0.106036 0.071567 -0.099527 -0.991776 
1.428860 -0.107766 0.157939 0.002937 -0.007845 0.992167 
1.919035 0.674199 0.083085 0.007168 -0.213210 -0.972754 
0.770479 -0.891547 0.118425 0.096253 -0.061707 -0.976289 
-2.004000 0.977897 0.119145 -0.580145 -0.377114 0.698481 
-2.618943 0.285976 -0.242174 0.331513 -0.154126 -0.928269 
0.800634 -0.075410 0.136647 0.255938 0.028303 -0.909107 
-0.009659 1.058951 0.462366 -0.099796 0.251014 0.945367 
-3.522434 0.283582 -0.301953 -0.057262 -0.116438 -0.986001 
2.784356 -0.136348 0.303527 0.306671 -0.265015 -0.909107 
2.485804 0.268841 0.150198 -0.104308 0.107681 0.977374 
-3.167954 0.266980 -0.306804 0.182597 -0.314030 -0.916793 
0.532080 0.267095 0.312475 -0.015108 -0.319793 0.943595 
3.266567 0.608288 0.391147 -0.488738 0.096975 0.858644 
1.646778 0.561531 0.157476 0.170064 -0.189586 0.932450 
-2.885583 -0.286500 -0.154117 0.212596 -0.279331 -0.934945 
2.593512 0.990286 0.211081 -0.090890 -0.015187 0.958239 
-0.283945 -0.548209 0.160256 -0.482596 -0.110014 0.866717 
-3.511284 0.548486 -0.341554 0.032862 0.101763 0.985340 
-2.773677 0.833817 -0.252416 -0.322841 0.009982 0.909245 
-1.731360 -0.228361 0.147198 0.106824 -0.115300 -0.974101 
2.031988 -0.468299 0.277126 -0.389821 0.304228 0.855389 
-2.978639 0.963369 -0.353772 -0.250939 0.022744 0.953326 
-2.090412 -0.532978 0.232079 0.178366 -0.301918 -0.921009 
1.707874 0.608451 0.148888 0.155125 -0.200750 0.933490 
0.263788 -0.473944 -0.096161 0.486632 -0.249136 -0.815001 
-0.361959 0.748114 0.168528 -0.873422 0.415940 -0.198858 
2.236920 -0.324779 0.267280 -0.424142 0.253972 0.848297 
0.275069 0.908083 0.121815 0.827692 0.295490 -0.386033 
0.582237 -0.215887 0.151525 0.195534 -0.148963 0.950601 
0.151099 -0.817867 0.174291 0.137466 -0.050429 0.975947 
-1.935204 0.554198 0.154757 -0.294964 -0.155475 0.908551 
0.124165 0.503654 0.443974 0.129771 -0.291484 0.945516 
2.897832 0.963019 0.236433 -0.211923 0.039270 0.964136 
0.241716 0.331423 -0.191788 0.741918 0.079678 -0.639448 
2.641345 -0.046247 0.246720 -0.145582 0.238418 0.925217 
-0.931220 -0.111581 0.233729 -0.006338 -0.132138 0.985464 
-0.320767 -0.489806 -0.024417 -0.531325 -0.086938 -0.824505 
-2.069414 -0.593788 0.264689 -0.115186 0.274498 0.951648 
-0.282275 0.958018 0.158330 -0.904983 0.339487 -0.241587 
-2.283296 0.560083 -0.072468 0.298330 -0.043155 -0.924733 
-0.199315 0.753146 -0.059391 -0.527593 0.466763 -0.688497 
-0.571496 0.444783 0.388564 0.024789 0.039483 0.985769 
0.673887 -0.230661 0.154614 0.180899 -0.131503 0.959030 
-0.218779 0.171455 -0.208752 -0.698147 -0.003754 -0.688399 
0.133412 0.187054 0.324849 0.104476 -0.276444 0.952308 
-2.860898 0.174629 -0.264175 0.268263 -0.269006 -0.918006 
2.417491 0.264928 0.120349 0.357578 -0.026718 -0.918967 
2.730690 -0.203274 0.315556 -0.210004 0.281046 0.906423 
2.127458 -0.159997 0.174507 -0.430565 0.194939 0.855702 
-2.524473 -0.531767 0.073264 0.255772 -0.300509 -0.910179 
1.638354 0.908001 0.104774 -0.186325 0.110847 -0.957917 
-1.017704 -0.582148 0.155295 -0.109285 0.043530 -0.987416 
