-0.922308 0.401735 -0.181329 0.564620 0.197098 -0.738794 
-0.575079 2.830278 -0.729547 -0.529630 0.597351 0.587932 
-1.621397 1.369945 -1.224092 0.772682 -0.496260 -0.388548 
-1.331981 1.345232 -0.483854 -0.826679 0.285759 0.484032 
-1.345336 1.532223 -0.881456 0.679793 -0.663477 -0.277787 
1.636914 0.701224 -0.389744 -0.005220 0.507083 -0.795070 
1.125052 0.553740 -0.167690 -0.544286 0.224047 -0.799426 
-0.437578 -0.174934 0.029079 -0.167954 0.046990 -0.892573 
1.440531 2.031168 0.218162 0.311703 -0.210959 0.918483 
-1.543902 1.380242 -1.068647 -0.806553 0.401401 0.406401 
-0.477004 -0.110908 0.011928 -0.114582 0.064041 -0.879876 
-0.542533 2.478001 -0.287037 -0.666553 0.592021 0.432686 
-0.478967 -1.015376 0.069808 0.325637 -0.135873 -0.927832 
-1.143335 0.737980 -0.353063 0.731423 -0.000454 -0.634132 
-0.440786 -1.160743 0.106161 -0.659055 0.279457 0.678385 
-0.302436 -0.437473 0.285170 -0.659107 -0.176968 0.729355 
-1.469346 0.974156 -0.606263 -0.783674 0.064589 0.579922 
0.285812 0.285125 -0.050007 0.717319 0.030616 -0.693540 
-0.549826 0.623741 0.337341 0.345768 0.678291 -0.450341 
-1.305372 1.277642 -0.464440 0.798776 -0.265175 -0.526386 
1.038594 1.354993 0.066020 -0.228931 0.281256 -0.925187 
1.052426 1.504493 0.144932 0.405218 -0.418649 0.717640 
-0.098037 -0.331503 0.370948 -0.153767 -0.078417 0.982336 
-0.725979 0.260234 0.065616 -0.692735 -0.282188 0.650757 
-0.929998 2.159694 -0.837444 0.686344 -0.591140 -0.397998 
0.169333 0.890175 0.089223 0.592973 0.426803 -0.664312 
-0.744683 2.858877 -1.008282 -0.869889 0.201438 0.438517 
1.522355 2.220870 0.303884 0.254566 -0.356157 0.870214 
-0.644611 0.358260 -0.012541 0.139425 0.204136 -0.825053 
0.787203 0.311485 -0.054439 -0.172439 0.180981 -0.844757 
-1.023805 1.654572 -0.389712 0.618553 -0.756163 -0.175192 
-0.346669 0.789049 0.353672 -0.891462 0.369768 0.086558 
1.398710 1.165106 -0.134786 0.196032 -0.397537 0.870697 
2.239772 2.221445 0.181869 0.062715 -0.366935 0.916584 
-1.609154 1.430130 -1.287340 0.766931 -0.521660 -0.372818 
-0.470687 -0.286752 0.015510 -0.056463 0.022976 -0.890389 
-0.608092 2.619356 -0.613068 -0.863256 0.322096 0.358270 
0.215401 -0.010640 0.389079 0.319418 -0.236866 0.889450 
0.265486 -0.022175 -0.035806 0.651616 -0.066931 -0.740992 
-0.610284 0.120384 0.127747 -0.687826 -0.269083 0.659717 
-1.247876 1.405778 -0.445820 0.763533 -0.391639 -0.443987 
0.466627 0.383319 0.139150 0.208360 0.270570 -0.859467 
0.236542 0.415949 0.514878 0.205856 -0.241838 0.945976 
-1.326470 1.133469 -0.472119 -0.806162 0.177665 0.526104 
-1.574299 1.002630 -0.732203 -0.791008 0.141917 0.549796 
-1.420760 0.821989 -0.581630 0.742811 0.004763 -0.638422 
0.346508 0.734554 0.233477 0.892351 0.346961 -0.257766 
0.296882 -0.448966 0.054060 0.394045 -0.085197 -0.882008 
0.812737 0.245118 -0.074142 -0.207258 0.158343 -0.836479 
0.631261 -0.161514 -0.015224 -0.069015 0.055171 -0.874740 
-0.774466 2.672260 -0.960933 -0.837857 0.302434 0.442798 
1.131965 -0.246714 -0.322221 -0.462350 0.000936 -0.835969 
1.414373 2.308926 0.351862 0.281487 -0.341894 0.883675 
-0.108005 -0.607093 0.035331 -0.056017 -0.314710 -0.941911 
0.220857 0.131984 -0.079339 0.647690 -0.011117 -0.746932 
2.047073 2.336611 0.236911 -0.066017 0.422675 -0.902732 
0.179984 1.092197 0.555366 0.775585 0.448661 -0.336748 
0.291258 -0.137860 0.344829 0.487244 -0.225573 0.812541 
-0.885832 0.120475 -0.167131 -0.725724 -0.148259 0.663190 
-1.643162 1.108731 -0.875186 -0.819031 0.344039 0.457179 
-0.757855 -0.639562 -0.167442 -0.556207 0.028370 0.788715 
-0.700815 0.865344 0.259150 -0.536093 -0.137601 0.814678 
0.365048 -1.262176 0.106968 -0.073293 0.044931 -0.976868 
-1.261062 0.466283 -0.474750 -0.749980 -0.185569 0.629988 
1.747074 0.887607 -0.225621 -0.198034 -0.510160 0.809218 
-0.197455 -0.161571 -0.066521 -0.600711 -0.095529 -0.781115 
-0.359750 -0.026001 0.341129 -0.542534 -0.260696 0.787957 
1.385561 1.956485 0.212629 0.348928 -0.375172 0.837300 
0.384570 -0.688960 0.159619 0.557541 -0.089928 0.816132 
0.715548 0.756818 0.200329 -0.851428 0.212636 -0.430770 
-1.359419 0.933911 -0.510165 -0.785735 0.063174 0.571260 
2.587037 2.541957 0.353019 0.020274 0.490077 -0.870866 
0.010155 0.223770 -0.225519 0.518840 0.038304 -0.848364 
1.796787 1.123196 -0.170733 -0.041824 -0.484376 0.840762 
1.212549 1.128668 -0.054233 0.405672 -0.279891 0.820938 
0.366073 -0.416031 0.074857 0.259892 -0.017524 -0.917293 
0.914535 -0.246522 -0.178855 -0.409739 0.061951 -0.859878 
-0.252960 -0.134524 -0.030646 -0.649519 -0.095337 -0.739031 
2.039841 1.622298 -0.081874 -0.130506 0.350420 -0.925338 
1.311850 1.570649 0.056968 -0.131561 0.549312 -0.816558 
0.135731 -0.123783 -0.110935 0.544663 -0.090190 -0.821568 
0.245275 1.201833 0.687080 -0.607311 0.014381 0.788760 
0.577908 -0.032614 0.001163 0.076340 0.078556 -0.873223 
0.575970 -0.661668 0.037070 0.534036 -0.026630 0.834373 
-1.636830 1.293581 -1.143626 0.779947 -0.464074 -0.408478 
-0.434132 -0.915390 0.096281 -0.526803 0.009341 0.841500 
1.296856 1.349972 -0.021798 0.197016 -0.503841 0.797550 
-0.941334 2.495655 -1.100993 -0.742314 0.444343 0.471154 
-1.076367 0.595848 -0.256899 -0.777343 -0.087892 0.588569 
-1.506470 0.474832 -0.799414 0.726749 0.261083 -0.627043 
-0.489569 -1.389167 0.118865 -0.712606 -0.286306 0.023576 
0.965654 0.008679 -0.160043 -0.472257 0.116434 -0.833786 
-1.343913 1.005830 -0.508977 0.765283 -0.109724 -0.590689 
1.871867 1.005196 -0.216494 -0.037999 -0.436718 0.857676 
-0.995701 0.139323 -0.266876 -0.715090 -0.155929 0.664210 
2.350318 2.553625 0.356391 0.035711 -0.541700 0.833332 
-0.860728 1.110449 0.123007 -0.914649 0.014598 0.377602 
1.201239 0.084717 -0.365050 -0.514154 0.134826 -0.801198 
1.588362 1.628342 0.004821 -0.141602 0.440107 -0.874158 
-0.260636 -1.217809 0.167235 0.387449 -0.234756 -0.866212 
0.333210 -1.049647 0.113410 -0.210375 -0.122564 -0.961495 
-0.703904 0.894630 0.162903 0.803462 0.167254 -0.523721 
0.363509 -0.339494 0.069828 0.313686 -0.006069 -0.909285 
0.246325 0.049216 -0.054966 0.650812 -0.041273 -0.742925 
-0.591786 0.393671 0.312948 -0.635166 -0.312198 0.670491 
1.590980 0.447141 -0.639987 0.674479 -0.216421 0.701378 
-0.728511 0.339979 0.105674 -0.682794 -0.318419 0.646142 
0.118572 1.114619 0.164899 0.467747 0.423256 -0.766343 
0.784280 0.307173 0.103876 0.626043 -0.282049 0.720100 
-0.434980 0.231526 0.075442 -0.227443 0.173237 -0.890128 
-0.780912 1.456151 0.333712 -0.783490 -0.061127 0.584874 
1.128687 0.258555 -0.249609 -0.545401 0.170886 -0.795516 
-0.190642 -0.894339 0.203883 -0.181464 -0.125168 0.969137 
0.092766 0.261508 -0.176079 0.583441 0.047145 -0.801072 
-1.143686 1.440585 -0.188910 -0.874093 0.210324 0.396926 
-0.110820 0.797738 0.012211 -0.481273 0.433063 -0.742788 
0.568426 -0.799966 0.005198 -0.249317 -0.058509 -0.942953 
0.845350 1.427416 0.193653 -0.220722 0.242028 -0.936157 
0.748340 1.226885 0.223695 -0.302369 0.213239 -0.921358 
-1.193147 0.093196 -0.542790 -0.704274 -0.218939 0.645001 
0.679343 1.464185 0.367074 0.711990 -0.099474 0.661796 
-0.220983 -0.434765 0.338096 -0.395068 -0.174275 0.893274 
-1.152340 1.787302 -0.808641 -0.649562 0.676334 0.208151 
0.720271 0.447813 0.208560 0.661875 -0.263763 0.685216 
-1.190452 1.539826 -0.495577 -0.869557 0.210869 0.438476 
-1.137558 1.583415 -0.515269 0.654474 -0.680385 -0.242832 
1.094206 0.356322 -0.157749 0.649159 -0.191154 0.731588 
-0.026858 -0.684001 0.082409 -0.270948 -0.328892 -0.902771 
0.436568 1.947980 0.562562 -0.232812 -0.499280 0.735010 
1.015014 1.600882 0.212010 0.372786 -0.489871 0.664629 
-0.862177 2.834917 -1.189270 0.813075 -0.275419 -0.511004 
-0.820170 3.009436 -1.186841 -0.841015 0.214857 0.490070 
-0.175464 1.223008 0.503604 -0.890601 -0.384834 -0.043999 
1.504033 1.100894 -0.158124 -0.130011 0.306305 -0.892170 
-0.903606 2.121268 -0.711541 -0.848943 0.375574 0.342499 
0.629994 -0.501067 0.017699 0.559975 -0.057959 0.812813 
-0.498142 0.660674 0.431233 0.296268 0.685909 -0.542811 
-0.949270 0.833056 -0.046381 -0.850980 -0.044496 0.480649 
0.630600 0.334254 0.027112 0.009258 0.192939 -0.878726 
1.801771 1.027286 -0.202684 -0.068593 0.256713 -0.908387 
0.394623 0.432605 0.466731 0.274917 -0.208406 0.937668 
0.349816 -1.128291 0.107790 -0.155676 -0.054112 -0.979710 
-0.963744 0.338220 -0.237400 0.590845 0.168692 -0.725851 
-0.480387 0.427180 0.439237 -0.398262 -0.229569 0.870023 
1.250908 0.419535 -0.298784 0.660699 -0.204457 0.719214 
-0.857458 1.344759 0.180656 -0.931737 0.049616 0.320795 
0.710096 1.099232 0.318537 0.425411 -0.142518 0.832050 
0.576281 0.252252 0.282878 0.602186 -0.338566 0.717835 
-0.785808 0.543975 0.145625 -0.817358 -0.210062 0.512650 
0.067979 1.171932 0.177754 0.457567 0.327153 -0.811743 
-1.349735 1.600777 -0.991010 0.803553 -0.379414 -0.439298 
-0.980768 2.447980 -1.136636 -0.745468 0.445244 0.467900 
-1.065759 1.818751 -0.657315 -0.695233 0.640154 0.226065 
1.490090 0.574122 -0.488132 0.543311 -0.342112 0.736882 
0.958873 0.209283 -0.130720 -0.439231 0.153653 -0.816163 
0.551781 0.735245 0.368890 -0.555257 0.315777 -0.648159 
0.164465 1.055301 0.443645 0.492712 0.751764 0.313746 
0.919997 -0.384511 -0.215501 -0.381809 0.027763 -0.870303 
-0.935139 -0.025595 -0.241773 -0.691262 -0.130315 0.686661 
-1.020748 1.424842 -0.074311 0.705538 -0.165481 -0.646739 
0.925970 1.621846 0.209338 -0.224708 0.191423 -0.944184 
-1.191944 1.469215 -0.325707 -0.865002 0.232833 0.420858 
-0.694473 0.958193 0.285127 -0.523739 -0.181794 0.822902 
-0.688822 1.001704 0.199304 0.848870 0.091321 -0.515393 
0.508903 -0.653499 0.064692 0.554933 -0.041749 0.819822 
0.975605 0.624653 -0.050858 -0.514765 0.213441 -0.823278 
1.024111 0.335705 -0.157646 -0.479261 0.181357 -0.798894 
-0.347483 -1.067678 0.106996 0.196058 -0.099300 -0.965763 
0.229374 -0.743814 0.077603 0.039737 -0.185519 -0.969484 
0.356622 0.453199 0.142804 0.552905 0.312205 -0.728590 
-1.061464 2.603437 -1.376896 0.810869 -0.300339 -0.501391 
-0.362938 -0.546334 0.082985 -0.121602 -0.029432 -0.936992 
1.196575 0.487872 -0.248576 -0.548934 0.259971 -0.780907 
-1.663425 0.881283 -0.829692 0.762778 -0.096156 -0.591519 
-0.961137 -0.256039 -0.365019 0.501583 0.111842 -0.780265 
-0.995018 1.764093 -0.335909 -0.747557 0.621428 0.168344 
1.107939 1.063500 -0.025240 -0.331691 0.280134 -0.892413 
-1.027624 2.301461 -1.121208 0.703406 -0.518277 -0.446227 
-0.071160 0.067034 0.427217 -0.126495 -0.224846 0.963781 
-0.289497 0.367828 0.482708 -0.258152 -0.258302 0.924587 
0.804276 0.373554 0.119366 0.621206 -0.302712 0.717137 
-0.417296 -1.084769 0.110854 0.338314 -0.105920 -0.927845 
-1.073579 1.043323 -0.221685 0.703597 -0.043053 -0.644673 
0.097141 0.655983 0.563514 0.076536 0.108093 0.982694 
0.815448 1.467703 0.264637 0.672067 -0.225976 0.649491 
-0.615665 2.761451 -0.762059 -0.905272 0.178242 0.377888 
-0.112535 -0.265034 -0.094461 -0.491917 -0.189371 -0.827161 
0.635770 0.543804 0.116146 -0.129041 0.329525 -0.823435 
1.025423 0.478562 -0.066049 0.676681 -0.203070 0.702112 
-0.191186 0.670235 0.550833 -0.251862 0.234037 0.915884 
1.091165 1.857225 0.282067 0.488547 -0.355953 0.750454 
0.126189 0.303680 0.507360 0.136700 -0.277275 0.948408 
-1.199023 -0.093404 -0.543151 -0.604963 -0.090813 0.699344 
-0.904694 2.815434 -1.244862 -0.827567 0.259406 0.493439 
0.183872 -0.590348 0.052599 0.079189 -0.288808 -0.935029 
-0.393558 -0.117097 0.062472 -0.245170 0.068061 -0.905716 
0.669098 0.606922 0.126749 -0.171309 0.377823 -0.787549 
1.196192 0.892066 -0.125304 -0.396561 0.277762 -0.857355 
0.498498 0.536550 0.472743 0.134120 -0.158446 0.918820 
-1.380902 0.473121 -0.643807 0.715785 0.219111 -0.654361 
0.139919 -0.398879 -0.059698 0.470070 -0.261296 -0.828489 
1.476612 0.796955 -0.395163 0.375201 -0.437518 0.802706 
-0.296550 0.103324 0.382141 -0.381145 -0.274627 0.865933 
-0.845447 1.038388 0.127587 -0.912983 -0.004641 0.389465 
1.657986 1.065233 -0.161109 -0.184150 -0.567401 0.791587 
-0.702246 0.422460 -0.012188 0.279284 0.226926 -0.807507 
-0.887309 1.643208 0.207579 -0.945856 0.111536 0.260191 
0.074908 0.542110 -0.114769 0.515262 0.253246 -0.800015 
-0.939113 -0.183786 -0.299607 -0.667206 -0.126062 0.700817 
0.125866 0.341996 -0.139362 0.601279 0.099382 -0.775310 
-0.549072 0.314877 0.307990 -0.642489 -0.396639 0.654406 
1.353910 0.577832 -0.345632 0.516366 -0.351069 0.751541 
-1.049118 0.651718 -0.210898 -0.793933 -0.076678 0.564119 
0.794816 0.913665 0.197580 0.796422 -0.040413 0.597861 
-0.299128 0.926734 0.334457 -0.926229 0.339912 -0.043345 
1.970541 1.253785 -0.167489 0.280359 -0.133441 0.913244 
-1.072497 2.517759 -1.340833 0.819306 -0.295156 -0.488080 
-1.363213 1.074568 -0.522042 0.773857 -0.143689 -0.576854 
-1.584539 0.637368 -0.778699 -0.750919 -0.162503 0.629851 
-0.803380 0.871453 0.079821 0.589760 0.192889 -0.779848 
-1.493758 1.431721 -1.046049 0.730142 -0.569075 -0.340043 
-0.712329 2.579242 -0.806905 -0.830229 0.356242 0.423536 
0.258173 -0.723492 0.228851 0.350757 -0.185433 0.891342 
-0.899325 1.716141 -0.138011 0.814221 -0.239059 -0.475399 
-1.162438 1.295630 -0.247444 -0.859762 0.197176 0.437850 
0.347185 0.634184 0.106415 0.719503 0.304549 -0.569799 
-0.555537 -0.314182 -0.016864 0.133492 0.023953 -0.872914 
-1.110976 2.465233 -1.371452 0.818063 -0.304462 -0.484792 
-0.642887 2.673272 -0.763495 0.810999 -0.351479 -0.466658 
0.655671 0.971070 0.313564 0.420349 -0.155439 0.882589 
-0.698236 -0.721807 -0.113522 0.374990 -0.091238 -0.878095 
-1.424476 1.042675 -0.563328 -0.792467 0.110139 0.559303 
-0.751463 0.204102 0.004203 -0.707677 -0.241502 0.652022 
-0.980866 1.303933 0.002675 -0.901151 0.106046 0.373137 
-0.770494 -0.757119 -0.133315 -0.446333 0.188255 0.847005 
-0.561675 0.240831 0.252230 -0.657192 -0.353395 0.656805 
-0.819236 1.721961 0.318516 -0.966652 0.089213 0.217956 
-0.257706 0.745842 0.521614 -0.454503 0.255153 0.846110 
1.211291 0.558794 -0.237792 -0.518289 0.270016 -0.793476 
0.816462 -0.470916 -0.144620 -0.349158 0.013525 -0.888802 
2.514411 2.419143 0.282117 0.007827 -0.478598 0.875833 
1.216871 0.190715 -0.334718 0.634879 -0.167547 0.740524 
0.361089 0.673397 0.187118 0.890030 0.276802 -0.286180 
-0.867350 1.949636 -0.361438 0.803378 -0.491616 -0.297389 
-0.625395 -0.467609 -0.023222 -0.642874 -0.045558 0.746789 
0.189624 1.227673 0.555118 0.858194 -0.431081 -0.234849 
-1.243996 1.587066 -0.763236 0.700781 -0.622624 -0.310078 
1.617882 2.315412 0.299114 0.211085 -0.377037 0.891027 
0.028094 1.246331 0.207821 0.488699 0.211710 -0.837884 
0.203018 0.598913 -0.044365 0.590974 0.240194 -0.737954 
-0.169877 -0.942275 0.127128 0.144801 -0.292922 -0.936388 
1.245140 1.297941 -0.050803 -0.267575 0.289591 -0.912182 
-1.065300 1.245540 -0.126012 -0.878099 0.139886 0.416188 
0.275524 -0.275853 0.325389 0.549725 -0.193173 0.780756 
-0.777610 -0.185838 -0.120614 0.508294 0.061606 -0.810624 
-0.550300 2.653179 -0.534156 0.934304 -0.179878 -0.251889 
0.233473 0.214383 -0.078388 0.670129 0.014140 -0.730320 
0.746396 1.027482 0.262397 0.770942 -0.027631 0.620625 
0.594817 -0.721356 0.000818 -0.269698 -0.041622 -0.933717 
0.430390 0.131728 0.333720 0.489318 -0.302099 0.810201 
0.352944 0.352576 0.088333 0.484798 0.187067 -0.818581 
0.285626 0.855074 0.200969 0.794584 0.383440 -0.400988 
0.505066 0.153616 0.293715 0.576831 -0.313520 0.743703 
1.876234 1.467359 -0.092454 0.324205 -0.086681 0.893785 
0.632089 0.371583 0.278442 0.618340 -0.331344 0.703727 
1.869449 1.713002 -0.013045 0.188584 -0.349163 0.914103 
-0.753330 1.651852 0.319591 0.628671 -0.119152 -0.757434 
1.373589 0.969966 -0.235728 0.353640 -0.373677 0.841384 
-1.082824 1.881030 -0.795649 -0.726784 0.578320 0.279262 
-0.862927 1.139009 0.055605 0.620482 0.063534 -0.736444 
-1.045862 2.098712 -0.999810 0.717921 -0.539663 -0.413761 
-1.207195 1.555822 -0.567064 -0.866630 0.201208 0.450690 
0.305590 -0.774889 0.084570 -0.155309 -0.221750 -0.955978 
-0.689257 2.457845 -0.650834 0.828990 -0.388918 -0.393728 
-0.942489 0.905459 -0.084122 0.648539 0.086674 -0.713510 
-0.757105 2.008877 -0.011663 -0.777026 0.576073 0.206163 
-0.928806 -0.396748 -0.323536 -0.601146 -0.056038 0.739840 
-0.741004 0.667310 0.172545 -0.511698 0.011692 0.839615 
-0.029449 -0.766573 0.280353 -0.370291 -0.138251 0.910840 
0.816468 1.319295 0.195641 -0.262561 0.231598 -0.927600 
0.512784 0.346015 0.100208 0.115385 0.195877 -0.904499 
0.417915 -1.101404 0.118205 0.579519 0.161522 0.754985 
0.768839 -0.345498 -0.040161 0.562682 -0.072819 0.807196 
0.639783 -0.622196 0.006788 0.528669 -0.026221 0.836959 
0.155383 -0.779007 0.085337 -0.104327 -0.288267 -0.942695 
1.702806 1.209508 -0.138934 -0.197802 0.156215 -0.938633 
-1.015489 0.565887 -0.227335 0.680507 0.131031 -0.700055 
0.735908 0.631797 0.112839 -0.480147 0.351084 -0.663267 
0.372743 0.381669 0.153002 0.459035 0.286716 -0.801694 
-0.026664 -0.923871 0.141340 -0.293788 -0.307600 -0.903241 
-0.680301 1.822060 0.407587 0.825193 -0.535426 -0.055385 
-1.177429 1.515037 -0.411576 -0.871097 0.222796 0.426069 
0.157023 0.725268 -0.016673 0.484547 0.444588 -0.704226 
0.514426 -0.440341 0.066100 0.607919 -0.096151 0.778453 
0.886221 1.824734 0.328016 -0.062785 0.232308 -0.945399 
-0.661037 0.173419 -0.069728 0.136527 0.139125 -0.820725 
-0.211695 1.047560 0.498169 -0.407900 0.799820 0.062465 
0.749409 0.704671 0.159392 -0.866965 0.281784 -0.381778 
-1.363943 0.712151 -0.523876 -0.764737 -0.058087 0.616549 
1.170516 1.312909 -0.019604 -0.232877 0.307390 -0.918247 
-0.281425 -0.615714 0.047275 -0.074263 -0.220389 -0.894880 
0.329148 0.657594 0.526938 0.523854 0.329825 0.775985 
-0.505832 -0.517439 0.021741 0.153389 -0.014737 -0.901336 
-1.138755 0.358489 -0.413591 0.689288 0.208032 -0.685010 
-1.064036 2.231993 -1.133268 0.717632 -0.507501 -0.441713 
-0.765349 0.940491 0.247557 -0.628498 -0.141977 0.753572 
-1.364734 1.192196 -0.518011 0.788417 -0.207611 -0.550546 
-1.237256 1.564232 -0.695764 0.656195 -0.689436 -0.259600 
-0.763359 1.130657 0.179579 0.583081 0.125401 -0.783052 
-0.095081 0.405197 0.539357 -0.112050 -0.267676 0.953504 
1.605273 2.460453 0.366789 0.147709 -0.266005 0.941410 
-1.297145 1.552461 -0.809665 0.663826 -0.689921 -0.260103 
-1.322328 1.691565 -1.053038 0.800240 -0.394297 -0.436431 
-0.931084 1.698303 -0.223046 0.803314 -0.334031 -0.418210 
-0.790348 2.030503 -0.264648 0.691540 -0.545453 -0.418759 
0.858042 -0.245247 -0.124521 -0.404059 0.061667 -0.866138 
-1.527608 0.587733 -0.740053 -0.750163 -0.182945 0.624833 
-0.370591 0.630600 0.193256 -0.779871 0.300081 -0.462447 
0.039064 1.219364 0.498963 -0.073300 0.720853 0.666476 
-0.200163 -0.720653 0.250118 -0.231376 -0.242573 0.936486 
-1.199280 1.727584 -0.822430 -0.600377 0.738199 0.163639 
-0.230820 -0.643228 0.259679 -0.378794 -0.236935 0.871348 
0.875157 1.156316 0.136626 -0.316099 0.238098 -0.912184 
-1.064146 1.721604 -0.461055 -0.688849 0.694583 0.178279 
0.126356 0.036856 -0.133523 0.568005 -0.030246 -0.809476 
1.749799 0.959728 -0.206535 -0.160468 -0.509835 0.814787 
0.311292 0.644591 -0.006042 0.702525 0.238081 -0.666638 
0.628174 0.043137 -0.013013 0.016306 0.100921 -0.866081 
-0.153418 1.146513 0.202653 -0.583159 0.454569 -0.629853 
-0.691185 2.519176 -0.720362 0.816137 -0.385853 -0.427012 
1.979149 2.246030 0.196941 -0.072453 0.461227 -0.879187 
-1.595304 0.845904 -0.726740 0.746395 0.023840 -0.647625 
-0.445027 -0.613429 0.055296 0.086429 -0.035536 -0.923448 
-0.381789 0.624430 0.479338 -0.539751 0.073538 0.813392 
0.137841 0.137341 -0.134953 0.592745 0.001044 -0.791335 
0.852309 0.435004 0.086064 0.653059 -0.256907 0.701599 
-1.462216 0.619492 -0.628152 -0.751980 -0.131940 0.641994 
0.134175 -0.490163 -0.004382 0.304432 -0.407452 -0.852491 
-0.185697 -0.870921 0.105036 0.152497 -0.274818 -0.938891 
2.454701 1.901829 0.030140 0.037652 -0.447282 0.891027 
1.882693 1.611737 -0.058293 -0.130490 0.374590 -0.912772 
0.353962 0.282072 0.069392 0.462848 0.136105 -0.846507 
0.079629 -0.070414 0.408324 0.137655 -0.174710 0.970291 
0.610245 0.900895 0.329155 -0.782096 0.056147 -0.605178 
-0.340955 0.747346 0.455769 -0.732440 0.377701 0.500813 
0.497878 -0.083608 0.181698 0.629972 -0.225270 0.733391 
0.723442 1.770657 0.409036 0.696019 -0.100317 0.693911 
0.147700 -0.278236 0.375471 0.206426 -0.106089 0.968679 
-0.816657 2.721100 -1.061049 0.811371 -0.311942 -0.491686 
1.657087 1.489296 -0.041411 0.405360 -0.015773 0.880121 
-1.079709 1.746787 -0.632805 0.847718 -0.290666 -0.421083 
1.231570 1.219907 -0.052473 0.369025 -0.319816 0.838841 
1.698737 1.128184 -0.159071 -0.118032 0.209195 -0.916006 
1.125815 1.385299 0.030005 -0.237848 0.275516 -0.923359 
0.741455 0.184475 -0.048461 -0.120196 0.141797 -0.848682 
-0.283724 -1.027771 0.149017 -0.187767 -0.044881 0.975964 
0.305370 0.095783 0.008615 0.578341 0.012735 -0.781285 
-0.690683 1.930369 0.233397 0.825010 -0.308466 -0.465420 
-0.787938 1.392288 0.286485 -0.950679 0.021668 0.285479 
0.836074 -0.540142 -0.148284 0.517575 -0.014429 0.832102 
0.026345 0.890092 0.016065 0.420581 0.436267 -0.784851 
-1.456438 1.183094 -0.624812 0.794945 -0.256292 -0.526710 
-0.271513 -0.925083 0.168241 -0.185968 -0.125873 0.970685 
0.370406 0.603563 0.197278 0.712706 0.360087 -0.513445 
1.269651 1.174277 -0.100108 -0.272825 0.324546 -0.904002 
-0.314858 0.037224 0.365546 -0.444494 -0.264730 0.834685 
1.978064 2.490127 0.306761 -0.054337 0.428414 -0.901587 
-0.541176 -1.079740 0.043829 -0.581094 0.303731 0.728129 
-0.334465 0.748567 0.213748 -0.839725 0.390175 -0.319709 
0.668465 0.500010 0.313356 0.585621 -0.169742 0.743857 
-0.284197 -0.777481 0.202271 -0.371508 -0.148003 0.884648 
1.487897 0.878318 -0.384027 -0.307878 0.452387 -0.829304 
0.418482 -1.017900 0.113873 0.456707 0.045994 0.860323 
-0.903657 1.998014 -0.575512 0.794432 -0.507046 -0.318424 
0.746498 -0.425172 -0.041886 0.553359 -0.059733 0.815093 
-1.272708 0.328440 -0.586142 0.690419 0.246175 -0.660807 
0.898076 0.251973 -0.039674 0.649043 -0.214721 0.725779 
1.187390 0.595706 -0.174346 0.584236 -0.241470 0.754194 
-0.820147 -0.709623 -0.170891 -0.440148 0.191971 0.843330 
-0.410922 0.067897 0.072188 -0.243034 0.124201 -0.898871 
0.283220 0.028475 0.376255 0.377194 -0.258501 0.866235 
1.309724 0.419223 -0.359373 0.662532 -0.205722 0.716568 
0.364447 -0.911574 0.098493 -0.173265 -0.149075 -0.969092 
-0.077678 0.128929 -0.173242 -0.565936 0.008679 -0.814135 
0.287507 0.956244 0.330014 0.916368 0.354771 -0.064490 
0.737671 0.074905 0.026279 0.646366 -0.200772 0.731046 
-0.802994 1.765991 0.136635 0.763481 -0.120344 -0.602282 
-0.808122 -0.122711 -0.140648 0.528463 0.075172 -0.798357 
-0.917402 1.886519 -0.365648 -0.805171 0.533321 0.219880 
1.159694 0.444169 -0.197334 0.660467 -0.206309 0.721230 
0.610464 1.050240 0.355926 0.490432 -0.121768 0.840508 
-0.851271 2.656200 -1.070280 -0.808820 0.339096 0.469132 
1.286860 0.881878 -0.197019 -0.381747 0.314301 -0.849327 
-1.224639 1.295225 -0.332573 -0.845754 0.228776 0.459438 
-0.822773 0.786750 0.112192 -0.876137 -0.112888 0.450721 
-0.742643 2.241010 -0.438355 -0.783408 0.526320 0.290673 
1.377274 1.048540 -0.223519 -0.292108 0.372451 -0.873193 
1.421490 1.352551 -0.042831 0.068184 -0.563532 0.791920 
0.799016 -0.744124 -0.089667 -0.337136 -0.152763 -0.913499 
-0.718224 1.034379 0.280464 -0.462172 -0.190125 0.851472 
-0.676511 -0.918875 -0.047405 -0.456183 0.271138 0.831471 
-0.318279 0.864180 0.280870 -0.914690 0.346525 -0.190846 
-0.174982 -0.394793 -0.044869 -0.518630 -0.222622 -0.811918 
-0.442700 0.190037 0.339094 -0.547389 -0.332682 0.757128 
-0.712497 1.218798 0.312921 -0.314089 -0.191280 0.895085 
-0.744517 2.092096 -0.288418 0.813298 -0.470371 -0.339506 
0.094013 -0.723461 0.077497 0.024510 -0.309415 -0.942252 
-0.015471 -0.694755 0.306557 -0.435964 -0.163196 0.877784 
0.603078 0.815357 0.332250 0.621129 -0.082311 0.778162 
1.112021 2.114191 0.351266 -0.161089 0.429469 -0.883726 
-0.281241 -0.030264 0.364925 -0.437626 -0.244249 0.834951 
1.716012 0.707565 -0.269827 0.276993 0.476759 -0.806231 
-1.283074 1.717851 -0.987669 -0.656163 0.658134 0.233315 
-0.891224 2.547593 -1.053904 -0.750550 0.430565 0.470523 
-0.108623 0.697997 0.553950 -0.101872 0.037721 0.987329 
-1.535327 1.277413 -0.895495 -0.826588 0.319051 0.448502 
1.336905 0.640606 -0.308020 0.499380 -0.341369 0.765749 
-0.161666 -0.290764 0.368177 -0.249845 -0.112551 0.944621 
-0.974851 1.693251 -0.165363 -0.928841 0.141552 0.326668 
-0.842319 0.187701 -0.113883 -0.731657 -0.188528 0.649688 
1.272311 1.542279 0.109890 0.158535 -0.568657 0.763408 
-0.497565 0.392895 0.103778 -0.054512 0.270013 -0.848911 
-0.721850 3.029686 -1.040122 0.887794 -0.084999 -0.393820 
0.634004 0.476044 0.090656 -0.135519 0.246695 -0.875281 
1.554637 1.333393 -0.073137 -0.036887 -0.581029 0.797987 
-0.913863 0.989926 -0.035753 0.636156 0.082916 -0.721696 
0.654757 -0.711605 -0.036333 0.519478 -0.012431 0.844001 
-0.935806 0.537892 -0.137134 0.643200 0.195323 -0.735948 
0.089473 0.182955 -0.171185 0.567926 0.021970 -0.812169 
-1.223787 1.786044 -0.955516 -0.648983 0.662086 0.228407 
-0.875881 1.191974 0.120793 -0.916933 0.035074 0.363466 
1.314973 0.947401 -0.200568 -0.349281 0.332060 -0.859424 
1.131442 1.765811 0.218630 -0.152591 0.346635 -0.891787 
0.487111 -0.954886 0.070127 0.496815 0.050970 0.858840 
-1.225099 0.158211 -0.563345 -0.713511 -0.231680 0.635190 
-0.102731 0.157150 0.451784 -0.134507 -0.259299 0.952421 
-0.799493 0.989922 0.103508 0.587742 0.162414 -0.774566 
0.718274 0.321432 -0.021428 -0.085423 0.187223 -0.859599 
0.364455 -0.126280 0.309568 0.554964 -0.235443 0.785307 
1.998511 2.168387 0.160422 -0.058084 0.517292 -0.847581 
2.109460 0.915578 -0.284342 -0.102591 0.276692 -0.936591 
0.323843 0.270363 0.435764 0.323343 -0.277876 0.894124 
-0.574020 0.381056 0.052071 0.063000 0.220801 -0.847199 
-0.025118 0.009717 -0.180641 -0.482223 -0.084081 -0.844849 
-0.384855 -0.125206 0.253805 -0.600678 -0.216423 0.753983 
1.533708 2.369669 0.318371 -0.218093 0.423073 -0.878093 
0.165312 -0.954391 0.199909 0.168257 -0.077719 0.977185 
0.951290 0.976941 0.094029 0.665738 -0.120865 0.674263 
0.756878 1.625075 0.275718 -0.157404 0.230384 -0.955280 
1.414608 1.729486 0.103984 -0.239143 0.426171 -0.857552 
0.613074 -0.226425 0.029363 0.634985 -0.132710 0.754879 
-1.592544 1.184443 -0.888550 0.769209 -0.445023 -0.418305 
0.322339 -0.113021 0.074248 0.419828 0.018648 -0.887164 
-1.017326 -0.301560 -0.393931 0.515535 0.041627 -0.772995 
0.889472 1.719393 0.255919 -0.068149 0.528863 -0.839680 
-0.348281 -0.832536 0.176037 -0.473517 -0.082360 0.862679 
0.296225 0.719293 0.028771 0.670425 0.451029 -0.569686 
0.963786 1.129201 0.078965 -0.317655 0.256324 -0.907675 
-0.539261 2.581136 -0.415260 -0.664004 0.581493 0.454459 
-1.134055 0.136454 -0.450422 -0.711976 -0.201115 0.648027 
-0.369924 0.727277 0.314291 -0.909258 0.363392 -0.058359 
0.157986 1.164236 0.616436 -0.449898 0.387529 0.760479 
0.389637 -0.312871 0.188203 0.631247 -0.165627 0.751997 
0.457873 0.570342 0.266898 0.207824 0.518391 -0.606079 
0.416645 -0.770305 0.129992 0.535578 -0.051274 0.834038 
0.886812 1.900061 0.393830 0.432501 -0.315383 0.835228 
1.603200 1.757675 0.044282 -0.217888 0.378505 -0.893632 
-0.464862 -0.194206 0.129641 -0.703785 -0.183041 0.676153 
-0.579883 2.416987 -0.252883 -0.796764 0.501303 0.332943 
-0.787128 0.775586 0.183203 -0.656951 -0.105244 0.705755 
0.197447 0.865541 0.538233 0.515374 -0.009296 0.828370 
-1.372770 1.666849 -1.121681 0.792374 -0.425292 -0.422344 
-0.400304 0.165711 0.089480 -0.273090 0.155293 -0.901371 
-0.069255 1.104209 0.147251 -0.392189 0.408646 -0.810986 
-0.357657 0.473918 0.176104 -0.565585 0.332633 -0.715143 
-0.382536 0.387432 0.181839 -0.408031 0.314688 -0.808776 
-1.039555 0.493104 -0.225575 -0.771239 -0.140651 0.602194 
-1.328419 0.129149 -0.674365 -0.671358 -0.202223 0.644642 
-0.715316 2.372568 -0.529682 -0.807266 0.452318 0.334906 
1.415787 0.941457 -0.295771 -0.313632 0.401404 -0.848571 
-0.168426 0.736862 0.538191 -0.241442 0.088398 0.940699 
-0.408270 -0.847088 0.124280 -0.549145 -0.024222 0.824790 
-0.028764 0.783952 -0.031616 -0.408360 0.391707 -0.817326 
1.828300 2.561968 0.367730 -0.191225 0.779058 -0.584324 
-0.788224 1.934582 -0.070133 0.687870 -0.479861 -0.481833 
-1.081557 0.733431 -0.240028 -0.797900 -0.033550 0.554423 
-0.333940 -0.842105 0.088344 0.178756 -0.183356 -0.959604 
-0.151217 0.013762 -0.113027 -0.600065 -0.036351 -0.783394 
-1.006429 -0.136295 -0.387584 0.538930 0.133794 -0.759542 
0.457505 0.468349 0.185410 0.298574 0.376499 -0.775788 
-0.836076 0.494886 -0.060521 0.532345 0.246157 -0.766269 
-0.210542 -0.063191 -0.065790 -0.630824 -0.067893 -0.755951 
-0.370811 -0.738069 0.165330 -0.588826 -0.074428 0.795937 
0.065390 0.939467 0.597876 0.201604 -0.062770 0.969218 
0.718358 -0.649864 -0.080781 0.525937 -0.021119 0.836730 
-0.065879 0.575055 -0.105396 -0.489046 0.263513 -0.807524 
-0.038247 0.495806 0.562237 -0.067455 -0.239733 0.965894 
1.987248 2.085918 0.122364 -0.049156 0.570411 -0.817170 
0.041775 0.303569 0.507635 0.053127 -0.292956 0.951583 
0.676683 0.124638 -0.025691 -0.041282 0.125227 -0.859561 
-0.231174 -0.816460 0.090617 0.100457 -0.211254 -0.947467 
-0.692522 0.397428 0.166164 -0.710936 -0.312598 0.612348 
-1.005506 1.722769 -0.247679 -0.868746 0.354286 0.301031 
-0.859538 2.525801 -0.991335 -0.754333 0.437883 0.460356 
0.569333 -0.360059 0.044984 0.613061 -0.106407 0.773052 
-1.200595 1.978569 -1.178045 0.785938 -0.446807 -0.422973 
0.494268 0.052291 0.049904 0.184929 0.109748 -0.894463 
-0.966744 1.682968 -0.293310 0.736511 -0.495078 -0.322720 
-0.269210 -0.290392 0.021997 -0.520629 -0.093707 -0.828754 
0.573264 0.502701 0.133395 0.009638 0.328939 -0.820113 
1.130912 0.016627 -0.315888 -0.491487 0.119734 -0.814543 
0.160478 1.033949 0.151629 0.579742 0.384703 -0.707073 
-0.080920 -0.613003 0.307136 -0.230511 -0.251704 0.934304 
1.813041 2.344444 0.259060 0.142985 -0.426832 0.888841 
-0.815389 2.089486 -0.430824 -0.857746 0.436988 0.241258 
0.658167 1.698017 0.346078 -0.140196 0.211726 -0.963965 
1.090074 0.156811 -0.214819 0.627188 -0.159356 0.749214 
1.127754 0.091028 -0.293140 -0.507806 0.135441 -0.808970 
0.351163 -0.419026 0.211852 0.640982 -0.160842 0.749231 
1.118146 -0.130345 -0.342658 -0.457244 0.088521 -0.827691 
0.409834 -0.128862 0.227622 0.555112 -0.213653 0.790776 
1.861037 1.784580 0.006827 -0.176101 0.275101 -0.934553 
0.160556 1.052980 0.612955 0.028832 -0.146700 0.939874 
-0.915759 0.775078 -0.072433 0.637633 0.141767 -0.733657 
1.114521 1.434687 0.085121 0.379335 -0.404899 0.755069 
-0.668357 2.591377 -0.741953 0.814350 -0.368817 -0.446176 
0.797749 0.148861 -0.078699 -0.192395 0.127785 -0.835341 
1.472174 2.333556 0.314488 -0.231538 0.414018 -0.879640 
-1.454371 1.547189 -1.117912 -0.703027 0.609882 0.277028 
0.460502 -0.127054 0.044109 0.219959 0.053069 -0.893563 
1.993748 1.898066 0.041991 0.092814 -0.512120 0.845553 
1.450716 1.676063 0.066014 -0.172013 0.488195 -0.837850 
-0.642295 0.449616 0.286799 -0.656349 -0.257876 0.657536 
-1.152246 -0.139931 -0.507151 -0.609301 -0.092130 0.703620 
0.090379 0.631376 -0.078411 0.460423 0.306430 -0.806140 
-1.302959 0.504710 -0.523720 0.708526 0.166609 -0.680296 
-1.232749 1.914330 -1.160793 0.796667 -0.412604 -0.437122 
1.161396 0.816139 -0.097336 0.538734 -0.235808 0.765652 
-1.463118 0.469771 -0.743230 -0.747439 -0.257904 0.603206 
0.177607 0.452528 0.539858 0.185435 -0.237114 0.952026 
0.895657 1.287852 0.186286 0.640392 -0.186592 0.674223 
0.247250 0.779889 0.052031 0.599657 0.538028 -0.572650 
0.868443 1.522258 0.193268 -0.184231 0.250689 -0.943718 
-0.645885 0.973934 0.335649 -0.660547 -0.138182 0.729575 
-0.542319 2.523649 -0.356606 -0.739172 0.538765 0.395633 
-1.034366 0.717473 -0.179854 -0.808596 -0.057077 0.541587 
-0.835427 0.768338 0.022839 0.601362 0.200157 -0.769563 
0.740434 0.254913 -0.039591 -0.116009 0.164683 -0.852019 
-0.486676 0.504157 0.450593 -0.410161 -0.055929 0.881109 
1.080965 0.426449 -0.129541 0.655295 -0.218919 0.721200 
1.452851 2.167171 0.310101 0.284605 -0.340884 0.858576 
-0.999423 0.779743 -0.122486 -0.828369 -0.046268 0.512687 
1.316082 0.059313 -0.457976 -0.531449 0.107512 -0.790495 
0.262805 0.353184 0.488779 0.235865 -0.260530 0.930171 
-0.295185 0.605515 -0.012901 -0.699034 0.190304 -0.678444 
1.880104 1.355403 -0.123450 0.331006 -0.071960 0.897654 
-0.155819 -0.374378 0.362524 -0.225976 -0.110932 0.963616 
1.129023 1.937774 0.284243 -0.113630 0.140961 -0.967486 
1.687634 2.322820 0.282168 0.186364 -0.389331 0.894530 
1.336168 0.791441 -0.257496 0.440522 -0.344577 0.800236 
1.798279 1.204661 -0.156632 -0.236914 0.143242 -0.955397 
-0.719204 -0.571777 -0.155282 0.394252 0.017160 -0.859693 
-1.149978 2.291128 -1.317322 0.777186 -0.401594 -0.463944 
0.042628 1.374757 0.253212 0.580739 0.687195 -0.399839 
1.065278 -0.193827 -0.298025 0.588491 -0.103407 0.780627 
0.411598 -0.554241 0.072978 0.086881 -0.033040 -0.929376 
-1.272017 0.633738 -0.445468 -0.762270 -0.083574 0.618307 
-0.326353 -0.235168 0.090723 -0.334929 0.036225 -0.927431 
0.413503 -0.359365 0.126604 0.649900 -0.140095 0.746013 
-0.417784 0.585427 0.353348 -0.259105 0.628137 -0.613244 
2.450167 2.274503 0.200085 0.019748 -0.447277 0.893465 
1.850268 2.016929 0.104382 -0.175037 0.066557 -0.980380 
2.164580 2.145662 0.150453 0.082210 -0.283573 0.941044 
0.305325 0.015634 0.022487 0.536668 -0.002554 -0.808557 
1.740534 1.065166 -0.176211 -0.116424 -0.517388 0.818593 
0.033450 -0.290034 0.378259 0.091266 -0.083529 0.989139 
1.521904 1.713953 0.055773 -0.193204 0.437240 -0.863797 
1.029333 1.790873 0.280735 0.519701 -0.327233 0.742748 
-0.395794 -0.771466 0.089658 0.080247 -0.066335 -0.948011 
-1.395709 1.364406 -0.727761 0.729087 -0.517476 -0.370829 
0.322401 -0.600851 0.220057 0.580127 -0.149895 0.796520 
1.669228 0.899182 -0.210843 -0.227006 -0.539856 0.792964 
0.171955 0.682338 0.550999 0.215893 0.177979 0.936063 
-0.881065 2.264803 -0.826282 -0.893376 0.218263 0.382880 
-0.207187 -1.098204 0.185932 -0.213971 0.062336 0.965255 
-0.102212 -0.543310 0.324863 -0.151851 -0.240809 0.955811 
0.461938 -0.787926 0.076940 -0.156232 -0.062640 -0.951355 
2.055481 0.979322 -0.257071 0.100044 -0.325001 0.916078 
0.034741 1.279082 0.423981 0.165540 0.807428 0.559003 
0.518064 0.239021 0.061184 0.162731 0.169259 -0.897773 
1.807535 1.845748 0.038801 -0.187494 0.239214 -0.940217 
-0.693771 1.422500 0.365359 -0.223192 -0.174370 0.895615 
0.641883 1.296266 0.280022 -0.684125 0.083686 -0.698751 
-0.891482 1.487883 0.166622 -0.934078 0.089344 0.298541 
2.129115 2.372455 0.250962 -0.046966 0.429989 -0.900565 
-1.070700 1.118588 -0.158941 -0.862574 0.109193 0.449681 
0.221946 -0.426711 -0.010266 0.499728 -0.238663 -0.812260 
-0.342374 0.426392 0.124856 -0.557556 0.246678 -0.748424 
0.795022 -0.159307 -0.059278 -0.371411 0.076213 -0.864979 
-0.016570 1.363360 0.200302 -0.504538 0.118625 -0.814123 
-0.587183 2.334695 -0.202717 0.859213 -0.385903 -0.326540 
0.358125 0.011286 0.107873 0.354294 0.102408 -0.921088 
0.136832 0.001152 0.414285 0.176380 -0.209382 0.958886 
-0.755346 0.408589 -0.058689 0.339837 0.215830 -0.790869 
1.943346 1.790431 -0.002069 -0.156804 0.241602 -0.945389 
0.099060 -0.222240 0.386750 0.161006 -0.119578 0.975632 
-0.755220 2.915915 -1.056237 0.815271 -0.271478 -0.507255 
2.091377 2.527776 0.328818 -0.037152 0.442270 -0.894934 
-0.316636 0.735836 0.116968 -0.723700 0.505522 -0.418445 
-0.973537 0.451607 -0.197192 0.658960 0.193402 -0.723317 
1.968524 1.424974 -0.121214 0.272290 -0.150059 0.906458 
2.227143 2.392169 0.262676 0.057470 -0.530192 0.837122 
1.373870 1.518504 0.005277 -0.183778 0.422513 -0.884371 
0.579408 0.393179 0.086632 0.005293 0.204225 -0.893097 
-0.431305 -0.517134 0.086714 -0.676944 -0.076648 0.721781 
-0.703156 2.367087 -0.455987 -0.814093 0.443069 0.317064 
-0.922302 2.867002 -1.292950 -0.819976 0.261196 0.507930 
-1.479941 0.584625 -0.687262 0.722906 0.162981 -0.663106 
-0.332909 -0.992315 0.111859 0.240161 -0.160790 -0.952587 
0.965689 0.554621 -0.053544 -0.518366 0.228131 -0.820489 
-0.663804 -0.204808 -0.071100 0.289524 0.050291 -0.838645 
-0.107705 0.478408 -0.113628 -0.589402 0.191726 -0.762916 
1.935637 2.129859 0.143860 -0.061423 0.544856 -0.831049 
1.033209 -0.034597 -0.215676 0.604688 -0.127846 0.768330 
-0.576652 -0.069309 -0.044661 0.036699 0.069850 -0.848746 
-1.341393 1.488808 -0.785406 -0.849211 0.231701 0.462193 
-0.038153 1.036743 0.602316 -0.029836 0.097630 0.962131 
0.553098 0.412104 0.409740 0.460383 -0.224981 0.830051 
2.006269 1.835877 0.007646 -0.141327 0.179631 -0.961686 
-0.729781 0.564776 0.210133 -0.549833 -0.053725 0.780805 
-0.957261 2.098502 -0.802568 -0.841916 0.365485 0.365954 
-0.009849 0.541071 -0.152877 -0.491485 0.276804 -0.821857 
0.658721 0.783273 0.284048 0.517180 -0.044807 0.832403 
-0.955036 1.607530 0.009588 0.685536 -0.272195 -0.612034 
-1.086650 1.735915 -0.554093 -0.666563 0.701644 0.176859 
-0.701536 0.479920 0.219572 -0.736307 -0.252398 0.583262 
-0.811119 2.222737 -0.656989 0.728020 -0.565030 -0.359363 
-0.866501 1.888905 -0.198118 -0.841998 0.475761 0.146376 
0.675546 0.196920 -0.016547 -0.036873 0.148716 -0.863004 
0.064157 -0.811053 0.105519 0.144820 -0.308492 -0.924769 
-0.258355 0.823622 0.116561 -0.652701 0.479635 -0.552967 
-0.859943 1.841847 -0.062816 -0.846161 0.468480 0.071665 
-1.176691 1.596447 -0.620484 0.641862 -0.720107 -0.228171 
1.955955 2.574365 0.351046 -0.105558 0.659521 -0.736982 
-0.775977 1.177704 0.274816 -0.799741 -0.085127 0.552783 
-1.207489 0.534057 -0.392379 -0.756360 -0.125705 0.628519 
0.925113 0.871350 0.040730 -0.427031 0.221158 -0.866049 
-0.622172 2.136298 0.108927 0.956297 -0.102444 0.029987 
-0.245529 1.063787 0.327186 -0.883669 0.403028 -0.102761 
-0.121673 0.080112 -0.138905 -0.590415 -0.012238 -0.792417 
-0.244493 -0.211680 -0.029984 -0.627305 -0.117268 -0.757549 
-0.056400 0.445580 -0.151407 -0.554112 0.194543 -0.791295 
1.379619 0.235203 -0.488311 0.644855 -0.178213 0.729287 
0.889311 1.995487 0.382813 -0.118356 0.448025 -0.881779 
-0.772520 0.612952 0.126071 -0.441892 0.073134 0.889447 
0.200734 1.153844 0.337422 0.851742 0.491759 -0.119322 
1.625954 2.079777 0.180222 0.247034 -0.243923 0.933173 
-0.727588 2.205678 -0.285471 -0.791995 0.520426 0.249811 
0.951343 1.385981 0.160972 0.573262 -0.256275 0.711257 
-0.440664 0.352743 0.407443 -0.418182 -0.281109 0.841031 
-0.710236 0.132892 0.014609 -0.709336 -0.226119 0.656012 
0.420596 0.544030 0.430009 0.450267 0.060004 0.832313 
-0.693275 2.226019 -0.349162 0.858111 -0.372687 -0.338112 
1.317869 0.213949 -0.442256 -0.555395 0.163305 -0.777767 
1.651235 0.833980 -0.233638 0.148953 0.419830 -0.833798 
0.849380 0.192328 -0.022804 0.648918 -0.207971 0.727684 
0.278411 0.504227 -0.026887 0.691585 0.137445 -0.697792 
-1.460913 0.407626 -0.790879 0.723694 0.299795 -0.618644 
-0.518300 -0.706441 0.035976 -0.609543 -0.004156 0.780494 
-0.909633 0.784150 -0.001980 -0.854284 -0.077785 0.479162 
1.556554 0.852118 -0.277178 0.025872 -0.457293 0.822819 
-0.844624 2.324870 -0.836936 0.884311 -0.203289 -0.416323 
1.679381 1.641912 -0.014132 -0.153017 0.391798 -0.900023 
0.041918 0.800789 -0.017622 0.422352 0.404040 -0.800717 
-0.196008 0.505036 0.542433 -0.204487 -0.218240 0.952237 
1.562059 2.270293 0.261235 -0.212208 0.388384 -0.895265 
-1.139209 1.515080 -0.259959 -0.880003 0.211750 0.394785 
-1.050171 2.475392 -1.276808 0.829097 -0.281658 -0.477230 
1.232037 0.952919 -0.113003 0.440604 -0.283190 0.814306 
-0.524518 -0.227375 0.039809 -0.723101 -0.137032 0.675455 
1.750973 1.903291 0.071673 -0.200097 0.202750 -0.946136 
0.186554 0.059293 0.409677 0.242587 -0.245635 0.925119 
-0.083239 -0.186745 -0.120860 -0.484567 -0.162784 -0.833629 
0.110214 -0.656673 0.057707 -0.010563 -0.306853 -0.949663 
-0.670925 -0.581441 -0.098736 0.388013 0.001984 -0.870395 
-0.225608 1.071534 0.252225 -0.804740 0.413091 -0.358469 
-0.709682 2.029396 0.127729 -0.792820 0.567015 0.124129 
0.554318 -1.056565 0.054328 -0.347759 -0.145194 -0.924139 
2.169844 1.056525 -0.257424 -0.149229 0.263796 -0.951888 
-1.054651 0.303192 -0.325679 0.667474 0.178914 -0.707365 
0.699656 1.522858 0.295747 -0.199747 0.214020 -0.947928 
-0.706877 1.666901 0.373694 0.923576 0.007757 -0.011989 
-0.390940 -0.358062 0.141405 -0.705457 -0.136895 0.692927 
-0.575516 0.533197 0.397098 -0.297685 -0.127066 0.905210 
1.121799 2.230252 0.410391 -0.381396 0.648699 -0.612908 
0.806397 0.640916 0.070712 -0.452717 0.282914 -0.844135 
0.128893 -0.557705 0.022186 0.188369 -0.351430 -0.906741 
0.100564 -0.859281 0.244283 0.197210 -0.118515 0.962033 
0.307123 0.727490 0.501079 0.579969 0.307648 0.713361 
1.332242 1.908415 0.213699 0.370141 -0.359583 0.831321 
0.618749 -0.870724 0.004910 0.435510 0.086514 0.887309 
-0.163884 0.745750 -0.000436 -0.517616 0.489597 -0.657344 
-0.892241 0.022371 -0.171451 -0.700017 -0.119619 0.686417 
1.062894 1.285467 0.071518 0.498925 -0.266599 0.758980 
-0.805322 1.943451 -0.144057 0.712864 -0.486238 -0.438559 
0.370565 0.532511 0.494915 0.411424 -0.117600 0.877176 
-1.066383 1.981454 -0.922398 0.794606 -0.464226 -0.383987 
-0.959693 -0.117432 -0.325073 0.540920 0.121070 -0.767178 
1.175630 0.696817 -0.137955 0.561621 -0.238632 0.761658 
-0.858912 -0.157044 -0.184871 -0.672812 -0.100749 0.707879 
1.994648 1.038967 -0.229760 0.079327 -0.362954 0.900041 
-1.025353 0.378501 -0.229968 -0.747728 -0.190056 0.634173 
0.000304 0.427179 -0.193379 0.500802 0.193714 -0.836258 
-0.835479 3.082073 -1.239531 -0.832966 0.214149 0.506837 
1.070827 0.625291 -0.081200 0.669041 -0.174352 0.701818 
1.421069 0.559471 -0.422358 0.550433 -0.329957 0.738062 
-1.122027 1.561650 -0.445475 0.670624 -0.634236 -0.266761 
0.208201 -0.497768 0.322525 0.345103 -0.204555 0.910519 
0.599517 1.544422 0.415572 -0.179339 -0.204983 0.838335 
-1.018003 1.048650 -0.153161 0.680054 -0.005915 -0.670046 
-1.414422 0.549496 -0.630708 0.717659 0.168815 -0.667945 
-0.346321 -0.101893 0.332825 -0.568151 -0.242500 0.773265 
-0.731404 2.499202 -0.782286 0.827865 -0.339075 -0.439148 
0.865395 -0.678383 -0.128146 0.389385 0.133770 0.891301 
0.932408 -0.555898 -0.180283 -0.387352 -0.098891 -0.883366 
-0.434726 -0.683223 0.065775 0.107101 -0.048363 -0.931633 
0.171281 1.180816 0.272236 0.769327 0.522143 -0.310114 
0.598700 1.630791 0.362862 -0.779524 0.032811 -0.496206 
0.057438 0.959297 0.069706 0.435186 0.467542 -0.754117 
-0.285800 -1.111786 0.151809 0.066295 -0.141168 0.757730 
-0.749601 0.489151 -0.002956 0.407237 0.251778 -0.793181 
0.015027 -1.119570 0.190952 0.427211 -0.306222 -0.809905 
0.574455 0.612338 0.245769 -0.265625 0.489886 -0.510583 
-0.828480 1.176676 0.182125 -0.926519 0.008550 0.350722 
0.121765 1.207003 0.526847 -0.245066 0.781456 0.509150 
0.155741 -0.857474 0.106908 -0.115110 -0.295464 -0.939606 
-1.018171 1.874571 -0.630364 -0.749507 0.576025 0.271953 
0.506197 -0.042005 0.033152 0.166053 0.078648 -0.887788 
1.356624 1.687130 0.107139 -0.209560 0.481577 -0.831218 
0.007042 -0.054825 0.413538 0.072218 -0.170425 0.979681 
-0.159058 -0.474765 -0.003727 -0.364463 -0.356316 -0.840330 
0.359063 0.540150 0.167803 0.599812 0.393452 -0.670652 
-0.164057 0.157476 -0.116274 -0.639153 0.004916 -0.750887 
-0.801159 0.538331 -0.007931 0.524633 0.268539 -0.777431 
-0.997592 0.981807 -0.139002 0.671624 0.026992 -0.683476 
0.981697 2.146599 0.429703 0.068528 0.062164 0.961327 
0.602144 0.195809 0.226761 0.612536 -0.304516 0.721411 
0.612469 0.156686 0.007778 0.040721 0.138429 -0.874398 
2.431378 2.192425 0.163524 0.029167 -0.407702 0.905910 
0.620289 0.587050 0.342872 0.185107 -0.056385 0.931877 
-0.779060 1.297895 0.293951 -0.822844 -0.060515 0.525813 
0.687464 1.222043 0.259637 -0.316665 0.198737 -0.919194 
0.928838 -0.079085 -0.122124 0.596565 -0.118484 0.776915 
-1.210429 1.467446 -0.474241 0.725176 -0.497559 -0.368598 
-0.095343 0.326032 -0.161518 -0.604423 0.087759 -0.773407 
-1.407534 1.566920 -1.044577 -0.669263 0.654062 0.239802 
1.007344 0.359494 -0.091611 0.652396 -0.218630 0.722872 
0.140437 -0.932850 0.129709 -0.106149 -0.313481 -0.937447 
-0.110165 -0.984229 0.212253 -0.172224 -0.047242 0.978801 
-0.343037 0.194547 0.396869 -0.416381 -0.295241 0.848896 
-0.207749 0.055719 -0.077699 -0.652689 -0.031834 -0.738144 
0.853686 0.641161 0.137418 0.785190 -0.102843 0.609543 
-0.742079 1.263101 0.238865 0.587779 0.074139 -0.785219 
1.503388 0.421299 -0.557911 0.668904 -0.210380 0.707590 
0.404547 0.310767 0.419324 0.352022 -0.248815 0.895997 
2.075446 2.119076 0.141059 0.100730 -0.241072 0.953190 
-0.581865 -0.137196 0.020462 -0.722209 -0.153982 0.670236 
-0.892827 -0.194813 -0.242187 -0.666430 -0.110524 0.707339 
0.127889 0.972973 0.110297 0.536526 0.429652 -0.705289 
-1.446734 1.618583 -1.201451 -0.750555 0.538645 0.334936 
-0.267876 0.100816 -0.040163 -0.708756 -0.026888 -0.689939 
-0.191494 -0.109431 0.381896 -0.321071 -0.197862 0.892234 
-0.149460 -0.017093 0.411061 -0.193258 -0.203177 0.957032 
-0.600469 2.504210 -0.502230 0.847493 -0.394545 -0.348397 
0.147134 0.560695 -0.065210 0.536053 0.229560 -0.775862 
-1.534481 0.774387 -0.679023 0.737329 0.051677 -0.658617 
-0.826962 1.992866 -0.312263 0.744723 -0.520411 -0.360553 
0.289579 0.098180 0.386605 0.342749 -0.274239 0.883735 
1.085627 1.199695 0.044774 0.496992 -0.240296 0.762891 
-0.173949 1.105388 0.548802 -0.811983 0.344871 -0.315622 
0.229413 0.510588 0.533079 0.213315 -0.205129 0.953416 
-0.313896 0.671661 0.526875 -0.487624 0.323575 0.798036 
0.223293 0.150624 0.424792 0.253429 -0.267631 0.920403 
-1.278116 0.837693 -0.441991 -0.781039 0.026043 0.578219 
-1.090085 1.928936 -0.878033 -0.766531 0.518778 0.328480 
-0.386775 -0.217549 0.210241 -0.642012 -0.185180 0.729918 
-0.054025 -0.487007 0.345254 -0.096957 -0.232839 0.963494 
-0.895066 2.942293 -1.279254 -0.823643 0.245801 0.508760 
0.174254 1.207732 0.378113 0.685947 0.692347 -0.084445 
0.744182 0.373627 0.176267 0.618386 -0.315925 0.713148 
1.781303 1.783699 0.017375 -0.194709 0.303303 -0.924992 
2.366337 1.862211 0.013216 0.054884 -0.443108 0.890102 
1.661145 1.889691 0.084175 -0.222551 0.231475 -0.936790 
-0.024311 -0.603072 0.042946 -0.311354 -0.396086 -0.856263 
0.472382 0.059333 0.271468 0.567516 -0.279771 0.761010 
-0.642720 2.578581 -0.672011 0.823724 -0.373838 -0.420214 
-1.087809 2.006760 -0.988908 0.776015 -0.477497 -0.398093 
0.380517 0.543371 0.236730 0.558047 0.483625 -0.666678 
1.276436 0.993882 -0.149745 -0.347378 0.305688 -0.872088 
2.012338 0.851265 -0.284081 0.003529 0.334415 -0.900927 
-0.232271 0.762176 0.034909 -0.579660 0.534560 -0.585550 
0.227024 -0.837462 0.096253 -0.142328 -0.228448 -0.941437 
-1.674005 0.977092 -0.870628 0.783684 -0.233271 -0.529608 
-0.822927 0.544179 0.060087 -0.814733 -0.211517 0.533430 
1.607128 2.384166 0.323592 0.209320 -0.396330 0.887619 
-0.189654 0.577151 0.557130 -0.224283 -0.183766 0.950621 
-0.219479 1.046557 0.572316 -0.510602 -0.370800 0.675713 
-1.064644 2.385256 -1.245405 0.826783 -0.301373 -0.465936 
0.708941 0.565038 0.084087 -0.304941 0.297990 -0.850337 
0.713552 1.753347 0.336980 -0.126294 0.290181 -0.924889 
0.039092 0.812494 0.576946 0.148959 -0.228184 0.957496 
-0.304507 0.536034 0.002417 -0.714138 0.147916 -0.672721 
-1.415631 0.961275 -0.559009 -0.785316 0.067582 0.574325 
0.758516 0.877998 0.247559 0.488989 -0.037734 0.849216 
-0.120572 -0.709865 0.070129 0.057799 -0.304458 -0.947942 
1.421530 1.009297 -0.270359 0.316647 -0.406320 0.850791 
1.150492 2.160031 0.389564 0.388794 -0.289594 0.847486 
