1.429749 0.532866 -0.085685 -0.146052 -0.096582 -0.982658 
0.516703 -0.321135 0.082130 0.441213 -0.119429 0.885628 
2.828606 0.535688 -0.198837 -0.157545 0.074681 0.971272 
0.809311 0.014637 0.036431 0.076971 0.072330 -0.912599 
-1.856368 0.969767 -0.361855 -0.704578 -0.010644 0.664841 
-0.234706 1.047861 0.162229 -0.827415 0.360251 -0.369795 
0.619136 -0.779983 0.072043 -0.028799 -0.107415 -0.975761 
0.038764 0.391825 0.439085 0.024710 -0.350811 0.934016 
-0.223394 1.255926 0.511667 -0.797217 -0.448662 -0.373965 
2.242026 0.818525 -0.241439 0.154360 0.062777 0.978572 
-2.537372 0.885209 -1.061367 -0.515686 0.005754 0.840102 
1.915608 0.851798 -0.240646 -0.082825 -0.038677 -0.968132 
1.484868 0.338256 -0.108810 -0.152807 -0.050983 -0.982257 
1.310632 0.647806 -0.000923 0.472868 -0.109847 0.832013 
-2.784964 1.279679 -1.236212 0.431851 -0.003492 -0.896494 
1.863693 0.585062 -0.204064 -0.022937 -0.083304 0.960723 
-0.083116 0.315216 -0.267433 -0.608778 0.098782 -0.763982 
-0.103448 0.964312 0.502929 -0.211063 -0.015150 0.970883 
-1.451537 0.491876 -0.128076 0.367717 -0.094455 -0.902860 
-1.777714 1.344426 -0.349357 0.516724 -0.316816 -0.769996 
-0.062444 -0.140544 0.306458 -0.141212 -0.085958 0.978288 
-3.083629 1.588438 -1.356350 -0.370306 -0.080821 0.919744 
0.489814 -0.416821 0.080581 0.433064 -0.092375 0.891154 
-0.075724 -0.402720 0.301671 -0.108663 -0.108900 0.986130 
1.230994 -0.479530 -0.087384 0.314668 -0.121695 0.937736 
1.566132 1.488843 -0.088872 0.065391 -0.066320 0.986727 
0.908244 0.865525 0.161630 -0.510147 0.137516 -0.846307 
-0.179413 0.283802 -0.212598 -0.701627 0.048272 -0.689045 
2.906204 0.368364 -0.158153 -0.133111 0.153669 0.975019 
1.960369 -0.016177 -0.102339 0.098115 -0.241392 -0.930996 
1.692933 -0.092751 -0.196951 0.085692 -0.012685 0.992622 
-0.026029 1.389940 0.177312 -0.428130 0.802108 0.354874 
0.091691 0.958969 0.505122 0.210084 0.001910 0.970070 
-0.354958 0.378435 0.077720 -0.658108 0.147109 -0.726291 
3.103076 0.769352 -0.147678 -0.271297 0.002891 0.955708 
-0.143658 -0.695679 0.011358 -0.010782 -0.362908 -0.920560 
3.359515 1.289808 -0.089558 0.334015 0.015109 -0.939825 
-0.424219 -0.588645 0.048432 -0.262787 -0.060460 -0.917212 
-0.606264 0.478152 0.143824 -0.347224 0.249812 -0.793455 
0.966103 0.048851 0.034531 -0.083425 0.081335 -0.941210 
1.694477 0.386605 -0.164482 0.186874 0.024275 0.962708 
-0.605487 0.671966 0.312434 -0.081137 0.165793 0.935274 
-0.168514 1.209446 0.224200 -0.721490 0.623745 -0.225294 
1.407830 0.619693 -0.077858 -0.143391 -0.114380 -0.981994 
1.991127 0.881665 -0.196808 0.312549 0.022810 0.928236 
-2.859217 1.452138 -1.280906 -0.416107 -0.084070 0.895877 
0.228095 -0.012691 0.286733 0.257165 -0.225435 0.905740 
-1.941976 0.220168 -0.336027 -0.563260 0.120500 0.815124 
0.278269 -0.307158 -0.043892 0.560141 -0.138054 -0.806339 
-0.617676 -1.061041 0.097125 0.110530 -0.297668 -0.945459 
-0.022064 1.227977 0.388794 0.032786 0.776742 0.609322 
-0.545205 -0.087109 0.172847 -0.342573 -0.213133 0.895916 
0.256654 -0.176682 0.257513 0.434519 -0.180344 0.834139 
0.650490 -0.111093 0.024569 0.213919 0.045315 -0.897187 
-0.210301 1.010808 0.102439 -0.685653 0.276641 -0.629044 
-0.451000 -1.369782 0.149436 -0.193922 -0.012917 -0.964473 
-0.091688 1.290475 0.178683 -0.679497 0.632364 -0.009906 
-0.666062 -0.730919 0.080086 -0.287918 0.005264 0.951616 
-0.197119 0.709691 0.476140 -0.280527 0.251835 0.903075 
0.364445 0.642091 0.428901 0.545800 0.049451 0.791379 
-1.795353 0.175995 -0.288448 0.490588 -0.095218 -0.851878 
-1.571876 -0.041134 -0.174433 0.367083 -0.020536 -0.912957 
0.168310 0.411642 -0.179449 0.658205 0.170517 -0.698114 
-0.714221 0.189015 0.077780 -0.157030 0.066668 -0.894062 
0.115731 -0.462242 -0.110558 0.364158 -0.398621 -0.828202 
-2.111303 0.290531 -0.534367 0.694159 -0.322937 -0.608790 
-0.594308 -0.595776 0.065004 -0.052184 -0.063805 -0.955122 
2.859859 0.837342 -0.223913 -0.237193 -0.050502 0.959898 
0.676823 0.220624 0.256775 0.243788 -0.299131 0.913720 
-2.482281 1.304294 -1.089755 -0.570965 0.185943 0.785599 
0.225745 -0.193026 -0.129208 0.607631 -0.136746 -0.762533 
1.364479 1.188225 0.001936 0.314280 0.074675 0.928945 
-1.120461 0.956703 0.092869 -0.170714 0.157065 0.926595 
0.001869 0.715677 -0.127547 0.285332 0.576357 -0.761127 
-1.764556 1.439002 -0.349940 0.572706 0.005557 -0.814358 
-2.326272 0.426972 -0.767576 -0.757550 0.353286 0.466306 
0.466198 -1.038916 0.113669 -0.007204 -0.222278 -0.969756 
-1.134304 0.577046 0.027035 0.227736 -0.058427 -0.966224 
-0.386622 -0.278601 0.014760 -0.456829 0.013280 -0.859431 
-0.028666 0.905989 0.510691 -0.153850 -0.032042 0.975356 
-0.190547 -0.289326 0.275253 -0.340105 -0.070569 0.904774 
2.096731 -0.139903 -0.066022 0.106097 -0.253145 -0.938490 
0.186318 0.136142 0.327021 0.126816 -0.263964 0.954998 
-0.318956 0.723993 0.051342 -0.697659 0.514754 -0.454860 
0.019183 0.730753 0.485616 0.054151 0.020975 0.996158 
1.683340 -0.266870 -0.170958 0.000249 -0.016880 -0.985720 
0.923102 -0.840841 -0.010107 0.241999 0.057638 0.947857 
-0.944053 -0.601180 -0.002864 -0.293004 -0.073192 0.945060 
-2.609692 1.586725 -1.189491 0.471703 -0.031522 -0.880069 
2.228901 0.241611 -0.148348 0.234206 0.249023 0.918346 
1.609975 0.098992 -0.151447 0.154880 -0.011639 0.979864 
2.015996 0.722845 -0.256558 0.067696 0.046852 -0.990718 
1.188354 0.213035 -0.007203 -0.202261 0.015008 -0.973742 
1.055176 0.780378 0.037285 -0.382019 0.033400 -0.891757 
2.399809 1.231023 -0.264021 0.151521 0.020276 0.980310 
-2.781170 1.351831 -1.243034 -0.470356 0.038147 0.876964 
0.460829 0.196109 0.303453 0.208309 -0.330556 0.914528 
0.245223 -0.603464 0.009286 -0.081869 -0.380348 -0.918747 
0.256193 -0.828830 0.056021 0.077126 -0.259388 -0.951337 
-2.605033 0.532193 -1.045119 -0.571717 0.163810 0.795453 
1.630855 -0.313933 -0.194580 0.078467 -0.055510 0.994825 
-2.682959 1.613812 -1.211324 -0.437664 -0.180468 0.875671 
-0.728166 -0.169247 0.092139 -0.382032 -0.147031 0.903698 
0.098894 0.245233 0.380109 0.068337 -0.312754 0.942823 
1.599261 0.173779 -0.140817 0.171458 -0.005192 0.976465 
1.924513 0.248961 -0.172296 -0.107019 0.070374 0.962543 
2.599690 0.802212 -0.256880 -0.087066 0.014440 0.979886 
2.488308 1.254246 -0.254856 0.084524 0.008603 0.977359 
0.288148 0.487281 0.437187 0.137935 -0.221561 0.963183 
2.996505 0.525701 -0.151539 0.158156 -0.178237 -0.960583 
1.260007 0.585159 0.015507 0.475489 -0.121819 0.835455 
1.425065 0.295919 -0.088649 -0.164032 -0.033137 -0.980384 
-1.867560 0.466207 -0.345199 0.582311 -0.165183 -0.775211 
-0.256822 -0.665862 0.192598 -0.351583 -0.115730 0.902122 
0.193507 0.777691 0.462194 0.318417 0.160172 0.906353 
1.784229 0.641754 -0.210429 -0.165202 -0.137245 -0.968271 
3.195547 0.801497 -0.125753 0.304633 -0.010482 -0.945432 
1.894381 0.022975 -0.112376 -0.175568 0.133653 0.950066 
-1.456133 -0.510579 -0.170700 -0.295573 -0.158644 0.939016 
0.118011 -0.302104 -0.167659 0.480597 -0.239460 -0.820199 
-2.453466 1.520940 -1.080044 -0.571893 0.018411 0.808104 
1.815208 1.050016 -0.149493 0.319588 -0.044225 0.897309 
2.699140 1.554310 -0.256434 0.081856 0.297214 -0.927873 
1.695585 -0.194518 -0.176928 -0.013893 -0.024392 -0.986458 
-2.615800 1.377267 -1.169132 -0.518995 0.073275 0.843787 
0.319531 -1.229507 0.148862 -0.433221 -0.232371 -0.841306 
0.557033 -0.259596 0.096035 0.418019 -0.136251 0.890501 
-1.488655 1.084406 -0.102124 0.367442 -0.188172 -0.901019 
-2.288488 0.112494 -0.622947 0.678652 -0.320233 -0.638912 
1.283521 1.207830 -0.004460 -0.089932 0.331204 0.831776 
1.155905 -0.536965 -0.069293 0.309795 -0.102256 0.939982 
2.764380 0.487926 -0.206999 -0.121598 0.098119 0.976150 
1.129140 0.926277 0.008101 -0.603455 0.204186 -0.699734 
0.913259 -0.764555 -0.027985 -0.117610 -0.027024 -0.964441 
-0.537598 -0.322852 0.016809 -0.269701 0.009341 -0.896870 
-0.249946 -0.343052 -0.094836 -0.600443 -0.191264 -0.768395 
0.071283 -0.478431 0.279207 0.121315 -0.200645 0.969685 
0.666560 0.448159 0.336775 0.283781 -0.032908 0.930174 
-1.728272 -0.258928 -0.211911 0.339651 -0.020733 -0.932931 
1.989782 1.286203 -0.207654 -0.014975 -0.255367 -0.947734 
0.108122 -0.529787 -0.064682 0.208587 -0.463484 -0.854085 
-0.431796 -0.427530 0.085905 -0.454704 -0.100710 0.881100 
-0.309017 0.302805 -0.047865 -0.722466 0.056047 -0.678057 
-1.204473 0.741295 0.002729 0.249678 -0.100984 -0.954655 
-2.547321 1.256994 -1.118802 -0.548733 0.222203 0.791754 
0.600814 0.220605 0.281570 0.231903 -0.317771 0.912087 
-2.199412 -0.177964 -0.427996 -0.518662 0.186565 0.829123 
-2.106763 1.358224 -0.719930 -0.756083 0.101142 0.618039 
-2.427785 0.628107 -0.941114 0.610328 -0.181422 -0.767813 
1.263548 0.525336 -0.027513 -0.169185 -0.076233 -0.978455 
-0.347724 -0.743915 0.044031 -0.274332 -0.150021 -0.910915 
-0.148289 1.206637 0.151990 -0.752667 0.499612 -0.393933 
0.623559 -0.088764 0.147552 0.352772 -0.191377 0.901272 
1.187960 -0.675442 -0.102945 0.298795 -0.087711 0.940931 
-0.300522 -0.135107 0.257924 -0.410609 -0.205771 0.840469 
0.218273 -0.999489 0.128058 -0.194065 -0.386749 -0.891521 
0.570700 0.602369 0.305482 0.071714 0.656325 -0.668950 
-1.714522 0.907099 -0.183480 -0.651103 -0.120399 0.716030 
-1.861358 0.041876 -0.289922 -0.482633 0.065458 0.859806 
-3.047589 0.954662 -1.330505 -0.434744 0.087338 0.894777 
-1.102273 -0.185982 -0.007105 0.228896 0.080640 -0.965518 
1.047398 0.845704 0.066922 -0.670521 0.256832 -0.686644 
-2.311142 0.748563 -0.884404 0.639903 -0.162483 -0.748610 
-1.802859 -0.362805 -0.227895 0.330541 -0.029053 -0.938893 
0.096434 1.204696 0.098474 0.581926 0.260929 -0.727740 
0.405824 0.556986 0.359877 0.328527 0.131323 0.843167 
0.308876 0.271421 -0.065721 0.729140 0.049152 -0.668555 
1.242058 -0.137540 -0.045639 -0.204637 0.081211 -0.972075 
2.143434 1.104384 -0.234447 -0.092815 -0.103153 -0.969969 
0.764707 0.724882 0.227417 0.370865 0.026340 0.915180 
-1.528850 0.293750 -0.148566 -0.518034 -0.019731 0.832369 
-2.890414 0.903301 -1.247451 -0.460976 0.055818 0.879249 
-0.200787 -0.195081 0.276518 -0.336473 -0.129534 0.891903 
-2.140862 0.628401 -0.656340 -0.806169 0.320845 0.440888 
1.953137 -0.260416 -0.034829 -0.260882 0.215491 0.934920 
-0.288286 0.948040 0.215922 -0.910868 0.347443 -0.187670 
0.176125 -0.772234 0.194768 0.136304 -0.108367 0.975106 
-2.385928 0.244420 -0.752664 -0.723121 0.327252 0.542917 
-0.820240 0.076315 0.166404 -0.277792 -0.229465 0.920720 
-2.372620 1.297122 -1.002834 -0.642007 0.161177 0.732590 
1.282796 1.131268 -0.068292 -0.542013 0.146167 -0.807783 
-2.049303 1.296628 -0.660185 -0.763612 -0.053163 0.605215 
-1.544023 -0.103798 -0.156148 0.340726 -0.006215 -0.926609 
-0.335047 0.223662 0.329381 -0.142575 -0.302328 0.940910 
-1.172224 -0.384243 -0.063723 0.222910 0.096983 -0.961055 
-0.559731 -1.098218 0.112673 -0.325691 0.291193 0.859307 
2.162678 -0.171862 -0.054911 -0.166236 0.202711 0.948660 
0.428170 0.637363 0.239288 0.592089 0.511815 -0.490749 
-0.303293 0.900648 0.268999 -0.914498 0.302870 0.018997 
1.866161 1.235557 -0.189790 0.006077 -0.164165 -0.959938 
-0.209874 0.261794 0.378131 -0.125963 -0.318303 0.938505 
-1.740711 1.209162 -0.295953 0.476865 -0.196996 -0.822772 
-1.140211 -0.758204 -0.084608 0.209414 -0.014710 -0.945565 
-0.548104 0.023389 0.052548 -0.347348 0.057668 -0.853245 
0.610301 0.307809 0.293437 0.268213 -0.319951 0.896126 
0.334089 -0.932862 0.158070 0.152960 0.009779 0.969937 
-1.951798 0.397089 -0.424228 0.639162 -0.211483 -0.705760 
0.219194 1.124819 0.288489 0.878585 0.464635 -0.013594 
1.559369 -0.271774 -0.161988 0.113672 -0.066022 0.986408 
1.475363 0.056493 -0.115879 -0.147039 0.008909 -0.983290 
0.309420 -0.886971 0.074705 -0.012315 -0.260375 -0.960326 
0.523285 -0.516186 0.086225 0.389102 -0.057586 0.909545 
-2.128373 0.140287 -0.491009 0.644303 -0.297007 -0.666769 
-2.992981 1.179563 -1.322983 0.398359 -0.029964 -0.914137 
-0.947972 -0.381310 0.016951 0.163042 0.024575 -0.969232 
2.285657 0.074549 -0.107007 0.028286 0.200844 0.961130 
2.938131 1.218107 -0.237757 -0.171972 0.029500 0.977873 
0.342437 0.719825 0.418482 0.645719 0.390845 0.589254 
-2.591367 1.079299 -1.117601 -0.471768 -0.066018 0.873966 
-1.447662 1.073204 -0.033124 -0.671210 -0.244119 0.689775 
0.164017 0.213974 0.367176 0.120070 -0.287621 0.948537 
-1.145497 0.668171 0.078333 -0.604187 -0.210296 0.759777 
1.777017 0.309409 -0.201686 0.123611 0.049122 0.989890 
-0.441175 0.458107 0.146881 -0.593304 0.241606 -0.718134 
1.493074 -0.137303 -0.123759 0.162065 -0.064595 0.975626 
0.305817 0.531738 -0.080733 0.705283 0.177878 -0.677016 
-2.063993 1.543122 -0.666490 -0.752201 0.076435 0.618835 
-0.499134 -0.452923 0.033830 -0.245631 -0.024962 -0.910498 
-2.660778 1.316545 -1.181188 -0.509866 0.119004 0.837221 
0.435078 0.406199 0.384184 0.149935 -0.220678 0.956901 
-1.177825 -0.594087 -0.099171 0.198191 0.092156 -0.958818 
1.878574 -0.053583 -0.092400 -0.190801 0.155783 0.946755 
-0.161154 -0.269879 -0.155182 -0.538685 -0.182708 -0.804392 
-0.812406 0.354530 0.229423 -0.417504 -0.222150 0.864794 
-1.514077 -0.447573 -0.170358 0.277977 0.087045 -0.952590 
0.268767 -0.600588 0.199485 0.460728 -0.112965 0.867000 
3.538710 1.243178 -0.012492 0.373003 0.019534 -0.925769 
-1.273891 -0.151296 -0.045120 0.259331 0.055090 -0.962787 
-0.491440 -0.599664 0.092992 -0.378725 -0.041062 0.913602 
1.246055 1.015726 -0.034315 -0.224606 -0.097741 -0.950320 
-0.900839 -0.893327 0.000084 0.159858 -0.164042 -0.943105 
0.742421 0.255552 0.229567 0.306641 -0.268026 0.897641 
2.156738 0.983060 -0.238977 -0.115777 0.021915 -0.986928 
-1.439264 1.238626 -0.090344 0.401711 0.070265 -0.897627 
-0.010934 -1.089796 0.237302 -0.617218 0.031073 0.752741 
1.341105 0.596764 -0.053338 -0.153419 -0.103765 -0.981035 
0.723465 0.648121 0.246143 0.211504 0.156410 0.921218 
2.368390 0.456022 -0.225038 0.149292 -0.105938 -0.977019 
0.983211 0.127011 0.050131 -0.135229 0.066049 -0.960522 
-0.143579 0.556093 -0.144885 -0.544739 0.266430 -0.749302 
-1.990066 0.335268 -0.419972 -0.526044 0.084201 0.840174 
-0.509278 0.651226 0.353081 -0.225008 0.671399 -0.653499 
-0.251944 -1.154803 0.178898 0.160684 -0.005187 0.676171 
0.297311 -0.082836 -0.012175 0.593247 -0.073462 -0.783800 
-0.943400 0.812269 0.168453 -0.318376 0.040358 0.936517 
0.780513 0.478109 0.142198 -0.223724 0.420050 -0.741069 
-2.250472 1.311917 -0.909862 0.632942 0.114022 -0.761143 
-2.606382 1.010151 -1.115366 -0.482433 -0.034862 0.865444 
-1.880151 0.561364 -0.350702 -0.579243 -0.001031 0.798312 
0.751515 -0.983770 0.060522 -0.134861 -0.266961 -0.943856 
0.980346 -0.740196 -0.047698 -0.139389 -0.007065 -0.962211 
-0.648081 0.232894 0.087913 -0.228622 0.064594 -0.880901 
1.055397 0.531746 0.048634 -0.179648 -0.049537 -0.977888 
-0.422773 -1.004286 0.122090 -0.231161 0.064123 0.966955 
1.428138 1.021651 -0.053131 0.471591 -0.204036 0.829564 
0.265364 0.143885 0.312683 0.138424 -0.288580 0.946182 
-0.094047 1.233171 0.374635 0.053336 0.848969 0.472042 
0.095912 1.127297 0.062382 0.472890 0.253707 -0.832424 
2.752369 1.502360 -0.258875 0.109370 0.067072 -0.984047 
1.785910 1.419109 -0.194397 -0.003558 -0.007935 -0.996973 
-0.690276 0.618404 0.272968 -0.149330 0.184062 0.929412 
2.320298 -0.130798 -0.065685 -0.015351 -0.270662 -0.953591 
-0.366874 -0.537174 0.035106 -0.360506 -0.046268 -0.896159 
-0.711817 -1.007423 0.070122 -0.167812 0.243450 0.948335 
-0.565081 0.049015 0.222160 -0.284119 -0.264447 0.903388 
0.030485 0.578463 -0.199310 0.454066 0.367910 -0.794917 
3.276393 0.702126 -0.091347 0.298323 -0.058951 -0.948561 
3.502511 1.321687 -0.026682 0.366245 0.031437 -0.927687 
0.246481 -0.929960 0.094538 -0.214319 -0.345032 -0.905734 
-1.480911 1.013532 -0.055798 -0.663914 -0.216460 0.699236 
-2.478934 1.605455 -1.105527 0.533054 -0.020554 -0.838463 
-2.594928 0.923222 -1.096794 -0.500252 -0.000641 0.851593 
1.380139 0.540664 -0.033709 0.399448 -0.082037 0.868425 
-0.963125 -0.508202 -0.008693 0.151255 0.025460 -0.967452 
0.374250 -0.121404 0.199481 0.323864 -0.218268 0.895253 
1.077772 -0.277689 -0.012724 -0.202201 0.055162 -0.966187 
1.118749 0.713439 0.077401 0.592361 -0.173071 0.780510 
-1.329164 0.758706 -0.005613 -0.632415 -0.177088 0.739776 
0.147952 -0.383175 -0.138032 0.484393 -0.274511 -0.814507 
-0.890422 -0.441494 0.048325 -0.308327 -0.063612 0.942696 
2.117948 -0.254640 -0.034359 -0.167271 0.227555 0.946775 
2.532796 0.144036 -0.143017 0.102516 -0.190313 -0.970736 
0.337933 -1.297581 0.179148 -0.584372 -0.282515 0.465817 
2.158749 -0.084745 -0.077141 -0.194653 0.172212 0.946944 
-1.640692 -0.062952 -0.199394 0.377805 -0.031045 -0.909191 
-0.028830 -0.785262 0.064177 -0.273671 -0.427980 -0.858072 
2.335248 0.752288 -0.273307 0.039358 -0.022178 -0.989409 
-0.355208 0.764021 0.216030 -0.893587 0.384743 -0.170839 
0.242155 1.031567 0.167192 0.835994 0.356254 -0.353762 
0.629781 -1.001458 0.086072 0.199754 0.179170 0.955513 
0.310700 0.793397 0.388257 0.701251 0.369440 0.520881 
-0.655216 -0.147404 0.023978 -0.195763 0.043223 -0.896048 
2.560169 1.501746 -0.254220 0.040782 0.012793 0.991390 
-0.301652 0.570061 -0.085155 -0.689199 0.212802 -0.680420 
-2.012318 0.093676 -0.363371 0.546969 -0.179435 -0.810548 
0.152975 -0.054186 0.304770 0.171999 -0.160730 0.960281 
-0.010107 -0.612066 0.267334 -0.447485 -0.131248 0.878177 
-0.904747 0.376100 0.107275 0.137794 0.085508 -0.984286 
-0.770181 -0.037071 0.035754 -0.095550 0.062447 -0.904873 
-2.406498 1.703763 -1.037074 -0.550820 0.369402 0.731933 
-1.897455 0.584044 -0.424946 0.706053 -0.232874 -0.610744 
1.079364 0.657019 0.093947 0.580049 -0.174415 0.790793 
-0.405677 0.678339 0.242043 -0.653664 0.705000 -0.144414 
0.132771 -0.143662 -0.194431 0.540482 -0.119946 -0.813923 
1.241469 0.372787 -0.022733 -0.183351 -0.033282 -0.976517 
0.329192 -0.778372 0.171034 0.347406 -0.031779 0.911201 
-0.185797 0.767893 -0.029216 -0.528048 0.473407 -0.682356 
-0.005376 -0.103743 -0.256921 -0.437854 -0.180603 -0.842682 
-0.344306 -0.177911 0.223099 -0.426560 -0.199432 0.842523 
-0.120090 0.395956 0.444593 -0.089170 -0.340331 0.934704 
-2.535765 1.627964 -1.149100 0.498435 -0.023255 -0.862604 
-2.482556 1.706783 -1.093710 -0.510692 0.401627 0.743137 
-0.123600 0.459715 -0.194179 -0.607289 0.215387 -0.733335 
1.728852 1.041620 -0.154716 0.165941 -0.232287 0.887661 
2.558134 0.011524 -0.105365 0.060246 -0.224676 -0.969191 
-2.531269 0.957102 -1.068632 -0.503215 -0.025088 0.849946 
1.504697 0.523657 -0.083196 0.331134 -0.042503 0.896406 
1.177774 0.733258 0.006628 -0.165621 -0.121983 -0.978215 
1.167012 -0.451869 -0.069707 -0.216088 0.065633 -0.959731 
0.164671 -0.851369 0.070985 -0.110851 -0.399201 -0.900697 
-0.170427 0.182192 0.351306 -0.123746 -0.276554 0.951437 
2.487939 1.375314 -0.215683 0.032626 -0.021518 0.959727 
-1.076089 0.380779 0.089204 -0.497312 -0.188945 0.831080 
-0.577669 0.213425 0.083808 -0.324834 0.068757 -0.854264 
0.110605 0.369461 -0.229557 0.619296 0.152040 -0.738212 
-2.169284 1.278526 -0.837354 0.703658 -0.152593 -0.681829 
1.445035 0.841479 -0.100163 -0.128354 -0.152574 -0.976998 
-0.254107 -0.201402 -0.107299 -0.640957 -0.140445 -0.734087 
0.384070 0.317636 0.352942 0.139367 -0.239099 0.958035 
-2.232836 1.528965 -0.921765 0.679451 -0.018204 -0.731483 
1.049483 -0.112831 0.046866 0.324843 -0.109722 0.937004 
0.319330 0.566178 0.448092 0.313378 -0.138026 0.901823 
-0.082947 0.852760 -0.033427 -0.485184 0.384971 -0.768125 
-0.076118 -0.730668 0.031222 -0.097401 -0.414462 -0.890561 
0.552575 0.234014 0.086868 0.348294 0.073333 -0.858593 
0.959062 0.046477 0.107912 0.306472 -0.182557 0.926961 
0.484581 0.108903 0.268567 0.273189 -0.295217 0.900631 
-1.598626 1.373032 -0.068314 -0.587009 -0.051844 0.737202 
1.739015 1.374356 -0.150651 0.385839 -0.308060 0.839181 
-1.985487 -0.152928 -0.314886 0.462295 -0.137764 -0.864794 
-1.092545 0.703019 0.118733 -0.550235 -0.169432 0.798698 
3.237880 0.605814 -0.091790 0.250203 -0.125068 -0.953120 
3.121869 1.493522 -0.175167 -0.154095 0.368674 0.896380 
2.817047 0.630986 -0.212804 -0.178249 0.032977 0.968258 
-1.457588 -0.031064 -0.129984 0.341218 0.000602 -0.923650 
-0.411953 -1.269091 0.164473 -0.771590 0.442124 0.222061 
-0.592231 0.254518 0.292237 -0.215134 -0.336016 0.908953 
-2.764197 0.759387 -1.160971 -0.506076 0.094981 0.845227 
2.085300 1.408062 -0.171188 0.221915 -0.039054 0.927518 
1.333482 0.854495 -0.011325 0.499226 -0.166516 0.818211 
2.352873 0.378142 -0.209618 0.191744 -0.113907 -0.971808 
-1.326189 0.590518 -0.020259 -0.599238 -0.134238 0.770587 
2.075468 1.325459 -0.198335 0.270580 0.084798 0.936125 
-0.808508 -0.585846 0.052552 -0.297461 -0.037302 0.946713 
0.473281 0.502449 0.157162 0.548998 0.287664 -0.719412 
0.655177 0.516316 0.310397 0.105863 0.222806 0.947311 
-2.246148 1.625485 -0.928489 0.668744 0.018826 -0.741121 
-0.669411 0.312068 0.102610 -0.174966 0.078369 -0.902009 
-1.053149 0.198698 0.085414 -0.431169 -0.169078 0.875309 
-0.173781 -0.037224 -0.181677 -0.613144 -0.067527 -0.763704 
1.245506 0.306973 0.006430 0.382172 -0.109928 0.891866 
-0.467487 -0.313763 0.009008 -0.359860 0.012357 -0.880208 
-0.897700 0.409488 0.195335 -0.388814 0.041215 0.880327 
0.578755 -0.334633 0.019869 0.212847 -0.002260 -0.912469 
-0.037049 0.599750 -0.184869 -0.436731 0.378359 -0.796396 
-0.328825 -0.026841 0.052109 -0.572685 0.037258 -0.815302 
-1.984425 1.518804 -0.564911 -0.779147 0.076568 0.578986 
-0.347771 -0.662883 0.046076 -0.316290 -0.095437 -0.908048 
3.201965 1.203257 -0.148542 -0.293428 -0.072843 0.941919 
1.372693 0.146621 -0.051674 0.260731 -0.061141 0.950890 
1.532224 0.972362 -0.138488 -0.111665 -0.178158 -0.974342 
-1.589712 1.278151 -0.083499 -0.696566 -0.270422 0.657161 
0.230032 -0.683896 0.199194 0.265868 -0.140449 0.930572 
-2.394883 1.447983 -1.040723 0.586555 -0.044113 -0.801102 
-1.983214 0.926381 -0.539605 -0.814978 0.125571 0.536276 
2.220633 1.473481 -0.236128 0.055336 0.061941 -0.993919 
-0.329038 0.458971 -0.012609 -0.703172 0.140287 -0.687402 
-2.443879 0.212798 -0.793138 -0.689681 0.299003 0.607188 
0.310870 -1.104929 0.128599 -0.279973 -0.254758 -0.904255 
0.048499 1.063985 0.035609 0.356620 0.289910 -0.876634 
-1.079045 -0.279869 0.006060 -0.318275 -0.119061 0.936802 
0.136053 1.251162 0.230629 0.670872 0.681900 -0.043776 
-2.204106 0.461462 -0.690132 0.489101 -0.121372 -0.861808 
2.381321 0.946224 -0.263036 0.084159 0.024773 0.993765 
-0.161541 1.207772 0.417344 -0.932277 -0.228495 -0.211409 
-2.800878 0.691115 -1.170122 -0.513427 0.129307 0.839073 
-0.786386 -0.661958 0.046622 -0.291249 -0.029079 0.948527 
0.088431 1.249525 0.346949 0.079163 0.898767 0.409500 
-1.392293 0.766127 -0.081980 0.332358 -0.129979 -0.917477 
0.139329 -0.577613 0.243234 0.196923 -0.196158 0.959636 
1.626279 0.270737 -0.144016 0.179029 0.009999 0.974048 
-1.539553 1.497902 -0.103271 0.934271 -0.054552 -0.345422 
0.016332 0.975802 0.518180 0.156076 0.074616 0.975907 
1.557427 1.588109 -0.121814 0.415070 0.353256 0.790333 
0.180435 0.783225 -0.021143 0.527716 0.461252 -0.694813 
0.869777 0.651978 0.157771 -0.526556 0.295783 -0.770265 
0.720875 0.576391 0.228465 -0.239704 0.493677 -0.727811 
-2.193893 0.786042 -0.792340 0.625104 -0.118705 -0.762201 
-0.965854 0.470939 0.176177 -0.532619 -0.177228 0.824020 
-3.078211 1.275408 -1.366432 -0.388028 0.027269 0.920851 
0.314651 0.858501 0.344270 0.872732 0.331475 0.335466 
0.570483 -0.045973 0.180286 0.335109 -0.218120 0.899738 
-0.892984 -0.361568 0.062557 -0.315324 -0.066704 0.941090 
-1.177874 -0.008286 0.004648 -0.364246 -0.104388 0.918628 
1.508566 0.151678 -0.122639 -0.152646 -0.010169 -0.982616 
-0.119301 -0.203447 0.300696 -0.186609 -0.067447 0.972751 
1.982498 0.448944 -0.219411 -0.216053 -0.195130 -0.947131 
2.614920 1.570882 -0.264537 0.017378 0.276356 -0.952152 
-2.381919 -0.109740 -0.616596 -0.583137 0.219014 0.770429 
-0.160754 0.820737 0.481570 -0.298864 0.010807 0.935699 
1.799443 -0.064749 -0.127967 -0.073328 0.102799 0.964870 
-2.123132 0.795226 -0.719791 0.593350 -0.044816 -0.787559 
-1.654982 0.987862 -0.186185 0.443506 -0.197044 -0.867082 
-1.871273 -0.298686 -0.257538 -0.389630 0.044261 0.909099 
-1.005587 -0.030934 0.075017 -0.328164 -0.152806 0.927506 
2.694930 0.652565 -0.231459 -0.114384 0.049554 0.976663 
-2.605176 1.665385 -1.194364 0.462779 -0.018709 -0.885839 
-2.237134 1.144076 -0.868697 -0.691642 0.055395 0.712671 
-0.192377 0.057308 -0.178861 -0.654072 -0.036216 -0.727918 
-0.269515 0.114717 -0.130806 -0.736748 -0.028038 -0.652533 
-0.908932 -0.772517 -0.021898 -0.278684 -0.058619 0.948931 
0.060661 0.848750 0.502229 0.180381 -0.110522 0.970780 
2.357202 1.099020 -0.258306 0.116591 -0.025376 0.986690 
-1.813397 0.442015 -0.300886 0.526850 -0.141143 -0.830874 
-0.004874 -0.954520 0.113663 -0.566201 -0.360682 -0.721844 
0.400941 0.519274 0.148082 0.669028 0.299551 -0.673796 
-1.591201 0.305089 -0.203567 0.437811 -0.080039 -0.872758 
-0.406895 0.096613 0.068253 -0.514855 0.058743 -0.816022 
2.616454 0.253490 -0.173603 0.121876 -0.174662 -0.973557 
2.314440 0.215042 -0.164197 0.155620 -0.146973 -0.968537 
-2.386129 -0.001557 -0.660551 -0.571204 0.192891 0.779186 
0.063080 -0.264529 0.301169 0.157123 -0.015761 0.981715 
1.407317 1.342488 -0.060828 -0.776103 0.475130 -0.261486 
-0.869558 0.482449 0.155079 0.463327 0.469037 -0.739226 
0.354500 0.773930 0.329384 0.877775 0.388832 0.236351 
0.594153 0.430641 0.364761 0.226130 -0.066200 0.943054 
0.263255 0.213350 0.344507 0.135092 -0.314570 0.938626 
-3.038374 1.037720 -1.332886 0.412813 -0.069220 -0.906339 
-0.284517 -0.436504 -0.038768 -0.522574 -0.131283 -0.824656 
-2.318581 0.489890 -0.798242 0.525699 -0.148711 -0.832409 
2.018486 0.574533 -0.228991 -0.290831 -0.206379 -0.927760 
1.307590 -0.092981 -0.044650 0.242671 -0.099495 0.955818 
-2.125452 0.888707 -0.711212 -0.742956 0.147644 0.643393 
-0.909528 0.176270 0.148596 -0.366752 -0.210450 0.893604 
0.695882 0.310227 0.254748 0.319185 -0.283144 0.887079 
-1.308461 -0.412432 -0.116236 0.255188 0.136884 -0.955957 
-0.072545 -0.902918 0.103000 -0.107367 -0.438653 -0.872714 
0.329010 0.831686 0.267238 0.886988 0.374206 0.015829 
0.253396 -0.809661 0.172800 0.176294 -0.075265 0.957119 
-1.052597 0.022357 0.069985 -0.359313 -0.148173 0.917670 
0.253723 0.753701 -0.013797 0.579388 0.532503 -0.601593 
0.390643 -0.024808 0.224955 0.264253 -0.253027 0.912779 
-1.396277 0.667417 -0.091350 0.336495 -0.116525 -0.915839 
1.948763 -0.084713 -0.083142 0.148801 -0.243624 -0.928083 
-2.306536 1.297798 -0.951102 -0.684559 0.140899 0.702031 
-0.001213 1.321039 0.250525 -0.199210 0.790344 0.563008 
3.393611 0.865407 -0.065832 -0.314882 0.051967 0.945901 
-0.346783 -0.610131 0.144235 -0.448813 -0.072034 0.881256 
-0.686036 0.113062 0.060799 -0.216139 0.074896 -0.870394 
2.028103 -0.254262 -0.035725 0.209750 -0.238976 -0.936991 
-1.932601 1.527462 -0.509687 -0.802355 0.079629 0.553611 
0.147977 1.151206 0.499017 -0.270960 0.212745 0.875916 
-0.982159 0.071701 0.050331 0.151252 0.069251 -0.958907 
2.269567 0.504282 -0.236684 0.154039 -0.085773 -0.977729 
2.818110 1.048970 -0.266298 0.296076 0.153306 -0.941226 
1.548428 1.252938 -0.106399 0.439907 -0.257551 0.842331 
0.231099 -0.517407 -0.031663 0.141244 -0.353534 -0.868744 
0.321624 -0.267654 0.233909 0.552273 -0.169495 0.783209 
2.880690 0.462514 -0.175927 -0.150635 0.111050 0.972421 
-2.018513 0.261971 -0.435760 0.619894 -0.231330 -0.719361 
-2.892256 1.293303 -1.286716 -0.441343 0.057156 0.887777 
-0.325938 0.269201 0.022048 -0.671305 0.063131 -0.728779 
0.229132 0.457489 -0.139528 0.682686 0.137601 -0.700149 
1.868622 -0.273496 -0.039746 -0.283137 0.201885 0.932645 
-0.388916 -0.817808 0.134808 -0.358902 0.002457 0.920555 
0.068261 0.241278 -0.286408 0.589903 0.052192 -0.791784 
-1.271089 -0.344287 -0.091393 0.252976 0.124124 -0.958084 
-2.829780 0.869987 -1.211107 -0.475986 0.059760 0.868124 
-2.644465 0.679512 -1.087158 -0.538332 0.108616 0.821207 
0.453107 -0.490515 0.086208 0.423115 -0.074937 0.895260 
-1.926311 0.065850 -0.322727 0.501163 -0.128944 -0.846215 
-0.769407 -0.509996 0.079296 -0.307739 -0.032284 0.944431 
0.079790 -0.629098 0.240665 0.260727 -0.171418 0.944575 
1.633637 1.189310 -0.130239 0.320535 -0.254962 0.861187 
-0.199140 1.104521 0.136180 -0.742354 0.369396 -0.481770 
-1.715842 1.182068 -0.212829 -0.744040 -0.071455 0.597326 
-3.138761 1.384703 -1.384179 0.358962 -0.007974 -0.931919 
-0.384379 -0.944767 0.139973 -0.226435 0.028339 0.958782 
0.305026 0.874837 0.194148 0.889169 0.334956 -0.257521 
-0.149787 -0.368811 0.290434 -0.243152 -0.043016 0.964612 
-1.265867 0.785655 0.028791 -0.635654 -0.202522 0.735525 
-0.017595 -1.015475 0.209432 -0.470492 0.145471 0.855303 
3.293901 0.770913 -0.089959 -0.266989 0.096826 0.952389 
1.786425 0.720595 -0.209519 -0.184418 -0.150881 -0.961352 
2.943212 1.340393 -0.241247 -0.213201 -0.089525 0.963567 
2.144472 0.638335 -0.238999 0.180602 0.039651 -0.971363 
-1.897618 0.657020 -0.445814 0.744226 -0.259747 -0.555233 
-1.972294 0.686621 -0.503793 -0.512666 -0.099351 0.848682 
1.001836 0.797157 0.094194 -0.651975 0.282721 -0.691994 
0.436694 -0.443045 0.023986 0.320792 -0.031043 -0.900300 
-0.096488 0.788304 0.487266 -0.147514 -0.043718 0.983854 
0.377898 0.611078 0.090815 0.723301 0.341737 -0.566059 
-1.798212 0.651900 -0.251169 -0.619833 -0.017794 0.756519 
1.194897 -0.372705 -0.054617 0.318164 -0.121662 0.937177 
0.973004 0.729527 0.104593 -0.616499 0.321714 -0.701225 
2.084990 0.725466 -0.210060 0.297760 0.123987 0.938906 
0.335961 -0.036906 0.051837 0.550069 0.040278 -0.830991 
1.811725 1.027074 -0.222604 0.083897 0.026319 -0.989138 
-1.112256 0.606422 0.090000 -0.578998 -0.212198 0.775873 
1.793957 0.010346 -0.149189 0.042100 -0.113644 -0.969657 
0.238579 -0.689711 0.024572 0.027678 -0.320398 -0.934751 
0.330967 -0.120977 0.038746 0.538290 0.027092 -0.839245 
-1.765296 0.397078 -0.260251 -0.585503 0.051250 0.797977 
-0.138970 0.641719 -0.130502 -0.499944 0.375754 -0.754015 
0.436126 -0.032884 0.047706 0.448553 0.046534 -0.849185 
0.718852 -0.028493 0.145305 0.331112 -0.197504 0.909430 
1.491015 1.419452 -0.096136 -0.369570 0.507314 0.757923 
0.866353 0.180570 0.167735 0.324016 -0.221591 0.906241 
-0.287740 0.197967 -0.112756 -0.757612 0.004208 -0.636385 
3.184923 1.343229 -0.164485 0.296158 0.012277 -0.953413 
-0.177625 -0.871647 0.076359 0.128574 -0.391520 -0.901602 
2.190305 1.558060 -0.209623 0.062273 0.303604 0.903194 
-0.014950 0.369342 -0.292822 -0.534348 0.170131 -0.813508 
-1.315347 0.399494 -0.067707 0.314936 -0.052836 -0.928158 
1.243033 -0.072226 -0.016669 0.271605 -0.111017 0.948758 
-2.481236 0.143449 -0.805124 0.583258 -0.229364 -0.771878 
-0.528778 0.475948 0.147301 -0.467224 0.251892 -0.754075 
-1.714154 1.397802 -0.303256 0.636993 -0.209301 -0.726756 
-1.993803 0.679712 -0.574905 0.592254 -0.048280 -0.795479 
-2.417814 0.144876 -0.743951 -0.704719 0.313377 0.584004 
0.169983 0.131238 -0.203215 0.646950 -0.005274 -0.736250 
0.540695 0.542774 0.199153 0.300081 0.439923 -0.678104 
-0.286270 -0.507550 -0.037998 -0.483266 -0.173810 -0.829304 
-0.487023 -0.758991 0.081002 -0.093712 -0.106347 -0.959485 
1.038732 0.412455 0.053428 -0.183281 -0.013718 -0.978319 
-3.064191 1.346827 -1.358647 -0.386601 -0.000849 0.918926 
0.321750 0.696399 0.003680 0.672907 0.493606 -0.513614 
-0.340825 0.618021 0.454102 -0.477465 -0.075686 0.840292 
-0.652959 -0.403571 0.077491 -0.383183 -0.079423 0.912039 
1.057484 0.581831 0.100894 0.557147 -0.172442 0.805953 
1.327180 -0.528859 -0.132565 0.315572 -0.138084 0.936356 
1.501922 1.302982 -0.138657 -0.099526 -0.231093 -0.966511 
2.351285 0.049462 -0.110631 0.180187 0.270423 0.910371 
-0.433407 0.227595 0.316250 -0.164729 -0.339736 0.924770 
-0.110525 1.179122 0.459512 0.331371 0.507187 0.762625 
-0.257928 1.023293 0.340490 -0.886388 0.415202 0.172602 
0.253709 0.073011 0.295903 0.180463 -0.260688 0.933909 
-1.632354 0.849190 -0.186334 0.436802 -0.174314 -0.870400 
-0.371996 0.303866 0.350146 -0.136761 -0.249227 0.955862 
-0.422206 0.345873 0.116070 -0.552899 0.150156 -0.770935 
0.073176 1.210488 0.414081 -0.207611 0.757604 0.608330 
-2.947067 0.762873 -1.256547 0.467261 -0.132692 -0.869694 
-0.555104 -0.284303 0.091298 -0.428081 -0.131825 0.887532 
-2.072200 0.952164 -0.677895 0.716661 -0.049502 -0.684071 
-1.475236 0.732338 -0.081388 -0.629344 -0.129646 0.743895 
-3.096846 1.456051 -1.366190 -0.375141 -0.031593 0.921913 
2.334377 -0.047455 -0.092434 0.006147 -0.247424 -0.967942 
0.887332 0.346051 0.170450 0.455081 -0.198146 0.858432 
2.278589 0.317735 -0.180703 0.355383 0.292254 0.854278 
-1.570443 0.657634 -0.172405 0.413952 -0.138760 -0.881084 
1.911404 0.897349 -0.168577 0.152266 -0.057294 0.944682 
-1.366101 1.148184 -0.064403 0.409405 0.091127 -0.893201 
-2.323897 0.963432 -0.935096 0.638950 -0.249905 -0.715652 
0.326827 0.475284 -0.022516 0.705639 0.156929 -0.681166 
-1.426669 0.570533 -0.112444 0.352661 -0.106229 -0.908891 
0.276929 0.984723 0.334631 0.914126 0.322881 0.202671 
-0.231062 -0.000522 -0.145348 -0.672994 -0.063611 -0.709018 
3.375948 1.388939 -0.073755 0.359262 0.254395 -0.862159 
0.552482 -0.608073 0.063935 0.091044 -0.077053 -0.950208 
-0.551333 -0.197817 0.126915 -0.390591 -0.167383 0.891245 
0.690215 -0.933581 0.056022 0.240309 0.093316 0.953912 
-0.654553 0.191222 0.255720 -0.224530 -0.305669 0.915524 
-2.208159 -0.109721 -0.461172 -0.513573 0.171743 0.832472 
0.171898 0.222850 -0.211729 0.673080 0.029126 -0.715071 
0.359859 0.277315 0.104504 0.598218 0.112997 -0.787544 
0.656484 0.524679 0.192192 0.004631 0.481315 -0.694357 
-1.110628 -0.035521 0.036594 -0.345834 -0.124875 0.927899 
-2.305337 1.451374 -0.900704 -0.632247 0.055937 0.735785 
-0.547910 0.574347 0.356149 0.009019 0.232480 0.954722 
2.570961 1.384582 -0.229609 0.000114 -0.013210 0.970149 
-2.070648 1.234749 -0.700090 0.673059 -0.279185 -0.659405 
-1.066982 -0.117720 0.016397 0.227947 0.071390 -0.967461 
-2.165130 1.560055 -0.789364 -0.714723 0.074568 0.669155 
-1.002952 0.415478 0.077096 0.180078 0.006238 -0.980558 
-1.875485 0.871725 -0.477815 0.571393 -0.012133 -0.805796 
-2.046882 1.481294 -0.702773 0.649396 -0.026925 -0.754814 
1.099619 -0.008007 0.018246 -0.224063 0.083336 -0.968472 
2.567639 1.211112 -0.280462 0.088985 0.185158 -0.973831 
0.636787 0.077311 0.212262 0.288369 -0.254509 0.908621 
-0.021886 -0.388071 -0.190567 -0.371687 -0.363788 -0.843189 
-1.141119 -0.330284 -0.027584 -0.312403 -0.134192 0.936897 
-1.918028 0.516442 -0.431674 0.698188 -0.225459 -0.627142 
-0.317871 -0.371101 0.004464 -0.510481 -0.001636 -0.857585 
0.230131 0.551631 -0.113050 0.628633 0.228696 -0.709231 
-0.227747 0.801275 0.457582 -0.424435 0.212259 0.863032 
-2.124281 -0.144142 -0.371548 -0.508971 0.170882 0.841381 
-2.450345 1.245597 -1.057101 -0.594597 0.239375 0.754466 
0.283853 0.209811 -0.131797 0.764769 0.006811 -0.630725 
0.387771 0.685079 0.199641 0.740485 0.611168 -0.176385 
1.926257 0.314624 -0.200001 -0.122258 -0.174604 -0.962270 
-0.735053 -0.408465 0.075090 -0.352258 -0.067360 0.925388 
-2.748797 1.000241 -1.187933 -0.463561 -0.007523 0.878728 
-1.211555 0.831975 0.006383 0.250641 -0.114801 -0.954021 
0.352268 0.560045 0.025693 0.684639 0.266248 -0.670590 
-2.419888 0.460151 -0.864460 -0.699878 0.299581 0.574685 
-0.241200 -0.841665 0.063116 0.075322 -0.305100 -0.921520 
-1.206962 -0.305289 -0.048323 -0.313102 -0.152602 0.935457 
0.301619 0.427719 -0.072843 0.704460 0.092351 -0.700098 
-2.323856 -0.096284 -0.569656 -0.558199 0.199828 0.792437 
2.641278 0.871327 -0.270834 -0.014492 -0.228038 -0.963063 
0.846773 -0.850524 0.000762 -0.114642 -0.102523 -0.959007 
3.384295 1.197281 -0.076795 -0.339858 -0.069826 0.929157 
-0.448380 0.620104 0.268688 -0.509744 0.541673 -0.580706 
-0.124385 0.035920 -0.224392 -0.588801 -0.032802 -0.787988 
2.518059 0.216643 -0.163651 0.125803 -0.171382 -0.971570 
-2.295140 1.680254 -0.959767 0.637258 0.220640 -0.713928 
-0.898690 -0.284133 0.063279 -0.333179 -0.083787 0.933860 
0.077774 0.563062 0.498460 0.101016 -0.290086 0.949385 
-0.867640 0.318321 0.182930 -0.430901 -0.233310 0.861224 
2.762319 0.565679 -0.215498 -0.138063 0.066542 0.973754 
-1.430785 -0.200777 -0.085973 -0.338351 -0.069685 0.935226 
-0.084789 -0.935016 0.208459 -0.234392 0.075581 0.955585 
0.157929 -0.678280 0.010413 0.096995 -0.331854 -0.926496 
0.313917 0.333570 0.379473 0.130998 -0.271852 0.949952 
-0.672312 -0.088642 0.139013 -0.345966 -0.189604 0.903859 
1.740798 -0.308732 -0.122269 0.105736 -0.081411 -0.966153 
1.710806 0.732273 -0.170101 0.236224 -0.077227 0.931144 
0.506451 0.609494 0.361435 -0.098318 0.247917 0.948876 
-0.681458 -0.629584 0.088408 -0.301244 -0.007528 0.947015 
1.182082 0.860529 0.000582 -0.158951 -0.143436 -0.975377 
-3.029685 1.425442 -1.345830 0.381001 -0.013041 -0.922299 
-1.725272 0.978583 -0.202592 -0.647355 -0.154256 0.716326 
1.509840 -0.473347 -0.185454 -0.203557 0.098276 -0.965784 
-1.323003 0.701707 -0.054946 0.303183 -0.111448 -0.930720 
-1.838045 1.545548 -0.456520 0.704176 0.051211 -0.706540 
-0.567448 0.551840 0.233253 -0.228649 0.512849 -0.668104 
-0.396072 0.017299 0.241136 -0.248495 -0.270017 0.913293 
2.695418 1.327821 -0.276130 0.081255 0.031206 -0.989518 
0.162460 -0.250192 0.289346 0.256069 -0.063934 0.945575 
-0.175844 0.967059 0.474053 -0.381095 0.024231 0.886055 
-1.845339 0.622556 -0.354824 0.616784 -0.204247 -0.713288 
3.295028 1.278199 -0.117858 0.319524 0.008258 -0.945261 
1.847352 1.167431 -0.191105 0.072735 -0.118220 -0.957211 
-0.534330 0.157818 0.072476 -0.390770 0.072826 -0.833526 
-1.334274 -0.199730 -0.055168 -0.330147 -0.097645 0.936820 
-1.390022 0.274590 -0.109278 0.353833 -0.040051 -0.911693 
-0.182217 -0.346850 -0.130069 -0.536613 -0.220382 -0.800147 
-1.502377 1.196625 -0.099888 0.370831 -0.205943 -0.899248 
-1.542836 0.516988 -0.136814 -0.600367 -0.045773 0.778912 
-1.599311 1.236215 -0.145773 0.419224 -0.227339 -0.871330 
-0.998697 0.134196 0.105886 -0.396526 -0.174204 0.894536 
0.181079 0.353577 0.425749 0.116112 -0.338162 0.933402 
0.229398 0.702344 -0.057523 0.541233 0.509165 -0.630610 
0.708207 -0.584831 0.070114 -0.069601 -0.068245 -0.975550 
-0.278790 0.896910 0.159392 -0.830642 0.330016 -0.365367 
0.880997 0.458619 0.107118 -0.271523 0.254241 -0.892245 
0.379651 -0.197272 0.024590 0.473213 0.018737 -0.856835 
0.354776 0.482701 0.043983 0.687998 0.206192 -0.683008 
0.131336 -0.701867 0.217495 0.175133 -0.142693 0.966242 
0.775776 0.474351 0.248059 0.209700 0.251270 0.934403 
2.658842 1.046189 -0.265183 -0.118315 -0.072637 0.973899 
-2.523970 1.455089 -1.135737 -0.537122 0.027136 0.839539 
-2.083737 0.100005 -0.433078 0.597737 -0.245638 -0.733326 
-0.496131 0.410739 0.130544 -0.477624 0.199845 -0.773418 
-0.246015 0.959584 0.138398 -0.763353 0.293038 -0.486192 
1.709521 1.198993 -0.192847 0.180297 0.062427 -0.978294 
-0.187609 -0.939819 0.173106 -0.119670 0.020119 0.981530 
-0.622846 0.126527 0.238101 -0.251832 -0.285294 0.910570 
-0.306493 0.391149 -0.046119 -0.694048 0.077437 -0.711912 
-0.315776 0.806436 0.158237 -0.825585 0.398499 -0.335885 
-1.459148 0.795798 -0.110543 0.361288 -0.143253 -0.904423 
1.781866 1.135927 -0.186079 0.171506 -0.089415 -0.950375 
0.435031 -0.363251 0.010180 0.367408 -0.009155 -0.887364 
2.736417 0.354972 -0.197543 0.093219 -0.170785 -0.979274 
-0.373995 -0.257286 0.149197 -0.400963 -0.168627 0.881087 
2.689190 0.520778 -0.223249 0.056799 -0.179042 -0.976287 
0.385421 -0.456185 0.091372 0.462028 -0.096517 0.878549 
-0.336449 0.483654 0.424256 -0.132366 -0.196528 0.970667 
-2.900204 1.621782 -1.296274 0.399896 0.006489 -0.912660 
0.618775 -0.035263 0.038139 0.261539 0.055263 -0.883035 
-0.198352 0.445987 0.447821 -0.131176 -0.290005 0.945314 
-1.134345 -0.650469 -0.092607 0.179467 0.076315 -0.959852 
-1.662230 0.774643 -0.170700 -0.634762 -0.092807 0.737090 
-1.052204 0.610497 0.128107 -0.582095 -0.209798 0.780699 
3.433954 1.143551 -0.057842 -0.344549 -0.036732 0.931839 
-0.585178 0.584566 0.294813 -0.108935 0.640240 -0.660696 
-2.549236 0.287231 -0.918782 0.575261 -0.221751 -0.783383 
0.983082 -0.107435 0.022058 -0.139901 0.057352 -0.959946 
0.076093 -0.188565 0.303430 0.159689 -0.062241 0.977438 
-2.165980 0.417968 -0.645345 0.541040 -0.172476 -0.813894 
2.557248 0.439219 -0.218003 0.103410 -0.134648 -0.980359 
2.270297 1.351873 -0.250803 0.060192 0.106049 -0.986930 
1.445200 1.106200 -0.109720 -0.115708 -0.196098 -0.970837 
2.239691 1.228022 -0.246777 -0.091431 -0.265527 -0.947599 
-1.663541 1.522404 -0.201582 -0.556908 0.589727 0.532427 
-2.339929 1.200142 -0.970562 0.655682 -0.367964 -0.654250 
1.638704 1.543569 -0.127121 0.157158 0.436502 0.832243 
0.031189 -0.709477 0.243998 0.366829 -0.077246 0.916784 
-0.715915 -0.681757 0.052064 0.063167 -0.059954 -0.974753 
0.286176 0.397374 0.412369 0.122246 -0.260529 0.953796 
1.151492 0.156459 0.035131 0.374689 -0.130150 0.905536 
0.172930 -0.084013 -0.177985 0.591887 -0.087259 -0.780217 
-0.429346 0.490382 0.397978 -0.177737 -0.021350 0.942869 
-1.743270 0.960743 -0.291710 0.578160 -0.244459 -0.715736 
2.368398 0.269169 -0.169520 0.257543 0.270195 0.883159 
-1.684235 0.304348 -0.226807 -0.541695 0.034897 0.823340 
2.633606 0.951185 -0.264296 -0.116006 -0.043579 0.975134 
1.719620 1.103317 -0.190952 -0.207241 -0.211493 -0.944896 
-1.693629 1.344187 -0.218407 -0.862981 -0.223429 0.411664 
0.910316 -0.047959 0.082837 0.342314 -0.154304 0.920280 
3.526236 1.159862 -0.019583 0.368887 0.003193 -0.927902 
-0.231161 -0.563830 -0.003347 0.054545 -0.395585 -0.910826 
0.653606 -0.691950 0.092769 0.287155 0.011906 0.952216 
0.332370 0.300722 0.026911 0.639235 0.082193 -0.757867 
-2.179488 -0.238387 -0.387771 0.511404 -0.215792 -0.829809 
0.230617 -0.429617 -0.084870 0.523876 -0.264956 -0.797269 
1.881969 0.966728 -0.213259 0.204697 0.099159 -0.966304 
-0.699229 -0.466663 0.054169 0.005039 -0.030323 -0.955998 
3.179801 0.561973 -0.103135 0.232986 -0.131735 -0.956367 
0.270316 0.940813 0.171925 0.831800 0.309965 -0.359778 
-2.702029 1.184767 -1.188591 0.426515 0.056378 -0.898153 
-0.051983 -1.205757 0.276905 -0.084762 -0.564332 -0.808733 
3.360818 1.109015 -0.089647 -0.332268 -0.038974 0.934624 
-0.334494 -0.059717 0.263715 -0.347253 -0.240080 0.862785 
-2.596065 0.617547 -1.055081 0.572102 -0.258539 -0.772092 
-0.036142 0.386009 0.436735 -0.021594 -0.352800 0.933377 
-1.669300 1.065268 -0.206267 0.477304 -0.222098 -0.823634 
0.221475 0.966559 0.094889 0.692527 0.296556 -0.619443 
-0.966843 -0.253017 0.030649 0.184143 0.034734 -0.969789 
-1.823454 0.934740 -0.413712 0.664352 -0.174918 -0.636143 
-1.931858 0.343523 -0.366609 -0.561202 0.098346 0.818827 
-1.467343 0.625243 -0.088265 -0.616171 -0.098118 0.760907 
-2.722279 0.686109 -1.130056 0.534107 -0.216255 -0.805858 
-0.047546 0.977189 0.011366 -0.374909 0.343714 -0.841426 
1.345302 -0.273325 -0.100723 -0.207765 0.089351 -0.968838 
-2.008519 0.970910 -0.605617 0.685398 -0.023997 -0.704522 
-2.697285 1.079156 -1.178106 0.441100 0.038461 -0.890178 
1.147410 0.869490 0.093057 0.407846 -0.012861 0.896914 
-2.777770 1.560925 -1.256134 0.429870 -0.017597 -0.900580 
0.429269 0.208670 0.086195 0.504071 0.082909 -0.821421 
-0.293737 -0.049204 -0.017914 -0.623474 -0.064420 -0.760844 
-1.389328 1.125247 0.029349 -0.359418 0.027085 0.932207 
-0.098382 -0.297965 -0.176378 -0.470672 -0.247048 -0.821448 
-0.653019 -0.796487 0.056273 0.031936 -0.083918 -0.975926 
-0.778948 0.282856 0.216390 -0.351884 -0.265674 0.880491 
-2.319052 -0.018412 -0.594288 -0.546473 0.178893 0.801537 
1.667020 0.524594 -0.151829 0.234514 -0.014594 0.939060 
1.288849 0.163418 -0.018079 0.308649 -0.088068 0.930916 
-0.252260 -0.060651 0.276267 -0.316339 -0.215902 0.881125 
1.226240 0.676173 -0.011489 -0.163214 -0.112173 -0.978900 
0.168050 -0.405908 0.285297 0.274480 -0.095409 0.949833 
-1.512957 1.689299 -0.040483 0.577331 0.195890 -0.700861 
-0.086614 -1.022754 0.153501 -0.022030 -0.474727 -0.861011 
2.683193 1.398327 -0.248705 -0.043462 -0.001701 0.984470 
2.494450 1.458635 -0.274706 0.015287 0.066877 -0.996520 
0.449803 -0.084766 0.198607 0.347927 -0.225184 0.890886 
2.046374 0.156509 -0.140026 -0.326515 0.079669 0.935489 
-2.242449 1.426829 -0.921649 0.662984 0.012824 -0.741632 
-2.070332 0.620163 -0.548026 -0.689485 0.118323 0.686501 
0.639445 -0.206917 0.094321 0.399070 -0.141769 0.897578 
0.306601 0.648445 0.470190 0.509808 -0.073836 0.825149 
-1.500987 0.681283 -0.138574 0.382588 -0.132692 -0.895114 
0.360074 0.757159 0.240048 0.908142 0.366750 -0.103210 
1.004998 -0.430997 0.006707 0.309617 -0.078523 0.941798 
-0.021933 1.048008 0.512414 -0.079395 0.182105 0.958540 
-2.436701 1.100902 -1.027617 -0.513776 -0.063934 0.843220 
-0.351549 -0.325426 0.163949 -0.504779 -0.145058 0.830684 
-2.347894 0.191787 -0.709538 0.551294 -0.193015 -0.800398 
0.202914 -0.941787 0.168747 0.103159 0.018077 0.984770 
-0.010678 -0.251369 -0.223878 -0.400378 -0.278063 -0.843809 
0.779511 -0.796887 0.013732 -0.075376 -0.065551 -0.969161 
0.693443 -0.142594 0.105487 0.375051 -0.157156 0.903390 
1.009861 0.644575 0.150629 0.364489 0.053935 0.911244 
0.274194 -0.320111 0.237944 0.550262 -0.127726 0.793330 
-0.366596 -0.390173 0.118627 -0.507966 -0.120480 0.846164 
0.176654 1.191369 0.216865 0.780584 0.554562 -0.218249 
0.311338 0.813072 0.156253 0.823678 0.389684 -0.342910 
-0.156500 1.041615 0.066890 -0.557471 0.278418 -0.768589 
1.058190 -0.460347 -0.033110 -0.183027 0.035674 -0.963873 
-2.104664 1.300197 -0.767325 0.696077 -0.080400 -0.712532 
-2.103614 1.036251 -0.712698 -0.755802 0.086989 0.646862 
2.340246 1.418803 -0.260198 0.026680 0.047502 -0.996356 
-0.647209 -0.029215 0.041350 -0.229527 0.056771 -0.879524 
-3.233579 1.584155 -1.410426 -0.344818 -0.045349 0.936209 
1.851780 0.747339 -0.192466 -0.021064 -0.154070 0.936736 
3.090115 0.525115 -0.123894 -0.209376 0.105488 0.964584 
1.691992 1.510231 -0.167064 0.055042 0.071477 -0.990913 
-1.642268 0.402664 -0.197121 -0.571811 0.006051 0.801816 
-0.442221 0.662422 0.325053 -0.463489 0.797899 -0.252537 
0.152707 0.059743 -0.207639 0.613142 -0.029672 -0.765064 
0.890051 0.093750 0.147025 0.286763 -0.214026 0.924637 
-0.093962 0.126553 -0.255654 -0.585671 0.005160 -0.792995 
3.137342 1.175064 -0.170205 -0.253477 -0.017480 0.960576 
-0.168302 -0.868193 0.187095 -0.139784 -0.028447 0.976187 
1.547917 1.512047 -0.159881 -0.487405 0.104647 -0.836849 
0.735206 -0.466539 0.058283 -0.046629 -0.039459 -0.965531 
1.812831 0.079746 -0.146266 -0.027141 0.102357 0.970203 
-1.545252 -0.275511 -0.136988 0.288158 0.017723 -0.955603 
0.372326 -0.285510 0.148937 0.435631 -0.156935 0.865635 
3.183182 1.073418 -0.148445 -0.242713 0.060031 0.956588 
1.905675 1.313192 -0.179133 0.314545 -0.237575 0.876847 
-1.979661 1.209952 -0.568747 -0.786812 -0.041737 0.572114 
-2.198804 1.360005 -0.870517 0.658816 0.079629 -0.742866 
-1.019928 0.692162 0.140654 -0.214732 0.174337 0.951881 
-1.521537 0.761223 -0.141949 0.389780 -0.146813 -0.891707 
-2.426447 0.728950 -0.951321 -0.611263 0.137639 0.767195 
-2.408987 1.175270 -1.023948 0.626372 -0.387242 -0.672940 
-2.874133 0.792538 -1.222912 -0.483926 0.099147 0.861426 
0.317237 0.149328 -0.003941 0.646682 0.019363 -0.743004 
2.022368 1.108862 -0.205759 0.248630 -0.117453 0.929203 
0.066481 -0.886960 0.096998 0.143003 -0.432498 -0.872518 
2.833205 1.452884 -0.241866 -0.143116 -0.098037 0.963330 
0.906092 0.300478 0.088652 -0.109671 0.039274 -0.970846 
3.644214 1.256719 0.034071 -0.380515 -0.035963 0.923012 
