-1.409734 0.779787 2.548042 -0.388419 0.835600 -0.349795 
-0.098881 -1.128548 -0.110693 0.022240 -0.449664 0.747469 
0.233470 -0.122208 -0.074827 0.502930 -0.092822 -0.854529 
-0.772845 0.193025 0.425268 -0.699394 0.278702 -0.601316 
1.073003 -0.557711 0.472383 -0.182313 -0.669786 0.675757 
-1.064439 -0.472096 0.574370 0.361427 -0.379393 0.797518 
-0.313807 0.878673 0.246114 -0.922784 0.317719 -0.030443 
0.459892 0.830409 1.080927 -0.525054 -0.783194 0.310686 
0.146958 -0.554997 -0.037135 0.106332 -0.242266 -0.951476 
1.524420 0.558066 1.964733 0.572748 0.524484 -0.596284 
0.381083 0.946854 1.128813 -0.746797 -0.572084 -0.061507 
-0.705268 0.937633 1.718732 0.508287 -0.748787 0.407979 
-0.369460 -0.191588 0.289306 -0.433044 -0.272365 0.839396 
-0.563196 0.946087 1.102767 0.379048 -0.782054 0.485981 
-1.560440 0.715605 2.067297 -0.190402 0.971869 -0.037145 
0.482456 1.329946 1.862262 -0.302660 -0.536098 0.777406 
1.152271 0.473675 1.308015 -0.549023 -0.685794 0.356154 
0.608235 0.379353 0.234753 0.698297 0.228813 -0.627823 
0.006776 -0.022848 0.472454 0.064999 -0.321111 0.942254 
1.092049 1.199609 2.164989 -0.411138 -0.518945 0.745815 
0.774026 1.668025 2.394385 -0.553214 -0.407588 0.719641 
-0.469436 1.217693 1.636278 -0.775603 0.512175 -0.020872 
-1.261495 0.730403 1.792842 -0.286372 0.952242 -0.010451 
0.657229 -0.248620 0.331974 -0.190591 -0.344186 0.855477 
-0.083258 0.954191 0.003437 -0.471099 0.492421 -0.709431 
-1.728217 0.614198 1.795392 -0.213319 0.938901 -0.219474 
-0.546074 -0.565564 0.191516 -0.509137 0.165889 -0.783324 
-0.279887 0.321802 0.475433 -0.322004 -0.038793 0.935157 
-0.963959 -0.225557 0.574804 0.425734 -0.379234 0.758025 
0.311410 -0.501847 0.006565 0.626758 -0.042177 -0.743466 
-0.437803 0.120095 0.035129 -0.648935 0.081734 -0.737173 
0.650954 0.804598 1.139633 0.660030 0.722999 -0.154917 
0.790919 0.433511 0.680134 -0.391518 -0.637522 0.626114 
1.536587 1.108120 2.298680 -0.327906 -0.470812 0.817237 
0.081363 0.879827 0.513009 0.228314 -0.131263 0.955884 
-1.408251 0.933249 2.754921 -0.396932 0.741252 -0.517796 
-1.039673 -0.192000 0.641995 0.446248 -0.373303 0.752608 
-0.246977 1.374506 1.532597 0.406418 -0.735440 0.473079 
-1.275197 0.092936 0.879577 0.545534 -0.418696 0.679271 
0.932720 0.617988 1.302510 -0.500587 -0.707930 0.475154 
-0.219844 -0.698720 0.160616 -0.170364 -0.372465 0.877362 
0.952199 0.527237 0.897254 0.635399 0.653489 -0.371907 
-0.170823 -0.772929 0.140225 -0.024013 -0.406215 0.879037 
-0.778910 -0.277018 0.413182 -0.517671 0.304558 -0.725747 
-0.267720 0.693366 0.444942 -0.558325 0.213449 0.775239 
-0.346717 0.187656 0.435514 -0.416895 -0.179085 0.884367 
-0.078240 -0.682039 -0.022146 -0.067117 -0.030813 -0.978162 
-0.469826 0.824368 0.757487 0.507006 -0.656131 0.535811 
-0.433247 0.409220 0.018627 -0.584161 0.085580 -0.789843 
0.848285 1.209091 1.997327 0.489148 0.551243 -0.656424 
-1.157558 0.949419 2.599407 0.490823 -0.668919 0.545616 
1.337198 1.572681 2.624632 -0.318654 -0.675878 0.662147 
-0.772537 -0.515424 0.372485 0.333587 -0.321731 0.835864 
0.623017 0.302588 0.424508 -0.324607 -0.476852 0.801331 
1.223755 0.779640 1.852902 0.607609 0.646616 -0.429946 
0.439740 0.683808 0.612312 0.313368 0.881062 -0.273700 
-0.896160 0.189795 0.573304 -0.698746 0.339637 -0.563257 
0.719411 -0.132162 0.407410 -0.222094 -0.375829 0.821548 
-0.912542 0.754444 1.543167 0.492498 -0.829883 0.000731 
-0.024476 -1.091194 -0.123354 -0.338762 0.254792 -0.891878 
-0.782869 0.431991 0.380785 -0.663942 0.331261 -0.635708 
0.671238 0.451850 0.419600 0.676232 0.392165 -0.518040 
-1.169425 -0.139148 0.756974 -0.569300 0.298908 -0.718819 
1.152057 0.461308 1.529301 -0.642116 -0.661204 0.218350 
-0.478574 -1.113848 0.036379 -0.410308 -0.106768 0.721597 
-1.367853 0.362458 0.979940 -0.654478 0.468597 -0.575951 
1.178869 0.742144 1.771871 0.546626 0.471278 -0.674585 
-1.271965 0.909293 2.626488 0.456317 -0.662402 0.584345 
-0.607419 0.648323 0.458838 -0.533998 0.771086 -0.318592 
0.496405 -0.301324 0.170860 -0.063519 -0.275903 0.944499 
0.600413 1.030642 1.644055 -0.374739 -0.801524 0.405190 
-0.823271 0.786588 1.293058 0.425883 -0.824060 0.341650 
1.008345 0.568826 1.301762 -0.534407 -0.687066 0.475353 
1.704607 1.775763 2.982718 0.349702 0.622903 -0.699630 
0.366983 -0.809985 0.023812 0.478519 0.058997 -0.839673 
-1.625688 0.737423 2.644702 -0.332438 0.849260 -0.379394 
-0.533202 1.175116 1.601078 -0.694022 0.662658 0.070432 
0.894167 0.166615 0.596325 0.675407 0.366994 -0.567811 
1.435872 1.706895 2.787594 0.384538 0.578567 -0.715949 
0.982001 0.843102 1.775557 -0.491801 -0.640783 0.554002 
0.095610 1.280131 1.578773 -0.762808 -0.486382 0.368535 
0.730005 0.207473 0.381659 0.695484 0.256580 -0.614717 
-1.342327 0.964980 2.750769 -0.419347 0.726593 -0.524184 
0.184249 0.593166 -0.090810 0.414264 0.094427 -0.884547 
0.486550 0.799580 1.009994 -0.628540 -0.738944 0.192820 
-0.795511 0.748406 0.874017 -0.641900 0.669460 -0.312406 
1.360662 0.841050 2.056863 -0.417864 -0.404454 0.794553 
-0.268574 1.404426 1.613392 0.339614 -0.891546 0.260429 
0.397770 0.530501 0.068278 0.590810 0.266043 -0.608886 
-0.638490 0.897061 0.941717 -0.670499 0.686223 -0.193120 
1.704507 0.247063 1.208431 0.411115 0.810076 -0.393230 
-0.937267 -0.579558 0.456470 -0.405201 0.318871 -0.798596 
0.294874 0.913141 0.311743 0.910374 0.266758 0.187417 
1.758462 1.374735 2.652495 0.333461 0.626406 -0.703444 
1.363263 0.898812 2.099790 0.486500 0.519997 -0.678865 
-0.364489 1.457400 2.026124 -0.378236 0.891975 -0.029989 
-0.499333 0.610625 0.289337 -0.544981 0.761199 -0.281480 
0.841705 0.363018 0.487075 0.669631 0.350294 -0.601506 
1.577983 0.248108 1.762006 0.656530 0.512892 -0.398624 
0.721835 0.750971 1.124447 0.654213 0.706204 -0.202754 
1.743147 1.461132 2.723162 -0.331971 -0.631577 0.700597 
0.620979 -0.833256 0.173668 -0.185304 -0.340012 0.881757 
1.443453 1.456474 2.573582 0.365244 0.614138 -0.698083 
-1.289989 1.261935 3.045351 0.389438 -0.698195 0.590297 
-0.871291 0.956679 2.284827 0.653801 -0.615451 0.420093 
0.124273 -0.750657 -0.030642 0.021469 -0.003741 -0.984660 
-0.472365 1.201615 1.402426 -0.788805 0.549310 -0.015485 
0.136686 -1.004573 -0.078790 0.187195 0.209859 -0.951487 
1.456585 0.304633 1.063902 0.514484 0.697311 -0.458452 
-0.570769 -0.421066 0.218588 0.133707 -0.296233 0.900926 
0.064197 1.254944 0.163805 0.559505 0.294226 -0.742617 
-0.183415 1.513733 1.637188 0.839710 -0.188446 0.418651 
1.608722 1.077470 2.293478 0.331351 0.572890 -0.734427 
1.480762 0.476979 1.856628 0.617615 0.578579 -0.510664 
-0.335574 -0.496507 0.186656 -0.348026 -0.298408 0.868503 
0.639033 0.926077 1.524110 0.693000 0.631705 -0.307986 
1.524854 1.459711 2.615082 0.360453 0.611678 -0.702096 
0.209128 1.087950 0.573157 -0.081725 -0.307805 0.825456 
-0.527920 0.027068 0.184592 -0.724007 0.133282 -0.642498 
-0.380058 0.553342 0.071283 -0.531506 0.357044 -0.581864 
0.562687 1.472013 2.056835 -0.314763 -0.608809 0.715826 
-1.057472 -0.568201 0.485387 0.287563 -0.520531 0.757723 
-0.759583 0.846392 1.299754 0.415495 -0.824235 0.354414 
-0.801653 0.831881 1.359539 0.423660 -0.836724 0.318778 
-0.059020 0.938793 0.527629 -0.196195 -0.083987 0.969057 
0.814590 0.887777 1.613750 0.544707 0.523464 -0.568355 
1.687486 0.849228 2.258261 0.417935 0.432129 -0.794150 
1.153811 1.301298 2.291351 -0.385125 -0.517044 0.756503 
1.103992 0.525449 1.315040 0.602225 0.654821 -0.418789 
1.018819 1.447634 2.335655 0.418144 0.620940 -0.660747 
1.129939 0.100915 0.795406 0.541783 0.527353 -0.577158 
1.106907 0.036231 0.775624 -0.449577 -0.558857 0.620368 
-0.984920 -0.148299 0.600415 -0.549467 0.327609 -0.704821 
0.728017 0.476327 0.687728 -0.357853 -0.683260 0.603474 
-0.072000 0.649467 0.501179 -0.067672 0.217616 0.960606 
-0.545526 -0.185469 0.233662 0.063779 -0.317878 0.910316 
1.762415 0.915758 2.294661 -0.360797 -0.478980 0.791844 
0.519639 -0.921871 0.082526 -0.172711 -0.292319 0.925306 
-0.479157 0.009714 0.131821 -0.726784 0.106550 -0.653828 
0.625192 0.794034 1.208936 -0.349294 -0.776443 0.504190 
1.432192 -0.134985 0.892982 0.318684 0.720327 -0.517144 
0.750793 -0.775035 0.240621 -0.174111 -0.455162 0.820544 
-1.437062 0.700037 1.854861 -0.247885 0.953529 -0.065089 
0.042246 -0.908242 -0.069838 0.242256 0.176524 -0.929721 
0.568259 -1.007593 0.073492 0.245785 0.315865 -0.856861 
0.796617 -0.350733 0.453558 0.474660 0.335330 -0.726290 
0.869945 1.686657 2.463170 0.276297 0.785801 -0.540585 
-1.424988 0.837765 2.637483 -0.387700 0.799046 -0.418841 
-0.185989 1.411662 1.499815 0.735308 -0.583096 0.152871 
0.628155 1.000664 1.585828 0.623110 0.536276 -0.456586 
-0.778966 0.949182 2.039315 -0.641647 0.748791 -0.162316 
1.044699 0.403463 0.870440 -0.498089 -0.655157 0.548142 
0.916071 0.948832 1.805369 -0.408112 -0.472796 0.775200 
1.600002 0.050493 1.079085 -0.320627 -0.773727 0.463755 
-0.752541 1.286680 2.646990 0.543008 -0.745492 0.358191 
0.044789 -0.435919 0.299932 0.029931 -0.221915 0.973065 
0.385339 -0.920333 0.022970 0.396776 0.088702 -0.896917 
0.156959 -0.268015 -0.109043 0.469533 -0.129852 -0.859616 
1.435032 0.709742 1.999668 0.555504 0.533124 -0.588548 
-0.981329 0.683473 1.160045 -0.601144 0.709048 -0.279217 
-0.183989 0.133947 0.499001 -0.291102 -0.230034 0.920731 
1.122081 0.966017 1.959348 -0.425145 -0.487460 0.731703 
1.169561 0.007265 0.794980 0.492360 0.538930 -0.576471 
0.509569 1.386896 1.905567 0.550486 0.649165 -0.496314 
0.255331 -1.095575 -0.000566 -0.424259 -0.337264 0.739491 
0.616689 0.859349 1.237345 0.675689 0.695429 -0.185885 
-1.166359 1.076559 2.774325 -0.481140 0.672989 -0.548440 
-0.761206 0.689143 0.854142 0.311493 -0.756123 0.573509 
-0.610682 1.104470 1.921045 0.448160 -0.866569 0.033760 
1.473080 0.551764 1.909441 0.594927 0.559473 -0.542568 
-1.329279 0.706135 1.807364 0.176326 -0.781255 0.493195 
0.568118 1.398526 1.960671 0.534846 0.643779 -0.520452 
0.963580 0.918583 1.760390 0.545183 0.757539 -0.341991 
0.295956 0.604824 0.440310 0.626142 0.070153 0.731147 
-0.673892 0.098246 0.336615 -0.713090 0.216027 -0.612418 
-1.173575 0.202634 0.813881 0.548401 -0.481372 0.638132 
1.199911 0.964298 2.025738 -0.441426 -0.505508 0.718241 
-0.605421 0.055187 0.268299 -0.719519 0.175845 -0.624597 
-0.262985 -0.529584 0.223383 -0.349165 -0.312029 0.881190 
-0.123096 -0.202970 0.388806 -0.146946 -0.320818 0.933757 
0.444999 0.542128 0.506991 -0.758026 -0.418698 0.461002 
0.074978 0.591487 -0.120972 0.336372 0.095854 -0.927185 
0.681413 -0.063881 0.388620 -0.220876 -0.383333 0.830455 
-0.070098 -0.679207 0.206797 -0.257445 -0.438475 0.851205 
0.116441 1.206760 0.154619 0.598075 0.447305 -0.616094 
0.420724 -0.254722 0.214279 0.178638 -0.254607 0.914426 
0.781511 -0.419637 0.424817 -0.330929 -0.399760 0.782669 
1.429921 0.770206 2.053900 -0.398647 -0.339473 0.843043 
1.178201 0.848232 1.899080 -0.376813 -0.358778 0.824699 
-0.033986 0.034418 0.496954 -0.119218 -0.307353 0.942164 
-0.350697 -0.018040 0.367782 -0.452415 -0.254411 0.848808 
0.297503 1.474012 1.847956 0.111743 0.871063 -0.387489 
0.853867 0.026307 0.560522 -0.321980 -0.445614 0.743496 
-0.207942 -1.169953 -0.074779 -0.073810 0.103231 -0.910609 
1.446342 0.850345 2.134348 0.484433 0.481566 -0.708803 
1.807126 1.247434 2.553320 0.323951 0.588187 -0.735565 
-0.527982 1.044689 1.274823 0.376720 -0.815199 0.421707 
0.788327 -0.593632 0.380492 0.382735 0.312867 -0.756792 
-0.434022 1.339889 1.890853 -0.794073 0.569873 -0.093706 
0.826268 0.710539 1.381965 -0.462071 -0.740020 0.462210 
0.226403 -0.467599 0.269237 0.291407 -0.315670 0.902330 
-1.111905 0.764095 2.286954 0.280390 -0.951988 -0.087110 
-0.427212 -0.284518 0.191776 -0.169675 -0.256765 0.924574 
0.124172 1.037130 0.069548 0.505094 0.430430 -0.723891 
1.146513 1.647841 2.598710 -0.315850 -0.692617 0.646331 
-0.031944 0.676562 -0.125773 -0.284452 0.162368 -0.934795 
-0.539812 -0.494907 0.181787 0.122051 -0.282408 0.916855 
-1.434298 0.716652 1.927713 -0.235183 0.961132 -0.035223 
1.572253 1.395594 2.582463 0.348492 0.640219 -0.681162 
-0.624056 1.069190 1.449373 -0.704056 0.626253 -0.069839 
-1.009641 -0.057173 0.638786 0.467215 -0.428037 0.708411 
1.007051 -0.341652 0.592440 0.409488 0.435483 -0.664067 
0.352972 -0.473356 0.062365 0.698219 0.002572 -0.677105 
-0.880733 0.809765 1.483568 -0.564515 0.759242 -0.226009 
-0.258636 1.454349 1.791398 0.724912 -0.602351 0.331852 
-0.356535 0.362641 -0.010887 -0.465187 -0.023568 -0.875700 
0.504265 1.433120 1.975095 -0.290906 -0.590972 0.741430 
0.657390 -0.972038 0.108608 0.197840 0.424687 -0.828879 
0.395117 0.673684 0.116685 0.696099 0.600911 -0.234284 
0.606667 0.386951 0.462888 -0.333748 -0.525894 0.769777 
1.214426 1.752444 2.712656 0.305506 0.719323 -0.610945 
0.792046 -0.195250 0.471649 -0.313224 -0.409774 0.775783 
-0.618632 1.068344 1.538608 -0.705090 0.607379 -0.173838 
-0.342845 -0.847444 -0.022701 -0.422745 0.033151 -0.895026 
0.443448 0.393150 0.397048 -0.012117 -0.172932 0.917512 
0.775253 0.707969 1.260105 -0.424697 -0.747969 0.483903 
0.446858 0.830920 0.959338 -0.655473 -0.726479 0.152948 
1.030434 0.406317 0.778073 0.636631 0.544831 -0.503710 
1.427403 0.133381 0.997197 0.457304 0.670426 -0.486932 
-0.421789 0.007238 0.062668 -0.720374 0.075365 -0.676327 
-0.086174 -0.940525 0.001783 -0.004799 -0.485081 0.844107 
0.684725 0.611075 0.685618 0.143311 0.866316 -0.406159 
1.253818 0.371192 1.191961 -0.525193 -0.689868 0.252582 
1.050111 0.969629 1.880797 0.522666 0.700753 -0.450377 
-1.023827 0.626209 1.144310 0.508282 -0.720818 0.413936 
-0.898508 0.712037 1.160366 0.465701 -0.754694 0.413036 
-0.979593 0.168806 0.637241 -0.638279 0.400999 -0.589905 
-1.308690 0.760738 2.450145 -0.412550 0.853128 -0.293261 
0.041560 -0.230770 -0.152032 0.351659 -0.176650 -0.900912 
1.100686 0.176179 0.818152 -0.515092 -0.563192 0.603476 
-0.575201 -0.274663 0.261908 -0.656594 0.153404 -0.664679 
0.343538 0.965325 1.232822 -0.578879 -0.758441 0.269073 
1.109836 0.542746 1.455086 -0.550691 -0.707063 0.331074 
-1.418043 0.543703 1.418012 -0.043990 -0.562712 0.484658 
-0.057325 0.415474 0.555826 -0.154543 0.034505 0.975825 
-0.713255 1.240598 2.506162 0.611383 -0.720865 0.309573 
0.684961 1.072120 1.669230 0.581953 0.693089 -0.370584 
-0.555551 1.133531 1.698944 -0.725931 0.593613 -0.031006 
-0.989197 0.359759 0.631634 -0.674928 0.410007 -0.568959 
0.167760 1.091422 0.458210 0.821240 0.352334 -0.223486 
0.459707 -0.128530 0.240623 0.047094 -0.276077 0.921794 
0.049296 -0.735893 -0.028388 0.184007 0.031124 -0.959480 
-1.092600 0.956754 2.563202 0.512070 -0.666085 0.530337 
0.186233 0.372142 -0.084039 0.421819 0.000530 -0.902284 
0.319436 0.866220 0.219099 0.927657 0.332531 -0.115918 
-0.429358 1.208465 1.468010 0.364343 -0.851359 0.364011 
1.635299 0.571522 2.084161 -0.506240 -0.454444 0.721693 
0.759587 -0.663021 0.330748 -0.225969 -0.378487 0.822209 
0.156451 0.402717 0.553006 0.330316 0.032593 0.941496 
-1.692175 0.635335 1.853164 0.186513 -0.941377 0.206324 
-1.077297 0.548874 0.900377 0.543058 -0.613441 0.555120 
0.327266 0.631366 -0.049480 0.588082 0.205503 -0.762633 
-0.484942 1.204972 1.521489 -0.777638 0.538202 -0.088550 
-1.092176 1.156974 2.827697 -0.505765 0.631097 -0.576251 
0.447838 1.038472 1.554304 -0.295849 -0.766429 0.525960 
0.244519 -0.280378 -0.070112 0.522653 -0.122277 -0.841185 
-0.143290 0.781705 -0.054743 -0.511457 0.385036 -0.727497 
-1.377596 0.418520 1.027349 -0.607806 0.500959 -0.600074 
-1.419591 0.766209 2.128186 -0.210888 0.974856 0.018909 
-0.308473 -1.278055 -0.006794 0.126717 -0.177392 0.938483 
-1.416329 0.391260 1.082175 0.544321 -0.491933 0.661468 
1.321025 0.442959 1.668772 0.622606 0.459564 -0.407045 
0.054375 -0.344779 0.322575 0.000504 -0.356235 0.928608 
1.080924 -0.356230 0.636244 0.379688 0.469285 -0.644279 
0.179372 -0.817003 -0.013027 -0.017106 0.003593 -0.994581 
1.031384 0.359481 0.707219 0.644638 0.465727 -0.566813 
1.269066 0.375997 1.491486 -0.595278 -0.695960 0.030947 
-0.641012 1.338026 2.512480 -0.625106 0.720218 -0.278088 
-0.707725 1.188891 2.365451 -0.723762 0.613460 -0.310032 
0.085541 -0.730900 0.162788 0.173002 -0.450011 0.856872 
-0.037012 1.418975 1.580632 -0.526690 -0.485508 0.556308 
1.822807 1.050268 2.372888 -0.306602 -0.508673 0.802106 
-0.252934 -1.251678 -0.052290 0.270383 0.026916 -0.905075 
0.525750 0.886071 1.089931 0.685989 0.715349 -0.104993 
1.033437 -0.408900 0.590796 0.374673 0.442820 -0.664174 
0.194057 1.020088 0.088719 0.630786 0.405634 -0.657540 
-0.233692 1.117265 0.593798 -0.255252 -0.639586 0.702075 
0.686311 0.249569 0.315097 0.698904 0.228077 -0.632456 
0.325978 1.139980 1.433383 0.761458 0.602423 -0.199556 
-0.036480 0.295734 0.561996 -0.135993 -0.073828 0.980276 
0.260984 0.761815 -0.026086 0.608494 0.514202 -0.581402 
-0.098881 0.144936 0.521822 -0.200062 -0.224057 0.944359 
0.989599 1.506734 2.371195 0.415627 0.617575 -0.666465 
-0.537051 -1.075503 0.059874 -0.330165 -0.195285 0.724712 
0.218262 0.514898 -0.086051 0.451727 0.024871 -0.882929 
0.627162 -0.564429 0.264377 -0.246163 -0.324951 0.863895 
-0.318854 1.477169 1.820602 -0.695910 0.694408 -0.166800 
0.855519 -0.417362 0.471020 -0.311678 -0.430913 0.759395 
0.726132 0.721646 1.195782 -0.394668 -0.756503 0.497280 
0.283396 -0.663944 0.152470 0.256065 -0.320731 0.868989 
-1.625926 0.638382 1.802621 0.187013 -0.896970 0.302996 
-0.107005 1.281035 0.288081 -0.651014 0.675446 0.193647 
-0.230070 0.087451 0.464394 -0.323175 -0.263397 0.902872 
1.411483 0.208135 1.453634 0.647404 0.663520 0.194248 
0.191508 0.803621 -0.027082 0.544400 0.438595 -0.686667 
-1.097668 0.538463 0.833368 -0.627722 0.589518 -0.496870 
1.552794 -0.027834 1.003262 -0.296454 -0.787728 0.480405 
0.340873 -0.869721 -0.016578 0.412497 0.037356 -0.897203 
1.605350 0.137641 1.115307 -0.359169 -0.772942 0.452039 
-0.283411 -0.728901 0.123343 -0.151703 -0.321731 0.872844 
0.537365 0.752332 0.968634 -0.656542 -0.694025 0.228597 
0.856406 1.003840 1.812613 -0.413680 -0.523431 0.736278 
-1.205942 0.895885 2.559886 -0.448241 0.776606 -0.401892 
-0.019726 0.724904 0.472687 -0.042313 0.030604 0.993000 
-0.241293 0.055909 -0.069119 -0.473796 -0.064980 -0.872707 
0.165597 1.209508 1.473653 -0.713998 -0.511178 -0.030368 
0.317705 1.229573 1.570612 0.684968 0.570641 -0.293101 
-0.615318 1.331941 2.444738 -0.676738 0.679785 -0.272921 
0.406578 -0.324777 0.200889 0.224052 -0.270078 0.892617 
-1.100525 0.858545 2.436406 0.519909 -0.625271 0.574479 
0.282643 -0.412705 -0.021496 0.614904 -0.093065 -0.761744 
-0.603853 0.508090 0.299148 -0.613259 0.427975 -0.567281 
-0.524045 -0.792048 0.125105 0.209798 -0.268401 0.919893 
0.809520 1.474430 2.224769 -0.342374 -0.613568 0.703382 
0.464025 -0.206897 0.178934 0.757622 0.064047 -0.609831 
-0.360946 0.411471 0.405192 -0.211886 0.034525 0.975545 
-1.265025 0.468751 0.915589 -0.640334 0.533604 -0.545551 
1.196727 -0.138472 0.771967 0.426713 0.540644 -0.585430 
-0.704862 0.863367 0.971499 -0.720428 0.644992 -0.171126 
1.498459 1.394949 2.546162 0.354013 0.643724 -0.673718 
0.076338 0.626186 0.511625 0.062542 0.272751 0.947236 
-0.018140 -0.057228 -0.171878 -0.377749 -0.097209 -0.899901 
-0.981969 -0.658452 0.392095 -0.260169 0.543843 -0.760694 
1.153730 0.307133 0.889446 -0.544214 -0.591179 0.573039 
0.374446 -0.134923 0.037805 0.705754 -0.007541 -0.689667 
0.172672 0.115709 -0.106428 0.473992 -0.029610 -0.874367 
0.545160 1.539896 2.077131 0.420212 0.682989 -0.593124 
-0.978785 -0.533102 0.504865 -0.427727 0.307122 -0.793433 
0.071418 0.072873 0.507845 0.170268 -0.295619 0.936071 
-0.993712 -0.469726 0.560482 0.383234 -0.285902 0.836411 
0.624820 -0.901230 0.112879 -0.150532 -0.411554 0.873105 
-0.147726 -0.209420 -0.115750 -0.481981 -0.102083 -0.856836 
0.381361 1.055953 1.246190 0.594964 0.757311 -0.183934 
-0.541096 1.162149 1.793639 -0.767703 0.559915 -0.131935 
1.334271 0.234796 0.965116 0.527224 0.634150 -0.502275 
-0.326732 -0.583522 0.013498 -0.600993 -0.005802 -0.762521 
1.027534 0.618061 1.520653 -0.570238 -0.698736 0.429745 
0.092414 0.805018 0.493681 0.210119 -0.204732 0.946850 
1.025315 1.078982 1.992111 -0.462970 -0.605430 0.646731 
0.249186 0.208562 -0.063151 0.461046 -0.047842 -0.882642 
0.928131 0.473245 0.759574 0.638797 0.593508 -0.434295 
-1.064666 1.010200 2.615443 0.515817 -0.686137 0.501918 
1.062977 -0.189024 0.671215 0.450689 0.473569 -0.630157 
-1.464622 0.068797 1.030573 0.575622 -0.365636 0.699537 
-0.459813 0.928678 0.861633 -0.354370 0.712291 -0.594348 
-0.422978 -0.948877 0.050580 0.148156 -0.246921 0.949495 
0.619928 0.665840 0.919429 -0.535360 -0.725961 0.367639 
-0.046775 -0.277680 -0.146721 -0.345911 -0.197120 -0.900889 
-0.831033 -0.539240 0.416525 0.339664 -0.299560 0.847241 
1.495730 0.251270 1.683860 -0.695608 -0.568634 0.200760 
-0.055742 1.183369 0.464997 0.154163 0.655953 0.723788 
-1.028284 0.687736 1.495100 0.433007 -0.872629 0.158054 
0.892827 0.313233 0.550408 0.666558 0.370243 -0.592815 
0.283851 0.965673 0.265086 0.915203 0.357074 -0.034589 
0.127299 0.329936 0.558211 0.279550 -0.019810 0.951121 
0.767223 -0.101897 0.458305 -0.262492 -0.399262 0.793633 
-1.299219 0.757251 1.952899 -0.257692 0.962990 0.015705 
-0.689049 1.133900 2.204051 -0.733845 0.621426 -0.250091 
-1.170705 0.557038 1.161628 -0.565928 0.668017 -0.410163 
0.902834 0.571967 0.928269 0.641694 0.660097 -0.334189 
0.276883 1.064767 1.213797 -0.073344 0.641050 -0.609728 
-0.772270 -0.876876 0.162314 -0.167691 0.573290 -0.790836 
-0.479291 -0.517072 0.149913 -0.582096 0.110748 -0.742433 
-0.785814 0.962916 2.131431 0.717467 -0.588755 0.367404 
0.350034 1.442919 1.889122 -0.353442 -0.591932 0.710099 
-0.375169 -0.746453 0.033986 -0.520628 0.060485 -0.812069 
0.244936 -0.375063 -0.070726 0.534562 -0.137257 -0.833164 
-0.109372 -0.269158 0.362265 -0.110985 -0.331628 0.935632 
-0.712337 0.814347 0.897598 -0.658410 0.681725 -0.247965 
0.381479 0.282349 0.009621 0.522270 -0.023277 -0.834994 
-0.830264 0.586783 0.655909 -0.596520 0.585919 -0.496014 
-1.086449 0.299625 0.738701 -0.641275 0.464826 -0.564182 
-1.595059 0.531358 1.478024 0.007396 -0.651333 0.482601 
0.727379 0.676332 0.828548 0.447232 0.774867 -0.384141 
0.042063 0.235929 0.548207 0.138042 -0.135273 0.970578 
-0.472798 1.133027 1.118680 -0.448782 0.745168 -0.442283 
-0.238489 -0.264282 0.331666 -0.369139 -0.311918 0.854443 
-1.395821 0.732963 1.985757 0.168685 -0.871777 0.262054 
-0.847965 1.279100 2.801423 0.487294 -0.724133 0.471186 
-0.077721 -0.360015 0.318411 -0.029801 -0.325402 0.937783 
1.590316 1.778758 2.930956 -0.367100 -0.577766 0.718021 
-1.744364 0.512223 1.508190 0.026200 -0.695382 0.512456 
0.196858 -1.127951 -0.062320 -0.453686 -0.350831 0.751812 
-0.683556 0.187475 0.320521 -0.700931 0.233464 -0.627299 
1.177665 0.440440 1.250424 -0.545466 -0.680156 0.350065 
0.839188 1.638243 2.416090 -0.414749 -0.611011 0.667965 
-0.642217 0.877915 1.109954 0.392251 -0.784878 0.463580 
-0.028231 -0.184181 -0.159650 -0.352059 -0.158481 -0.903019 
0.027285 1.409779 1.551729 0.243119 0.515819 -0.796367 
0.056556 1.340299 0.273688 0.615820 0.671035 0.364581 
0.978810 0.069898 0.688076 -0.430938 -0.503534 0.671268 
-0.953818 1.208505 2.803377 0.454812 -0.748228 0.478381 
1.432808 0.176078 1.554186 -0.763324 -0.568999 -0.036598 
0.871898 1.149576 1.949791 0.447332 0.637212 -0.622506 
-0.209494 -0.753998 -0.014718 -0.028352 -0.035032 -0.995362 
-0.637812 0.151319 0.277168 -0.706226 0.205575 -0.633960 
-0.046441 0.225302 0.545355 -0.142330 -0.145949 0.967981 
-0.343816 -0.695310 0.143499 -0.219228 -0.287578 0.891788 
-0.276250 -0.532781 -0.052715 -0.480872 -0.091244 -0.852705 
-0.449507 1.147700 1.358398 0.365448 -0.830202 0.405518 
-1.169072 0.688951 1.632320 0.248667 -0.890330 0.026040 
1.053893 0.593544 1.452796 0.602543 0.675018 -0.412744 
1.356290 0.293259 1.013896 -0.498402 -0.676205 0.508402 
1.179628 0.644737 1.700583 0.542624 0.447360 -0.622356 
0.302000 1.344742 1.748739 -0.253514 -0.545576 0.792315 
-1.096373 0.716318 1.607145 -0.341540 0.795394 -0.465209 
-0.376507 1.286197 1.285587 -0.565389 0.749398 -0.308584 
-0.545131 -0.990772 0.072115 -0.030963 -0.281046 0.831861 
-0.489503 1.364340 2.120575 -0.759101 0.599272 -0.167617 
0.713407 1.190094 1.885171 -0.336710 -0.694261 0.605950 
1.813058 1.113633 2.428322 0.316634 0.564807 -0.750757 
-0.208951 1.130921 0.206685 -0.820188 0.475377 -0.274627 
-0.017407 -0.397372 0.304631 0.075076 -0.209711 0.970558 
0.878393 0.912884 1.756950 -0.496661 -0.726379 0.457157 
-0.358678 -0.923294 -0.014777 -0.403168 0.062316 -0.905697 
1.055695 0.574166 1.375223 0.608298 0.663395 -0.426308 
0.360739 -1.420273 -0.082864 -0.064281 0.103845 -0.988657 
-0.836191 0.521154 0.563545 -0.626042 0.485611 -0.551299 
-0.767667 0.113034 0.443851 -0.710264 0.264805 -0.586919 
0.709197 0.396862 0.560460 -0.369355 -0.565260 0.709206 
0.488618 1.104881 1.673918 -0.338277 -0.590485 0.690352 
0.400484 0.472347 0.025830 0.591826 0.126631 -0.718416 
-0.827723 -0.253697 0.458922 0.391286 -0.399038 0.759992 
-0.561379 1.032395 1.156201 -0.753238 0.628153 -0.060531 
1.037002 -0.500221 0.519243 0.289553 0.538930 -0.674543 
-1.096594 0.664092 1.460131 -0.369329 0.770655 -0.359231 
1.240598 0.998473 2.091684 -0.460467 -0.557207 0.681713 
1.120454 1.069426 2.026057 0.475555 0.623351 -0.620052 
0.601423 0.709889 0.971489 -0.354760 -0.785904 0.490206 
-0.277133 1.302385 1.299842 0.768780 -0.169611 -0.293182 
0.486079 0.620732 0.405769 0.413183 0.819871 -0.229728 
-0.757180 -0.652593 0.352440 -0.460978 0.161977 -0.845862 
0.074889 0.914154 -0.023614 0.477933 0.443637 -0.732952 
-0.935616 0.228426 0.621550 0.388785 -0.473739 0.701175 
-0.637817 1.049981 1.660629 -0.621781 0.730064 0.145683 
1.373925 1.284299 2.389226 -0.349011 -0.522541 0.769418 
1.261811 1.454089 2.488052 -0.369507 -0.617799 0.693095 
1.288871 1.758806 2.757179 0.301505 0.715804 -0.613652 
0.633608 0.131487 0.285789 0.713433 0.188907 -0.625433 
0.695748 0.335184 0.300880 0.692331 0.236920 -0.644565 
-1.299732 0.158731 0.899896 -0.621143 0.397486 -0.635122 
-0.852020 0.540618 0.723891 0.336545 -0.665195 0.635818 
-0.352987 -0.249067 0.061425 -0.762688 0.007046 -0.640621 
0.027476 0.164032 -0.183788 0.454974 0.026499 -0.882852 
-0.663604 -0.966218 0.113698 -0.061329 -0.411193 0.766786 
-0.735500 -0.802523 0.225418 0.214080 -0.410770 0.850457 
-0.243927 1.480155 1.590859 -0.812619 0.571769 -0.021576 
0.331214 0.954161 1.058061 -0.626064 -0.661332 0.136692 
1.088313 -0.269432 0.662974 -0.315307 -0.535890 0.667251 
0.261203 -0.023131 0.410347 0.375176 -0.271631 0.876380 
0.880890 1.462806 2.259822 -0.344787 -0.609569 0.707070 
-1.038829 0.153973 0.679419 -0.594160 0.441408 -0.612699 
1.207385 0.898679 1.949192 0.543796 0.620295 -0.532492 
0.878441 0.226869 0.558750 0.673859 0.358015 -0.581787 
0.136106 -0.189013 -0.121721 0.470030 -0.099630 -0.862800 
0.455957 0.458336 0.085853 0.648376 0.229431 -0.621567 
-0.845032 -0.176834 0.484699 0.384961 -0.407723 0.751781 
-0.158387 -0.695571 -0.014241 0.002315 -0.058176 -0.995117 
-1.659110 0.502076 1.439238 0.030612 0.571751 -0.628459 
-0.493396 -0.936187 0.065605 -0.348268 0.186347 -0.888919 
0.706688 0.512333 0.755400 -0.388633 -0.720251 0.554808 
-1.657791 0.614631 1.731768 0.192095 -0.884092 0.356444 
-0.126361 -0.027289 0.459997 -0.199481 -0.298400 0.930286 
0.210219 0.609457 0.489038 0.340730 0.290853 0.834739 
-0.156620 -0.950740 0.005368 0.131218 -0.446240 0.866273 
-0.493947 1.373528 2.271560 0.712211 -0.620111 0.320588 
1.389268 1.182634 2.303044 -0.341288 -0.469502 0.810682 
0.338273 0.715822 0.336094 0.879133 0.194530 0.354714 
-1.012536 0.643361 1.214450 0.494177 -0.754673 0.371724 
-0.714256 -0.678528 0.299042 0.290827 -0.277756 0.882980 
-0.305104 1.389520 1.475978 -0.875769 0.449047 0.050468 
1.101563 0.254222 0.831530 -0.505563 -0.565311 0.602884 
-1.510014 0.910536 2.796745 -0.370406 0.749380 -0.528725 
-0.679807 -0.760259 0.253388 -0.406525 0.193790 -0.857549 
-1.330954 0.741427 2.302585 -0.345457 0.890355 -0.207066 
0.427801 1.021126 1.294434 0.725851 0.651502 -0.166090 
0.877280 1.311182 2.118803 0.445591 0.671120 -0.586779 
-1.272667 0.499657 1.217305 0.499852 -0.624541 0.519159 
-0.175601 -0.303969 0.335680 -0.209590 -0.325201 0.908773 
-0.095562 1.182295 0.125733 -0.522291 0.395902 -0.745828 
-0.886092 0.790792 1.608376 0.486604 -0.830099 -0.122237 
0.274197 1.173361 1.344675 0.203545 0.748575 -0.468036 
0.128816 -1.099070 -0.096351 -0.271672 -0.400126 0.856552 
0.040525 1.059240 0.524809 -0.044562 0.168119 0.947423 
-0.040097 0.799993 0.498420 -0.139741 -0.233328 0.953867 
0.937164 1.620312 2.440390 0.426152 0.594663 -0.678165 
0.397571 -0.097378 0.297743 0.305849 -0.244264 0.890629 
-0.082667 0.063048 -0.156540 -0.482513 0.000236 -0.869092 
-1.083303 1.109346 2.761991 0.463620 -0.724465 0.500250 
-1.200620 0.799758 2.012897 -0.284159 0.955049 0.011868 
-0.949153 1.138762 2.702342 -0.549996 0.651155 -0.514050 
1.426805 0.279067 1.437742 -0.502965 -0.762210 -0.223794 
-0.548884 1.385343 2.421552 -0.535237 0.817417 -0.165772 
0.528235 0.553437 0.591660 -0.775252 -0.441219 0.411625 
1.050895 0.139250 0.752462 0.586912 0.488978 -0.589034 
-1.554886 0.258564 1.126080 -0.659889 0.393349 -0.626485 
0.485238 0.309467 0.402706 -0.024650 -0.320740 0.860292 
0.298979 -0.283560 0.301896 0.474722 -0.303054 0.817345 
1.888845 1.071203 2.422623 -0.303540 -0.531338 0.787624 
0.511420 0.416178 0.459585 -0.479648 -0.511639 0.684545 
1.661211 1.307430 2.544562 -0.330762 -0.578514 0.738674 
-0.186444 -0.077916 0.424649 -0.296257 -0.295596 0.896789 
0.074812 0.515532 -0.128354 0.386432 0.066615 -0.915533 
0.635625 0.793837 1.047832 0.666751 0.715923 -0.145092 
0.617773 1.611862 2.231056 -0.585014 -0.366998 0.699885 
0.225462 1.241830 1.417376 0.321458 0.804698 -0.393678 
-0.958771 0.665541 0.901686 -0.671253 0.606616 -0.364365 
0.358509 0.524371 0.001188 0.557725 0.137498 -0.731167 
-0.726005 0.750801 0.795469 -0.192400 0.795626 -0.505815 
-0.348631 1.354231 1.752525 0.554835 -0.677424 0.470114 
0.791089 0.684065 1.047901 0.652075 0.682847 -0.249830 
0.814763 -0.809042 0.217148 -0.137615 -0.573196 0.784226 
0.975020 0.632484 1.451180 -0.538048 -0.707804 0.444194 
0.569528 0.976687 1.514627 0.709043 0.622701 -0.288262 
0.203802 -0.051794 -0.090656 0.494558 -0.069118 -0.860338 
0.148755 -0.865067 0.069447 -0.058428 -0.434151 0.870269 
-1.522269 0.602984 1.609398 0.173495 -0.849138 0.242408 
-1.436616 0.677313 1.787255 0.181222 -0.816507 0.443693 
-0.737858 0.405423 0.317814 -0.670962 0.291340 -0.654332 
1.499976 1.024763 2.250988 -0.386585 -0.595831 0.679985 
-0.108496 0.321690 0.558745 -0.241818 -0.034037 0.959809 
0.293354 -0.941825 -0.025431 -0.045396 0.013491 -0.990822 
-0.424935 0.184672 0.401857 -0.358532 -0.257137 0.862915 
1.060911 1.574674 2.487619 -0.356304 -0.659342 0.658983 
-0.924025 0.116195 0.593897 0.376945 -0.445810 0.713179 
0.459453 1.049104 1.473177 0.732358 0.614647 -0.246240 
-0.219702 1.053341 0.157807 -0.750756 0.409686 -0.443586 
-0.841891 0.852914 1.645959 -0.566504 0.699606 -0.415008 
0.382408 -0.049062 0.012448 0.637915 -0.012801 -0.749355 
-1.144975 0.132401 0.766509 -0.602086 0.413951 -0.629371 
0.385775 0.580377 0.460389 -0.804152 -0.365770 0.436758 
-0.855746 0.783667 1.360481 0.432618 -0.837876 0.305129 
-1.163430 -0.395991 0.657302 -0.436648 0.382973 -0.753039 
-0.362826 -0.315576 0.093787 -0.771824 0.002603 -0.624187 
-1.102797 0.182123 0.736471 -0.604279 0.441644 -0.609531 
-1.344862 0.549933 1.363331 -0.021289 0.500822 -0.667053 
-0.421240 0.628855 0.256911 -0.499386 0.800047 -0.168468 
-0.216654 0.309942 0.524340 -0.353032 -0.040278 0.927987 
-0.019874 -0.822648 0.105509 -0.399344 -0.430993 0.805536 
0.642525 1.479463 2.094941 0.504513 0.630666 -0.569303 
-0.236961 0.481676 -0.077486 -0.459076 0.016896 -0.883117 
-0.856902 -0.381670 0.462602 0.375378 -0.349196 0.799680 
-0.143416 1.246613 0.347557 -0.583684 0.769802 0.157065 
-0.384714 -0.188547 0.080572 -0.754443 0.031476 -0.642904 
1.105954 0.759766 1.799609 -0.483340 -0.530698 0.681462 
-0.985340 0.722668 1.539093 0.445678 -0.861586 0.057704 
0.759805 -0.517819 0.383140 0.421585 0.305174 -0.756315 
-0.523529 -0.321961 0.193388 0.039471 -0.280818 0.929375 
1.431144 0.294026 1.354117 0.465249 0.766743 0.204603 
-0.550395 1.245339 2.032617 -0.766542 0.593562 -0.164655 
-1.453752 0.563899 1.483316 0.030202 -0.660444 0.402073 
-1.494489 0.713897 1.983997 -0.215675 0.965190 -0.040195 
0.837723 -0.561365 0.421491 0.379178 0.338677 -0.738701 
0.331710 -0.675502 0.005591 0.544463 0.004710 -0.799627 
0.888304 0.872886 1.648932 0.479178 0.475455 -0.681667 
-1.076886 0.600721 1.216650 0.514481 -0.741961 0.365781 
0.729327 0.289982 0.355913 0.690494 0.258460 -0.628769 
-1.326098 -0.102059 0.893171 -0.589948 0.286493 -0.721291 
-0.719520 1.285125 2.563025 -0.657240 0.634621 -0.380112 
-1.094678 0.009572 0.710471 -0.581056 0.372699 -0.664198 
0.292295 1.018530 1.144483 -0.672105 -0.570142 0.023672 
-0.385067 -0.759649 0.113779 -0.084545 -0.271428 0.913691 
-1.046870 1.316413 2.964847 -0.369112 0.795308 -0.434058 
-0.273050 0.910329 0.148775 -0.813147 0.383133 -0.351328 
-0.242934 1.451803 1.669115 0.516280 -0.700367 0.490983 
0.708601 -0.551256 0.340643 0.425277 0.278421 -0.775067 
-0.978585 1.310905 2.930605 0.556251 -0.494229 0.644345 
0.892137 -0.035821 0.590119 0.589969 0.383111 -0.625891 
0.781134 0.260359 0.552511 -0.373895 -0.497894 0.740031 
-1.526305 0.562277 1.515973 0.060934 -0.708865 0.388781 
-0.506349 0.088186 0.139957 -0.715927 0.131192 -0.661243 
0.571529 0.204065 0.356215 -0.269540 -0.437589 0.837856 
-0.171490 1.107187 0.482983 -0.830814 0.292487 -0.307975 
1.424854 1.537728 2.632932 0.379990 0.583543 -0.713949 
1.441116 1.316641 2.448082 0.351365 0.692209 -0.619704 
-1.332511 1.209442 3.015117 -0.422534 0.650986 -0.620881 
-1.012312 0.752263 1.643876 0.390126 -0.892905 -0.091758 
0.775712 0.923747 1.660869 -0.460186 -0.791183 0.357360 
-0.560945 0.564589 0.599314 0.634607 -0.589221 0.458212 
0.123120 -0.332527 -0.116525 0.412218 -0.183946 -0.876191 
1.121507 1.149520 2.117110 0.437199 0.461005 -0.748155 
0.151079 0.190217 0.525451 0.282918 -0.166886 0.932409 
1.487864 0.759238 2.098217 -0.419629 -0.366405 0.821213 
-0.770873 1.237558 2.599172 0.564775 -0.730754 0.359286 
-0.239033 0.978596 0.138462 -0.740627 0.380752 -0.473348 
0.130621 1.278729 1.514714 -0.826753 -0.278117 -0.336578 
0.477473 1.016434 1.408809 0.722906 0.632673 -0.224088 
1.116163 1.434537 2.390495 0.393940 0.626616 -0.670225 
1.319673 0.960397 2.113841 0.467384 0.517751 -0.700564 
-0.524982 1.232566 1.932053 -0.769703 0.598332 -0.124312 
0.263682 -1.244162 -0.017763 -0.567788 -0.322033 0.533803 
1.357300 0.293231 1.465792 -0.589702 -0.702389 -0.108226 
-1.481475 0.295522 1.080226 0.623265 -0.441844 0.629736 
-0.465979 -0.450596 0.126236 0.014684 -0.255347 0.959158 
1.409235 0.539224 1.835045 0.620127 0.589384 -0.498247 
0.456152 1.530991 2.035771 -0.594041 -0.300376 0.684746 
-1.143104 -0.340100 0.703092 0.436170 -0.296623 0.805884 
0.898213 0.316184 0.667934 -0.440656 -0.538617 0.681792 
-0.824499 0.367111 0.554402 0.350457 -0.515374 0.736037 
0.318204 -0.206878 0.318572 0.469095 -0.287185 0.827227 
1.320820 0.384161 1.626305 -0.716289 -0.635570 0.054025 
-0.393988 0.489410 0.028312 -0.554794 0.189510 -0.708135 
-0.523249 1.352626 2.198528 -0.745826 0.610729 -0.197096 
0.864721 0.669596 1.329468 -0.473446 -0.728726 0.469498 
-1.126746 0.679546 1.532834 -0.313161 0.757662 -0.452836 
-1.099504 0.778307 1.808769 -0.326792 0.944583 0.009516 
0.300051 0.511327 0.432413 0.336649 0.052302 0.898333 
0.307642 1.319668 1.682569 0.664773 0.499929 -0.507342 
1.538959 0.274139 1.142782 -0.439028 -0.757779 0.389418 
0.462693 1.495675 1.972042 0.491709 0.660467 -0.547677 
0.463916 -0.034711 0.126818 0.747028 0.068859 -0.638838 
-0.642690 -0.072495 0.346004 -0.727166 0.179720 -0.596148 
-1.422729 0.714009 2.469348 0.405295 -0.771733 0.428849 
-0.374303 0.099757 0.396899 -0.439939 -0.231794 0.864785 
0.546018 0.469032 0.578329 -0.511277 -0.589768 0.591686 
-0.658923 0.462057 0.503980 0.249073 -0.578366 0.764193 
-0.247938 0.578578 0.469409 -0.468310 0.091903 0.830889 
-1.192854 0.811968 2.436922 -0.444091 0.828260 -0.308688 
0.182527 0.285700 -0.099441 0.452437 -0.007254 -0.888824 
0.779124 0.476245 0.587098 0.658385 0.503315 -0.461147 
0.325101 -0.607089 0.165543 0.303960 -0.298988 0.882041 
-0.689223 0.907810 1.295201 0.403777 -0.822083 0.373577 
-0.692897 -0.850230 0.175726 0.191097 -0.422576 0.855059 
-0.343152 -0.818937 0.098354 -0.078655 -0.274257 0.918325 
-0.855623 0.892184 1.875706 -0.474401 0.864807 0.040708 
0.059964 -0.970297 -0.021493 0.153730 -0.477593 0.826128 
1.567830 0.790394 2.196794 -0.442760 -0.404953 0.797719 
-0.003014 -0.683074 -0.030943 -0.648688 -0.002020 -0.735155 
1.279907 0.284880 1.502177 -0.727342 -0.608780 0.023826 
-0.795699 -0.037061 0.465857 -0.644194 0.288898 -0.625746 
1.168562 0.442094 1.156901 0.599026 0.633830 -0.412875 
0.484750 0.554085 0.198366 0.680866 0.541724 -0.366454 
-1.144403 0.033701 0.755069 -0.589213 0.373799 -0.661014 
-0.693520 0.183966 0.416701 0.231991 -0.448230 0.810514 
0.535320 -0.825068 0.139357 -0.213565 -0.276386 0.913605 
-0.025715 0.590612 0.525547 -0.000741 0.353236 0.926885 
-0.862850 -0.045801 0.514390 -0.593823 0.339658 -0.649359 
0.784469 -0.006424 0.492190 -0.282532 -0.421579 0.777964 
-1.464111 0.732478 2.523615 0.389302 -0.783132 0.428822 
-0.748876 0.378562 0.494695 0.306837 -0.515902 0.767751 
-1.236956 0.185422 0.862959 0.556673 -0.460388 0.647770 
0.364634 -0.281527 0.258416 0.407500 -0.283043 0.838931 
-0.402819 -0.103881 0.075955 -0.742827 0.052471 -0.654313 
1.228408 -0.284850 0.735509 -0.269308 -0.609022 0.622418 
0.622847 1.421144 2.041376 -0.298232 -0.587528 0.743220 
-1.468264 -0.008213 1.023439 -0.616499 0.299776 -0.704205 
-1.172576 0.859432 2.486750 -0.452322 0.800384 -0.352858 
-1.582661 0.783826 2.676971 0.343514 -0.816293 0.427664 
1.682014 1.440562 2.674419 0.345314 0.620894 -0.702244 
-1.217044 1.298707 3.044034 0.407667 -0.687153 0.588246 
-0.870458 0.416279 0.472561 -0.668326 0.358891 -0.616268 
-0.866583 -0.457392 0.458532 0.362281 -0.320145 0.824020 
0.373149 1.167777 1.557949 0.715600 0.535456 -0.333233 
-0.978809 0.279824 0.643988 -0.685836 0.393524 -0.556154 
-1.673325 0.654060 2.551583 0.304189 -0.903790 0.293186 
-0.791089 0.892053 1.830637 0.545869 -0.755918 0.305345 
-0.242637 0.803544 0.434894 -0.603189 0.126878 0.766844 
0.924505 0.465208 0.840199 -0.435148 -0.715096 0.525600 
0.032375 0.326046 0.568974 0.138312 -0.041328 0.983503 
-0.533977 0.500675 0.208367 -0.610734 0.463403 -0.512798 
0.817556 0.967013 1.760903 -0.415370 -0.540871 0.708008 
1.265047 0.862567 1.970849 0.543812 0.594387 -0.550821 
-0.357810 0.673491 0.230763 -0.445341 0.445264 0.051099 
1.054293 0.493522 1.140005 -0.534892 -0.661899 0.509090 
1.217241 1.295954 2.323969 -0.363432 -0.513904 0.768947 
1.249979 1.228403 2.275731 0.358662 0.751245 -0.547569 
1.735928 1.134320 2.412654 0.322280 0.596722 -0.717110 
0.205635 1.180127 1.370332 -0.300431 0.529928 -0.694623 
-0.435231 0.621245 0.532426 0.037116 0.953226 -0.238622 
-1.431230 0.714456 2.382286 -0.338775 0.891683 -0.238896 
0.693823 0.702714 1.054323 -0.362585 -0.754438 0.526743 
0.292546 -1.385493 -0.046452 -0.635198 -0.689987 0.205087 
-0.204588 0.724476 0.462608 -0.370791 0.206307 0.873696 
-0.959662 0.511465 0.764588 0.420009 -0.627782 0.617516 
0.409418 -0.479388 0.109831 0.654578 0.049344 -0.696158 
0.372863 -0.603172 0.059913 0.603259 0.036129 -0.743958 
0.946744 0.351519 0.718669 -0.472568 -0.559017 0.655852 
0.442856 0.785774 0.812153 0.397233 0.808325 -0.430362 
-0.127733 0.719152 0.471475 -0.118169 0.094751 0.981048 
0.848230 0.266968 0.612642 -0.403333 -0.513904 0.710400 
-0.855849 0.723508 1.036412 0.470552 -0.708192 0.492104 
0.907341 1.043614 1.850934 0.482584 0.729423 -0.452596 
0.552176 0.429362 0.201244 0.694355 0.301060 -0.562500 
-0.412225 1.244109 1.353875 -0.823954 0.522489 0.004627 
0.568663 0.043737 0.315713 -0.212664 -0.390703 0.862733 
-0.471235 1.271464 1.897792 0.575757 -0.668463 0.454748 
-0.013496 0.094152 -0.183851 -0.416873 -0.019835 -0.893239 
0.705960 0.606417 0.604799 0.626325 0.705972 -0.308337 
-0.842851 0.629189 0.828175 0.326706 -0.738983 0.578974 
-1.238212 0.682602 1.700892 0.228068 -0.843446 0.466278 
0.232625 0.133906 -0.073006 0.470714 -0.052425 -0.876227 
-0.314827 -1.335529 -0.063810 0.263694 0.049169 -0.953387 
-0.495034 1.144116 1.296630 -0.781976 0.574692 -0.029026 
-0.289228 0.753601 0.405997 -0.682505 0.211622 0.643512 
-1.768042 0.535673 1.574436 -0.121499 0.785183 -0.437493 
0.474539 1.102351 1.569860 0.677645 0.534313 -0.384643 
-1.177521 1.256646 2.977280 -0.473478 0.621258 -0.612279 
1.126619 -0.221973 0.702215 -0.326445 -0.554311 0.648980 
-0.581806 0.359660 0.387888 0.132917 -0.473575 0.831838 
1.682586 0.294184 1.906548 0.601716 0.507750 -0.612346 
-0.351216 -1.203842 -0.018246 -0.380568 0.024341 -0.916677 
-1.418439 0.144212 1.004763 0.581947 -0.403158 0.672843 
-1.069311 -0.278608 0.657093 -0.541076 0.259631 -0.754415 
-1.406373 0.065786 0.982490 0.564320 -0.378262 0.696569 
0.653419 0.650210 0.841145 -0.782068 -0.554024 0.239875 
1.505586 0.241688 1.370943 -0.426871 -0.808705 -0.326170 
1.263558 0.268776 0.928767 0.563551 0.603322 -0.518901 
-1.542891 0.698162 2.532437 -0.350956 0.878177 -0.307095 
-0.671389 0.586401 0.465767 -0.575314 0.569196 -0.492016 
1.508741 0.877720 2.214550 -0.437171 -0.485550 0.739815 
0.822681 -0.715104 0.301567 0.256911 0.460854 -0.762028 
-0.238095 0.886396 0.047800 -0.659161 0.444567 -0.592826 
-0.654919 1.228314 2.306792 -0.738898 0.606802 -0.275223 
0.445658 -0.911838 0.069777 0.370653 0.126614 -0.893208 
-0.825927 0.921432 1.959069 0.546444 -0.803612 0.138604 
-0.397428 -0.877515 0.076775 0.041444 -0.258917 0.933089 
0.095976 -0.626384 0.225074 0.174088 -0.409151 0.888348 
-0.188513 0.535650 0.504751 -0.285802 0.083771 0.952928 
-0.421635 -0.203855 0.230957 -0.220645 -0.249838 0.914141 
-0.025396 1.659307 1.534465 0.745459 -0.278671 -0.391554 
1.248191 0.539419 1.677947 0.586396 0.434833 -0.497943 
0.069315 -0.829651 -0.055471 0.147260 0.096228 -0.951903 
0.382997 1.251948 1.681406 0.694635 0.493182 -0.459214 
0.798875 1.006981 1.688517 0.507839 0.576690 -0.571616 
-1.495865 1.280657 3.174418 0.359041 -0.662328 0.656783 
-1.585774 0.573887 1.565052 -0.122083 0.731463 -0.514617 
-0.283228 1.488227 1.733133 -0.727593 0.661677 -0.137198 
-0.936566 0.428515 0.547599 -0.666088 0.393534 -0.598653 
0.459878 1.273395 1.813454 -0.367968 -0.669067 0.631249 
-1.209509 0.371823 0.870024 0.588248 -0.532751 0.587612 
0.742864 0.122464 0.423171 0.698952 0.262907 -0.597274 
-1.510151 0.697757 2.422875 -0.321361 0.899875 -0.241242 
-0.635307 1.065242 1.864833 0.559104 -0.783728 0.167846 
-0.877320 0.897061 2.186398 0.670419 -0.585193 0.434397 
-0.084678 1.619293 1.555648 -0.615959 0.659469 0.249005 
0.585403 0.448613 0.272331 0.682892 0.347752 -0.538057 
-0.964085 0.962904 2.463875 0.564034 -0.652826 0.494383 
1.376178 0.789926 2.009725 0.545627 0.545397 -0.583134 
-1.299942 0.729018 1.876935 0.171404 -0.794673 0.439430 
0.246411 0.666008 0.459959 0.479571 0.237354 0.800009 
-0.691440 0.971463 1.468831 0.409586 -0.854440 0.291301 
0.688552 1.628330 2.291147 0.303401 0.759677 -0.557594 
-1.294824 1.120236 2.906533 -0.438990 0.659951 -0.599117 
-1.139690 0.807487 1.974254 -0.304930 0.949480 0.009948 
1.189068 1.679340 2.646179 -0.306358 -0.700664 0.643176 
1.199575 -0.069918 0.797377 -0.375774 -0.592455 0.605887 
-0.076366 0.896362 -0.037003 -0.492946 0.402820 -0.748632 
-0.101200 0.588034 0.529375 -0.073126 0.363912 0.925173 
0.142834 0.916794 0.505732 0.251949 -0.194471 0.940645 
-0.055336 -0.469154 0.286572 -0.054671 -0.257385 0.957884 
-0.176206 -0.370991 -0.094668 -0.467259 -0.170934 -0.854575 
0.535406 0.103222 0.173287 0.728691 0.121361 -0.644621 
-0.520849 0.316642 0.393937 -0.036197 -0.372694 0.851202 
0.005006 -0.516432 0.279248 0.169963 -0.261571 0.917166 
0.810197 0.603988 0.801534 0.619688 0.719349 -0.308879 
0.627848 1.523249 2.156612 -0.344923 -0.632130 0.682624 
-0.381402 1.386842 1.904332 0.540420 -0.705209 0.446206 
-1.181954 0.739633 1.804852 0.185726 -0.735407 0.563995 
-0.161269 0.966903 0.502445 -0.307438 -0.144376 0.908748 
1.179609 0.363776 0.967630 -0.568607 -0.614851 0.542659 
-1.501205 0.867590 2.732520 0.372617 -0.754824 0.510882 
-0.646306 1.361874 2.587528 0.765804 -0.418389 0.465556 
0.376677 -0.449924 0.173588 0.243702 -0.285543 0.891343 
0.398570 -1.161820 0.008620 0.331261 0.092046 -0.903984 
0.470871 0.911786 1.232630 -0.277204 -0.791154 0.531614 
0.144509 -0.106393 -0.124038 0.502406 -0.052275 -0.855396 
-0.501436 -0.628153 0.130069 0.122657 -0.264149 0.935787 
0.361729 1.504493 1.930623 0.108467 0.873795 -0.396575 
0.608089 1.103387 1.730129 -0.276132 -0.603222 0.705594 
-0.189687 1.042175 0.385777 -0.324912 0.862136 0.328595 
1.282415 0.742334 1.876705 0.603806 0.620638 -0.455939 
1.309399 0.515273 1.719224 0.580149 0.438047 -0.542898 
1.447496 0.370870 1.741481 -0.660659 -0.603086 0.284775 
0.070431 -0.272878 0.357764 0.053315 -0.341995 0.933044 
-1.375829 0.643004 1.611879 -0.190565 0.750234 -0.539017 
-0.261162 -0.382066 0.276191 -0.391014 -0.323588 0.836433 
0.140824 0.688145 0.484626 0.150227 0.174728 0.953146 
0.983615 1.702998 2.567178 -0.444387 -0.504575 0.734792 
0.193923 -0.610060 -0.013117 -0.037923 -0.131411 -0.981299 
-1.165176 -0.275935 0.738207 -0.551111 0.243869 -0.762357 
-0.698536 0.879983 1.047937 -0.706886 0.672605 -0.135298 
-0.889927 0.547372 0.652798 -0.616267 0.542203 -0.520714 
-0.592296 0.112524 0.322123 0.155258 -0.419843 0.861321 
-0.198043 1.168980 0.341391 -0.756302 0.615988 0.021112 
0.105931 1.378612 1.563430 0.242531 0.567012 -0.756740 
-0.637423 0.864922 1.008702 0.403411 -0.743150 0.524388 
-1.075477 1.247660 2.916038 0.420820 -0.734771 0.522041 
0.245795 0.290715 -0.064297 0.450763 -0.033549 -0.889585 
-1.105651 0.742882 1.736909 0.203582 -0.690642 0.661121 
-0.849287 1.314559 2.862560 0.627233 -0.403136 0.657799 
-1.020970 1.151525 2.770054 -0.527854 0.638977 -0.547703 
1.213658 0.680078 1.803311 -0.545166 -0.583306 0.544586 
-0.640393 -0.181475 0.326048 -0.666107 0.190778 -0.643135 
1.051578 1.481505 2.394609 -0.371578 -0.620285 0.688396 
-0.236061 -0.134168 0.384536 -0.388624 -0.295552 0.858680 
-1.312644 0.379550 0.935296 -0.651118 0.485272 -0.565394 
-0.494439 1.169927 1.685159 0.459214 -0.806085 0.321727 
-0.365698 0.651286 0.043667 -0.600973 0.432312 -0.560135 
-1.349245 1.145310 2.960929 -0.419420 0.663691 -0.610275 
0.519196 -0.273532 0.234823 0.705315 0.111208 -0.630734 
-0.766246 0.935741 1.888507 0.611465 -0.742437 0.226067 
-0.259200 1.028643 0.340344 -0.913751 0.364658 0.147427 
-0.122581 1.255005 0.208660 -0.730711 0.581403 -0.344960 
0.260066 1.204603 1.481238 0.781173 0.580535 -0.204046 
1.194599 0.497449 1.484738 0.541456 0.727086 -0.133940 
1.373785 0.053658 0.945287 -0.384360 -0.671653 0.535200 
-0.617879 0.978345 1.311796 0.392324 -0.824065 0.384021 
-0.324870 0.722278 0.025292 -0.671973 0.535039 -0.433507 
0.396491 0.908120 1.018872 0.173304 0.773971 -0.539646 
0.898877 0.544565 0.843251 0.633406 0.680653 -0.348992 
1.396136 0.209104 1.010495 -0.449108 -0.688741 0.507355 
0.333234 1.117102 1.279540 0.419729 0.820134 -0.354250 
