1.472894 0.922163 -0.071576 0.426015 -0.166576 0.850638 
-1.677060 -0.229413 -0.188312 -0.364739 -0.015851 0.923066 
-0.572157 -0.932191 0.063566 -0.006742 -0.114354 -0.977550 
2.864914 1.255413 -0.256163 0.193911 0.018911 -0.976817 
-1.082694 0.628709 0.106782 -0.588275 -0.220347 0.772123 
1.164158 0.798739 0.061657 0.592957 -0.174614 0.776501 
3.574406 1.308586 0.006741 0.388739 0.110396 -0.895668 
1.381923 0.125861 -0.077145 -0.180508 0.015731 -0.978017 
1.736006 1.046871 -0.155584 0.152339 -0.238306 0.887300 
-1.053300 0.855639 0.121878 -0.216370 0.120649 0.955636 
0.179077 -0.470651 -0.076149 0.404168 -0.371298 -0.814392 
1.669058 1.081862 -0.142461 0.269404 -0.221723 0.878584 
1.037264 0.794599 0.040497 -0.554879 0.160481 -0.808965 
2.411345 1.090944 -0.266440 0.093670 -0.010374 0.994487 
-2.414820 1.348528 -1.043973 0.547900 0.031124 -0.825230 
-2.119714 -0.241048 -0.347993 -0.498464 0.175941 0.845734 
-2.293096 0.180972 -0.645140 -0.510982 0.121576 0.829713 
2.113234 1.110447 -0.219843 0.213219 -0.094330 0.944119 
3.547487 1.213684 -0.009260 0.374472 0.014711 -0.925444 
1.423067 0.052775 -0.079356 0.221103 -0.057455 0.962740 
0.337090 -0.191504 0.027642 0.517838 0.017496 -0.848375 
-2.693215 0.523225 -1.089803 -0.560283 0.181450 0.803477 
0.779798 0.362590 0.099749 0.010728 0.082571 -0.944510 
-1.526163 0.195972 -0.155465 -0.482411 -0.007082 0.855639 
0.332602 -0.048960 0.046555 0.551422 0.029760 -0.828926 
-2.346783 0.577430 -0.839611 -0.703214 0.266017 0.599079 
-0.547077 0.476596 0.410072 -0.134068 0.071807 0.983804 
-0.627255 0.369712 0.322027 -0.260837 -0.198096 0.913409 
1.057646 -0.422848 -0.011729 0.311639 -0.089928 0.940615 
-1.726758 0.640388 -0.245798 0.483673 -0.157516 -0.849819 
2.014735 1.540766 -0.173680 0.124506 0.153583 0.943954 
2.009586 1.141057 -0.213389 -0.050703 -0.103693 -0.969199 
2.320899 0.751425 -0.271527 0.047783 -0.014009 -0.988203 
-2.694988 0.753488 -1.126609 0.540831 -0.240360 -0.791853 
1.492180 1.765380 -0.107245 0.288342 0.200410 0.890658 
0.117189 0.695073 0.491525 0.102218 0.098478 0.983733 
-0.018147 1.304597 0.078877 -0.427893 -0.081578 -0.855907 
1.845252 1.129031 -0.171064 0.354507 -0.149945 0.881344 
1.559883 0.818291 -0.143631 -0.115700 -0.154122 -0.978052 
-0.458162 -0.178878 0.158850 -0.380397 -0.191814 0.886237 
-0.342919 0.186592 0.083578 -0.602833 0.065947 -0.791978 
-2.048190 1.214678 -0.654579 -0.767125 -0.015409 0.608712 
0.939826 0.794033 0.130349 -0.607733 0.223434 -0.742970 
-1.094784 0.745786 0.138220 -0.365302 -0.020711 0.921299 
-2.004110 1.249953 -0.601340 -0.778294 -0.050213 0.583257 
2.778009 1.534999 -0.234419 -0.091164 0.049474 0.986916 
2.741496 1.033031 -0.269395 -0.050914 -0.336944 -0.937568 
-0.361384 -0.032525 0.241892 -0.285919 -0.251568 0.896381 
3.096204 1.020884 -0.171168 -0.184137 0.149555 0.954429 
-0.082158 0.554419 0.495613 -0.102587 -0.292450 0.948494 
0.686037 -0.022353 0.157167 0.328101 -0.206015 0.907681 
-1.875690 0.598762 -0.395277 0.668066 -0.220419 -0.654598 
2.503813 0.059517 -0.119223 0.082269 -0.206735 -0.969084 
0.484129 0.467959 0.422412 0.135571 -0.014490 0.981888 
2.789524 0.958177 -0.254670 -0.245492 -0.103435 0.958433 
1.637667 0.214013 -0.166912 -0.129504 -0.041576 -0.986539 
0.852993 0.033964 0.132913 0.309336 -0.197289 0.920031 
0.843749 0.092031 0.047614 0.048902 0.081079 -0.914616 
2.208426 1.038520 -0.245573 -0.123409 -0.050751 -0.977686 
-0.089824 -0.511137 -0.078504 -0.238863 -0.518391 -0.812881 
0.708831 -0.992775 0.070332 0.179454 0.206916 0.953473 
0.244879 -0.297118 0.251700 0.471631 -0.113489 0.833317 
-1.232599 -0.022943 -0.017467 -0.367392 -0.093303 0.917442 
2.990383 0.425729 -0.140968 0.175479 -0.155159 -0.966557 
-1.965106 1.396364 -0.541446 -0.797885 0.092240 0.555854 
0.113798 -0.502005 -0.080728 0.289595 -0.470391 -0.832660 
-2.080442 1.453849 -0.740201 0.651996 -0.005416 -0.751783 
-1.120565 0.202506 0.051659 -0.432986 -0.154440 0.871109 
2.220419 1.324467 -0.214712 0.196542 -0.010637 0.952036 
-1.245584 0.243912 -0.008513 -0.463887 -0.115067 0.856057 
-0.144136 0.261941 -0.235051 -0.664961 0.046129 -0.722560 
1.596061 1.360925 -0.174685 0.184054 0.038271 -0.980585 
0.045535 0.745000 0.482166 0.077984 0.006768 0.995732 
-0.210170 0.932471 0.063397 -0.656344 0.328151 -0.672339 
-1.158704 0.308655 0.041209 -0.476155 -0.155453 0.844369 
-1.533042 1.169278 -0.116114 0.385084 -0.206225 -0.892910 
2.220778 0.394355 -0.215437 0.221649 -0.093246 -0.969750 
3.354337 1.281317 -0.086460 -0.339467 -0.110909 0.924480 
-0.268493 0.653105 0.479841 -0.356852 0.325524 0.841100 
1.970258 1.223357 -0.205861 -0.023229 -0.181454 -0.958043 
0.904191 -0.561160 0.021494 0.300772 -0.048751 0.945461 
-1.487262 -0.113023 -0.117881 -0.375038 -0.045333 0.915638 
-0.601743 -0.829806 0.086160 -0.280662 0.025489 0.954486 
0.000745 -0.982776 0.228893 0.646830 0.106885 0.744667 
0.139104 -0.161810 -0.187956 0.540992 -0.128050 -0.812736 
-2.063599 0.146439 -0.420940 -0.506427 0.112560 0.848536 
-2.754409 1.438050 -1.239580 0.449494 -0.041030 -0.889630 
0.230557 0.193088 0.342739 0.131030 -0.297862 0.944181 
-1.465358 0.608653 -0.088949 -0.614130 -0.093438 0.763542 
-0.424106 -1.302349 0.179157 -0.479497 0.189420 0.636969 
0.066396 1.132727 0.471236 -0.167934 0.389279 0.875159 
-1.401007 -0.276914 -0.092660 -0.323260 -0.100606 0.938094 
-1.833065 0.422342 -0.291822 -0.591657 0.063664 0.792959 
1.960083 -0.069615 -0.086897 0.135201 -0.248416 -0.927128 
-1.946475 0.736517 -0.556940 0.645001 -0.055672 -0.759937 
-0.351259 0.780013 0.335448 -0.857768 0.402991 0.269325 
3.271734 0.955919 -0.113109 0.329600 0.005423 -0.939541 
-0.827371 -0.372278 0.050921 0.109391 -0.006284 -0.967739 
-0.317946 0.580695 -0.059050 -0.689558 0.234422 -0.675882 
2.533176 1.026384 -0.270227 -0.004332 -0.015443 0.988555 
0.105040 1.134769 0.068026 0.493291 0.251779 -0.822035 
-2.454646 0.489914 -0.906295 -0.669148 0.263066 0.640300 
-0.897427 -0.062209 0.090762 -0.339369 -0.159688 0.919258 
-0.471943 -0.705151 0.099149 -0.352217 -0.011735 0.924857 
-0.839620 0.644904 0.209120 -0.332019 0.081588 0.922154 
-1.600808 1.401140 -0.059304 -0.398167 0.241467 0.861625 
0.973370 0.066213 0.110672 0.303346 -0.185832 0.927385 
-0.884961 0.587766 0.186567 -0.275604 0.178867 0.927417 
-0.337640 0.175700 0.309721 -0.147872 -0.319868 0.935694 
1.630399 0.989015 -0.139575 0.341555 -0.163677 0.888118 
2.733310 0.223057 -0.164381 -0.076593 0.183190 0.978899 
1.406125 0.866933 -0.086067 -0.131802 -0.154943 -0.976231 
-3.001175 1.339134 -1.338450 0.391524 -0.031102 -0.918618 
1.104152 0.826109 0.025461 -0.277284 -0.055660 -0.935136 
0.489369 0.453260 0.141850 0.493600 0.242724 -0.756166 
-1.984386 -0.302446 -0.295737 0.419338 -0.123459 -0.887257 
-1.663156 -0.151647 -0.198207 0.356185 -0.022989 -0.921799 
0.793399 -0.444159 0.060362 -0.103172 -0.033709 -0.973992 
0.261964 1.019943 0.236550 0.898182 0.368333 -0.123674 
0.345808 0.022810 0.061046 0.551979 0.050505 -0.826464 
0.096643 -0.947617 0.204828 0.200771 0.082002 0.964301 
0.012007 0.986251 0.007745 0.291511 0.337184 -0.887509 
0.138750 0.468837 0.466164 0.124209 -0.309372 0.941051 
3.103629 1.120111 -0.178558 0.276815 0.008862 -0.955708 
0.371781 0.674176 0.398612 0.610704 0.207385 0.696523 
-0.890534 0.478025 0.141942 0.477306 0.494372 -0.719604 
1.967926 0.838154 -0.185970 0.273846 0.043206 0.936137 
-3.028427 0.968365 -1.322373 -0.438710 0.094447 0.890383 
2.634283 1.008257 -0.265458 -0.103740 -0.054884 0.976124 
-0.131151 0.786376 0.482292 -0.190082 -0.012869 0.975504 
-0.169836 1.210013 0.232145 -0.713909 0.635439 -0.211683 
1.246503 0.721877 0.026935 0.528440 -0.138525 0.805933 
0.692187 0.384268 0.291113 0.329022 -0.177129 0.896606 
-0.109321 -0.420811 -0.144409 -0.440953 -0.326641 -0.821184 
-0.240863 -1.039550 0.158071 -0.100178 0.095437 0.975897 
-1.966570 1.606759 -0.578710 -0.606518 0.390224 0.629195 
-2.257742 1.359222 -0.922716 0.639726 0.069806 -0.757427 
-2.952751 1.246968 -1.309828 0.396274 -0.011745 -0.915313 
-2.958484 1.532664 -1.313501 -0.394762 -0.089699 0.906324 
-1.126307 0.681965 0.089273 -0.606714 -0.219146 0.757316 
2.861677 0.393237 -0.173506 -0.129881 0.138608 0.975353 
-1.961761 -0.175762 -0.304141 0.446439 -0.124049 -0.873762 
-1.169262 0.964198 0.072816 -0.069835 0.223959 0.931194 
3.167926 1.070045 -0.154680 0.301725 0.015195 -0.947977 
0.543888 -0.422184 0.031295 0.205244 -0.026033 -0.919100 
-0.341832 0.662119 0.001352 -0.723817 0.354955 -0.551439 
-2.504616 0.890316 -1.045995 0.592811 -0.321080 -0.729430 
-0.176126 1.246004 0.397086 -0.888779 -0.432721 -0.090579 
-0.244717 1.215571 0.570740 0.604692 0.065842 0.788273 
-1.528853 0.073323 -0.170365 0.391426 -0.028163 -0.898210 
-2.087395 1.649214 -0.731851 -0.629421 0.335855 0.665890 
-0.343830 -1.063186 0.106799 0.050473 -0.189917 -0.969696 
-0.074382 -0.278520 -0.190772 -0.453364 -0.250944 -0.827452 
-2.135837 0.639322 -0.653582 -0.805201 0.313806 0.448568 
-0.248479 -0.390984 -0.090660 -0.586682 -0.208451 -0.780053 
2.439995 0.621903 -0.243875 0.093223 0.137485 0.962054 
-1.902463 0.085317 -0.317256 0.497289 -0.119064 -0.848931 
1.628786 0.892624 -0.172875 -0.103900 -0.169556 -0.976631 
1.672997 1.363385 -0.158774 0.103098 -0.255190 -0.943676 
1.046754 1.001542 0.100596 0.293947 0.091681 0.906844 
1.878564 -0.086736 -0.083354 -0.207151 0.164521 0.944203 
0.158251 0.503307 -0.163126 0.604434 0.215874 -0.738308 
2.028387 0.685889 -0.256471 0.055669 0.012240 -0.993730 
-0.548015 0.654528 0.335672 -0.132972 0.607967 -0.679903 
0.078183 0.382218 -0.246364 0.587847 0.172233 -0.761947 
-1.950366 1.282738 -0.535902 -0.792311 -0.087878 0.552731 
-1.146243 -0.335767 -0.046704 0.221989 0.090117 -0.962469 
-0.386114 -1.358268 0.150903 0.253821 -0.222234 -0.911841 
-1.256552 1.031690 -0.024185 0.541612 0.191356 -0.780689 
-0.986946 0.296748 0.078351 0.179875 0.034346 -0.980713 
3.238124 1.045236 -0.128789 -0.259945 0.062764 0.952213 
0.322956 0.090761 0.031685 0.602202 0.006798 -0.783518 
1.667364 0.134658 -0.171780 0.138091 0.004944 0.984451 
1.465834 1.072352 -0.069663 0.457696 -0.214072 0.835481 
-0.257144 0.931208 0.140590 -0.782619 0.311177 -0.452690 
2.341333 1.129365 -0.254579 0.125808 -0.042832 0.979158 
-1.425743 1.247728 -0.077039 0.581654 0.268305 -0.663731 
0.529340 0.214642 0.083645 0.384328 0.078302 -0.848437 
0.718571 -0.667953 0.072516 0.290255 -0.003133 0.950585 
-1.576709 -0.439630 -0.180151 -0.310373 -0.095152 0.941481 
0.017999 0.032956 -0.280026 0.486707 -0.078074 -0.838087 
-0.080012 0.326158 -0.265521 -0.603578 0.110782 -0.765200 
-2.050425 -0.163406 -0.332604 -0.494720 0.146446 0.849241 
0.639555 0.468793 0.355232 0.232367 0.044666 0.949212 
0.610886 -0.598167 0.089476 0.330745 -0.020731 0.934012 
-0.082547 -1.166890 0.246515 0.008784 -0.530422 -0.829612 
-1.280568 0.605672 -0.041205 0.288425 -0.088808 -0.938012 
-0.061383 -0.372315 -0.176831 -0.413929 -0.324619 -0.832491 
-0.732296 0.173602 0.223418 -0.252430 -0.278375 0.914291 
0.626589 0.539876 0.211693 0.056059 0.504302 -0.687972 
-0.784402 -0.784160 0.011247 0.068766 -0.041051 -0.971272 
-1.106550 0.079117 0.048364 -0.386676 -0.142315 0.900920 
-2.027998 1.469027 -0.678233 0.642895 -0.019418 -0.759594 
2.109483 0.605703 -0.205568 0.372995 0.197342 0.891865 
-0.537071 -0.863141 0.087120 -0.007537 -0.123513 -0.979494 
-0.448636 0.384984 0.377068 -0.146125 -0.240591 0.949538 
0.087036 -0.836715 0.218351 0.229736 -0.003713 0.955394 
1.766845 -0.304804 -0.104795 -0.133319 0.092016 0.958879 
-1.614033 1.301635 -0.101265 -0.694711 -0.276710 0.657851 
-3.043290 0.854801 -1.319852 -0.447753 0.100884 0.887992 
1.963191 -0.236204 -0.040876 -0.262332 0.207966 0.935251 
0.857092 -0.616479 0.029387 0.296878 -0.035221 0.947105 
-0.314147 -0.248059 0.014610 -0.541955 -0.004069 -0.835755 
1.815624 1.053679 -0.206459 0.197412 0.098114 -0.972534 
-1.717722 1.112022 -0.219796 -0.643109 -0.221694 0.714308 
-1.712722 1.067556 -0.274402 0.569502 -0.258545 -0.712241 
-1.578104 0.152214 -0.199044 0.428204 -0.048992 -0.879484 
-1.136467 -0.158700 -0.014986 0.241490 0.092558 -0.964540 
2.650826 0.886378 -0.260782 -0.139390 -0.034746 0.972713 
-0.153800 0.084489 -0.208966 -0.627271 -0.019983 -0.753418 
-1.051021 -0.353840 -0.015528 0.194154 0.058760 -0.965753 
-2.618188 1.388207 -1.171251 0.490759 -0.049309 -0.866320 
-1.819478 -0.176271 -0.252792 -0.405108 0.027180 0.901991 
-0.789590 0.156324 0.070128 -0.070220 0.067365 -0.912361 
-2.131530 0.331125 -0.569454 0.724386 -0.352362 -0.567376 
-0.990628 0.470881 0.084916 0.171552 -0.001413 -0.982403 
-1.149854 0.538277 0.065132 -0.557876 -0.190631 0.790358 
0.113636 -0.631174 -0.018632 0.064732 -0.384173 -0.915361 
-1.035442 -0.810982 -0.049399 -0.227245 0.024106 0.944022 
-2.328167 1.016685 -0.928722 -0.605986 0.038886 0.773845 
-0.835166 -0.474300 0.063475 -0.306697 -0.047807 0.944138 
-0.093584 -0.190799 -0.200774 -0.496971 -0.176981 -0.820880 
0.173084 0.379190 -0.184749 0.672988 0.148895 -0.687830 
-0.092051 -0.815016 0.063296 -0.029995 -0.428285 -0.890341 
-0.094599 1.293916 0.206921 -0.654966 0.688795 0.125386 
-2.672863 1.045207 -1.155002 -0.466249 -0.038574 0.877427 
-2.774344 0.906099 -1.190751 0.514954 -0.233706 -0.804153 
-2.027273 0.700662 -0.531437 -0.716217 0.119986 0.624393 
-0.530874 -0.395725 0.081032 -0.429352 -0.097534 0.892110 
0.597579 0.370133 0.332147 0.250593 -0.201144 0.917059 
-0.139550 -0.631649 -0.013583 -0.131167 -0.335750 -0.926177 
-0.330636 -0.479649 0.145300 -0.503749 -0.113254 0.854926 
3.410188 0.892245 -0.062678 0.332066 -0.051144 -0.941106 
0.055187 1.076368 0.038901 0.374310 0.281115 -0.871953 
-2.766544 0.750646 -1.160922 -0.507358 0.098993 0.844196 
-0.300187 0.864208 0.175627 -0.858195 0.346969 -0.314907 
-1.895147 0.387734 -0.336270 -0.581562 0.084448 0.803919 
-2.604313 1.466594 -1.171499 -0.503723 -0.014839 0.854124 
1.252267 0.587104 -0.022354 -0.166197 -0.091392 -0.978737 
-2.463048 0.056384 -0.751475 -0.678616 0.292623 0.638616 
0.557707 0.497102 0.394132 0.122019 0.116989 0.975115 
0.938212 0.415617 0.167777 0.516231 -0.145607 0.843005 
1.237732 0.991559 0.050246 0.430706 -0.021836 0.882968 
-2.325726 -0.197700 -0.533741 0.564434 -0.245462 -0.781707 
-2.500305 1.329219 -1.110674 0.490363 0.014742 -0.865466 
-1.478201 -0.316877 -0.130647 0.277893 0.051731 -0.956235 
0.219209 -0.101560 0.274565 0.343670 -0.193975 0.872497 
-0.290500 0.179795 -0.096507 -0.740785 0.001446 -0.652684 
0.075996 0.508613 -0.209577 0.550546 0.273629 -0.772115 
2.819804 1.389622 -0.256680 0.149228 0.028639 -0.982656 
0.939047 0.237817 0.138956 0.407001 -0.185499 0.883296 
1.134422 0.259031 0.047221 0.420285 -0.141469 0.880353 
-0.241611 1.040105 0.364518 -0.838901 0.387363 0.266613 
-1.780976 0.584541 -0.275060 0.509053 -0.156952 -0.838548 
-2.441246 1.678251 -1.077223 0.539353 0.200421 -0.800613 
-1.238078 -0.317171 -0.062637 -0.311340 -0.160589 0.935241 
2.529228 0.141299 -0.142259 0.102251 -0.190525 -0.970644 
-0.242728 0.344813 -0.153085 -0.747344 0.086250 -0.634848 
0.045454 0.216029 -0.299688 0.563761 0.046168 -0.814964 
-0.363931 -0.087239 0.043240 -0.521960 0.034692 -0.830750 
0.389349 0.597420 0.386121 0.428178 0.113434 0.815059 
-1.044257 -0.597152 -0.051888 0.161932 0.048876 -0.963642 
-2.703143 1.688420 -1.218894 0.400579 0.371716 -0.814972 
-1.485175 0.720831 -0.128265 0.374628 -0.136154 -0.898600 
-0.406915 0.575791 0.357539 -0.349166 0.171658 0.831148 
0.043160 -0.298784 -0.200153 0.412817 -0.289278 -0.837914 
-1.870988 1.431834 -0.479483 0.596619 0.012775 -0.795053 
-2.271621 1.265233 -0.927002 0.628393 0.062904 -0.763517 
-0.407937 0.621440 0.166149 -0.777010 0.387614 -0.436942 
-0.361797 -1.115129 0.162339 0.030071 0.058210 0.983084 
0.482159 -0.191964 0.145209 0.390272 -0.176848 0.888624 
-0.054051 -0.447849 0.289331 -0.096643 -0.210369 0.970856 
1.699728 1.143226 -0.187570 -0.169645 -0.191300 -0.948043 
2.223281 0.033125 -0.106396 -0.192694 0.136907 0.949688 
-0.584208 0.086119 0.232019 -0.268481 -0.275962 0.906288 
-3.062689 1.181762 -1.355413 -0.401619 0.045886 0.913687 
-1.301817 0.327308 -0.064750 0.313265 -0.035923 -0.929740 
-2.541277 0.308821 -0.920286 0.570654 -0.216677 -0.787978 
1.567891 0.725758 -0.143402 -0.119155 -0.139284 -0.980242 
-0.707288 -0.287082 0.069630 -0.400722 -0.107579 0.904679 
2.578612 0.710741 -0.249214 -0.052501 0.058196 0.984721 
0.136819 0.867262 0.494476 0.269483 -0.077835 0.958870 
-0.562164 -0.105158 0.161187 -0.350744 -0.202798 0.896161 
-2.029131 1.318136 -0.621341 -0.755902 0.035642 0.642403 
0.330115 0.735423 0.420501 0.630807 0.381987 0.614736 
0.998150 0.401160 0.070289 -0.173114 -0.001082 -0.981538 
1.920979 1.456122 -0.152752 0.299015 -0.045281 0.916060 
-1.639983 -0.354507 -0.171843 -0.324340 -0.046164 0.942811 
-1.199810 0.853233 0.075999 -0.560429 -0.161303 0.791152 
1.698471 0.869871 -0.190971 -0.137024 -0.170063 -0.968620 
1.449821 1.357127 -0.136657 -0.547739 0.175752 -0.767984 
-1.785157 0.257616 -0.277931 -0.538593 0.071370 0.828747 
-2.838969 1.574872 -1.268910 -0.412996 -0.131520 0.892990 
-0.730023 -0.435050 0.051980 0.025253 -0.022168 -0.957313 
-1.636774 1.160869 -0.118911 -0.682205 -0.220963 0.675764 
3.151294 0.786719 -0.139071 0.299467 -0.001122 -0.946184 
-0.518039 0.497558 0.153995 -0.497547 0.270223 -0.736366 
2.295789 -0.004452 -0.095973 -0.139470 0.156105 0.955563 
-0.164021 -0.936965 0.106545 0.126331 -0.419231 -0.890219 
-0.282421 0.258125 -0.137306 -0.785399 0.021982 -0.610716 
-0.737374 -0.133602 0.104005 -0.366812 -0.159746 0.905907 
-0.595768 0.369773 0.113657 -0.295955 0.161110 -0.848542 
2.766540 0.623548 -0.225559 0.045010 -0.247808 -0.960619 
2.258450 0.879062 -0.257215 -0.071360 0.008550 -0.990689 
-1.646071 0.072808 -0.202152 -0.458411 0.015385 0.871410 
-1.908342 0.302113 -0.333203 -0.574007 0.109597 0.810138 
-0.908662 -0.895736 -0.000034 0.166359 -0.171647 -0.941333 
0.389584 -1.424960 0.183001 -0.441385 -0.807088 0.189556 
0.669271 0.339709 0.097964 0.153528 0.099738 -0.908745 
0.072555 0.398680 0.443338 0.052308 -0.344928 0.934888 
2.671509 0.141483 -0.141613 0.081145 -0.207802 -0.972749 
-0.956635 -0.376696 0.014588 0.165945 0.027522 -0.968962 
-2.420027 0.601727 -0.925040 0.596905 -0.178110 -0.777850 
2.644222 0.240364 -0.167248 0.007518 0.204536 0.954661 
0.404628 -0.487979 0.028412 0.333708 -0.043150 -0.900782 
0.172335 -0.591075 -0.018119 0.176839 -0.371380 -0.896555 
2.724555 1.123828 -0.271135 0.210217 0.157452 -0.955922 
0.658374 -0.332966 0.027662 0.119286 -0.002331 -0.928616 
-2.170109 0.942497 -0.789571 0.700439 -0.140508 -0.691446 
0.214080 1.097538 0.511665 0.251990 -0.495579 0.784081 
-2.668586 1.158646 -1.164466 -0.521625 0.238048 0.803526 
-1.370651 0.867482 -0.064266 0.320329 -0.141413 -0.922654 
0.736101 0.695861 0.236053 -0.363436 0.247212 -0.819407 
-1.254861 0.822379 0.038013 -0.640155 -0.217010 0.729698 
0.739676 -0.103057 0.021350 0.124450 0.050975 -0.912707 
2.156712 0.009776 -0.101234 -0.224197 0.139311 0.945245 
-1.195233 -0.529616 -0.086511 -0.293569 -0.142708 0.940032 
-2.597492 1.694713 -1.189228 0.435041 0.298881 -0.843853 
1.839192 0.496730 -0.205265 0.032194 -0.029457 0.972075 
2.600848 0.940508 -0.265496 -0.087540 -0.027606 0.978850 
0.148841 -0.239984 0.295710 0.219684 -0.057064 0.964149 
-0.199880 -0.357976 0.268339 -0.381131 -0.050328 0.893913 
3.356753 1.111962 -0.091248 -0.331815 -0.041090 0.934490 
-1.824446 1.081305 -0.349591 -0.853823 -0.013332 0.444048 
-1.552470 -0.510033 -0.193804 -0.300129 -0.126284 0.940942 
2.936731 1.233856 -0.239557 -0.176375 0.014910 0.979390 
-0.965612 -0.846155 -0.026952 0.165681 -0.104228 -0.946649 
2.480356 1.106112 -0.284854 -0.144075 -0.243362 -0.954975 
-0.274818 -0.340810 0.237118 -0.566537 -0.119217 0.787768 
-1.648949 0.288336 -0.231863 0.463363 -0.086345 -0.861205 
0.516086 -0.125661 0.162899 0.365102 -0.196740 0.893296 
-1.263469 0.966375 0.075181 -0.364268 0.004955 0.925192 
-0.257799 0.515000 0.451710 -0.142604 -0.227549 0.961455 
0.267356 0.234429 -0.146018 0.757329 0.018696 -0.638276 
2.050128 0.077839 -0.119822 -0.306283 0.106650 0.936399 
-2.062733 1.088553 -0.666256 -0.767905 0.049465 0.622832 
-0.232198 0.267914 0.375734 -0.128885 -0.326801 0.935609 
-0.207095 -0.108076 -0.150530 -0.623960 -0.098773 -0.752023 
1.088072 -0.189152 -0.003124 -0.211736 0.064826 -0.967276 
2.868517 1.149549 -0.257610 0.255856 0.075409 -0.958288 
1.802747 0.374444 -0.206511 0.113093 0.046337 0.987651 
2.355798 1.411044 -0.263425 0.022804 0.045401 -0.996691 
0.142141 0.116410 -0.221148 0.619315 -0.006569 -0.761110 
-1.203036 0.558389 -0.006581 0.258076 -0.066191 -0.952493 
0.012283 1.242441 0.369435 0.014416 0.798099 0.585880 
-0.603472 0.547881 0.239348 -0.128392 0.544331 -0.672377 
-0.986610 -0.644113 -0.038754 0.140579 0.028753 -0.965281 
-1.972674 0.021016 -0.325550 -0.518142 0.120857 0.838471 
1.259635 1.099889 -0.059172 -0.539410 0.139739 -0.817298 
0.383468 0.688565 0.190328 0.751906 0.602787 -0.179723 
2.504500 0.226218 -0.166429 0.130602 -0.167471 -0.971508 
-2.550704 1.528746 -1.151219 -0.505994 -0.059301 0.849010 
-0.881084 0.076994 0.149070 -0.285243 -0.216636 0.922743 
1.772400 1.355307 -0.173276 0.055435 -0.266597 -0.945026 
-0.321843 -0.709748 0.014622 -0.291136 -0.206131 -0.887705 
0.735833 -0.266850 0.024220 0.064347 0.015283 -0.934146 
0.231892 1.094511 0.225831 0.879127 0.407260 -0.165094 
3.013495 0.642766 -0.161084 0.142271 -0.202284 -0.953477 
1.214680 1.049354 -0.010533 -0.678290 0.307609 -0.542768 
-2.618492 1.625300 -1.197867 0.463324 -0.024086 -0.885283 
1.313837 -0.426924 -0.117073 -0.261682 0.107106 -0.954372 
-3.011515 1.101108 -1.324579 -0.426995 0.082540 0.894340 
-2.016790 0.814761 -0.605995 0.563571 0.053565 -0.809898 
-0.165746 0.812979 -0.014118 -0.523128 0.449650 -0.710892 
-0.702345 0.126090 0.063667 -0.191279 0.073112 -0.878189 
0.576260 0.555859 0.343679 0.016014 0.221053 0.951444 
1.089678 0.164556 0.027395 -0.213893 0.040439 -0.972243 
-0.724381 0.247648 0.235414 -0.294714 -0.284947 0.895842 
2.294887 0.946156 -0.260562 -0.111557 -0.039273 -0.984911 
-0.778830 0.118309 0.194043 -0.258738 -0.253864 0.920028 
0.054160 0.612541 -0.166801 0.434104 0.384450 -0.787367 
1.634943 -0.251688 -0.191019 0.087127 -0.047333 0.993288 
2.355698 1.372230 -0.196109 0.088007 -0.032079 0.945355 
-0.419393 -0.988162 0.109284 -0.054768 -0.165513 -0.982558 
2.426600 1.450362 -0.266937 0.022443 0.061539 -0.996198 
0.275977 -0.843714 0.060554 0.056930 -0.257491 -0.957013 
-0.660315 0.042421 0.051228 -0.230669 0.065947 -0.873065 
-0.378737 0.396674 0.384726 -0.127362 -0.208328 0.967786 
0.273267 -0.107862 -0.089896 0.650661 -0.105581 -0.726608 
-0.384110 0.707482 0.324068 -0.867280 0.388290 0.188449 
-1.892104 -0.176189 -0.280965 0.418831 -0.089917 -0.890200 
-0.144906 1.165605 0.495704 0.364820 0.282623 0.841946 
0.594781 0.352207 0.103653 0.262668 0.138401 -0.870390 
1.696621 0.491496 -0.184655 -0.114905 -0.106782 -0.986271 
1.547939 0.959433 -0.104015 0.386759 -0.166870 0.868019 
-0.967179 0.560431 0.164941 -0.285249 0.183667 0.925266 
-0.675979 0.294201 0.261365 -0.293705 -0.305752 0.889142 
0.034473 1.293219 0.285489 0.198621 0.861242 0.455725 
2.196189 -0.254013 -0.033597 -0.122195 0.234014 0.952438 
0.980211 -0.453311 0.012078 0.307863 -0.071874 0.942581 
-2.986573 0.916683 -1.298266 -0.457662 0.122273 0.875487 
0.120956 -0.311649 0.295294 0.212859 -0.006785 0.974458 
2.538138 1.360400 -0.291451 0.001444 0.065951 -0.995554 
-0.742917 -0.358439 0.041068 -0.000787 -0.001881 -0.947180 
1.669917 0.063989 -0.178748 0.125417 -0.002784 0.986911 
-1.597872 -0.143480 -0.173093 0.342154 -0.011255 -0.927497 
2.268495 1.111023 -0.253355 -0.123528 -0.147031 -0.964438 
0.019760 1.216423 0.073488 0.496009 0.114588 -0.844741 
-0.420918 -0.446593 0.025729 -0.344139 -0.022612 -0.892551 
0.233864 0.929581 0.093584 0.711013 0.320783 -0.588228 
2.938178 0.718847 -0.188511 -0.224750 0.007786 0.961921 
0.069366 -0.694789 0.018912 0.122505 -0.414895 -0.887986 
-1.956005 0.497367 -0.461952 0.707373 -0.251450 -0.611374 
2.585942 0.188684 -0.152333 0.036127 0.217407 0.947807 
1.061081 0.737140 0.136496 0.363845 0.020155 0.924501 
-0.304927 0.793668 0.393491 -0.676368 0.366168 0.551463 
-1.527841 0.279781 -0.174629 0.412253 -0.064261 -0.884788 
1.641323 -0.323088 -0.189098 -0.037764 0.023643 -0.994784 
-0.302507 0.654034 -0.070397 -0.652320 0.318837 -0.682552 
0.000270 -0.150759 0.310136 0.089424 -0.060594 0.987677 
-1.584535 0.320176 -0.199667 0.434115 -0.081979 -0.874286 
-0.674556 -0.067353 0.034846 -0.191989 0.053729 -0.889760 
-0.088519 0.419573 -0.226095 -0.591483 0.205277 -0.746752 
-0.227019 0.276074 -0.178251 -0.741420 0.037627 -0.651941 
0.335860 0.571362 0.444867 0.352428 -0.118655 0.887092 
2.361714 -0.171595 -0.052634 -0.051172 0.219602 0.963087 
2.054853 0.298860 -0.178378 -0.268353 0.041108 0.945066 
-1.245082 0.712633 -0.018183 0.268372 -0.102428 -0.946325 
-0.179604 0.664216 0.489973 -0.203450 0.246750 0.926131 
0.208501 1.065101 0.382551 0.333976 0.842533 0.072923 
-2.076478 0.841663 -0.640859 -0.778291 0.183158 0.586723 
-0.624203 0.137759 0.066599 -0.288000 0.074529 -0.854976 
2.844882 0.647746 -0.206836 -0.188103 0.028647 0.966921 
1.698429 0.803945 -0.163804 0.249946 -0.104962 0.920158 
0.215450 -0.474451 0.255351 0.379945 -0.121127 0.912021 
-0.184765 0.541618 -0.131496 -0.589108 0.228593 -0.730911 
-2.007598 1.390955 -0.640686 0.620018 0.050453 -0.774905 
-0.344935 0.325163 0.071608 -0.643913 0.109250 -0.749362 
0.136867 -0.765711 0.209310 0.166045 -0.092626 0.969225 
-0.869264 0.357630 0.108463 0.098007 0.093791 -0.974642 
-1.507947 1.691625 -0.032845 0.796904 0.097694 -0.298857 
0.885033 -0.752200 -0.016326 -0.110097 -0.033662 -0.965761 
0.003107 0.312929 0.407195 -0.012581 -0.359320 0.931549 
-1.569678 1.332946 -0.055745 -0.555552 -0.140184 0.775450 
-0.316993 -0.788937 0.056412 0.012339 -0.282341 -0.950034 
1.868744 -0.275082 -0.039367 0.283467 -0.215367 -0.930244 
-1.821791 0.057945 -0.285488 0.460935 -0.083812 -0.869034 
-2.032548 1.587620 -0.685379 0.690751 0.028412 -0.721974 
0.903695 0.424446 0.096565 -0.148939 0.084812 -0.981794 
0.165741 0.944952 0.045220 0.591196 0.332910 -0.716228 
1.137526 0.865909 0.103571 0.355245 0.026514 0.929724 
1.666510 1.283788 -0.120647 0.519020 -0.073627 0.831522 
2.287805 0.432386 -0.221821 0.183904 -0.097702 -0.973675 
0.210468 -1.158380 0.202157 -0.299315 -0.390498 -0.855023 
-2.702400 0.860982 -1.147077 0.536722 -0.256710 -0.785397 
-0.216620 1.027144 0.442719 -0.681364 -0.038595 0.699869 
-2.214381 0.375956 -0.629913 -0.776831 0.334621 0.497452 
0.039789 -0.436930 -0.163489 0.343917 -0.404620 -0.842885 
2.634564 0.080743 -0.124593 0.068991 -0.217641 -0.971323 
0.019485 -0.385070 0.306706 0.115826 -0.028427 0.985329 
-2.334282 1.249622 -0.966612 -0.669183 0.200719 0.701582 
-2.192263 1.014869 -0.806941 -0.711377 0.102828 0.691133 
0.138875 0.809439 -0.026800 0.499662 0.435806 -0.733497 
-2.154464 0.533021 -0.671044 0.507716 -0.106048 -0.849271 
-1.651938 -0.458953 -0.203664 -0.311374 -0.076343 0.942970 
-1.742328 1.330893 -0.304893 0.509403 -0.294786 -0.780766 
0.338135 0.449470 0.011193 0.686454 0.162661 -0.696428 
-0.936754 0.654042 0.137641 0.558114 0.354211 -0.724951 
1.546512 1.042371 -0.104017 0.402739 -0.192728 0.860330 
-1.883077 0.021241 -0.295134 -0.484857 0.074989 0.858147 
-2.375200 1.075804 -0.974197 -0.566977 -0.013638 0.803568 
-0.345983 -0.278917 0.187953 -0.488732 -0.162398 0.828698 
2.435732 0.105061 -0.132455 0.105626 -0.187697 -0.968737 
0.984417 0.338563 0.124508 0.483493 -0.166312 0.854915 
1.297413 0.331612 -0.012512 0.365171 -0.095321 0.896770 
-1.380141 0.573947 -0.090132 0.332645 -0.099104 -0.918050 
2.988555 0.956934 -0.200056 -0.131594 0.200502 0.959732 
-2.023871 0.894806 -0.589810 -0.803637 0.155367 0.562577 
-2.885653 0.943766 -1.250851 -0.454150 0.038242 0.884652 
0.101517 0.289368 -0.264552 0.627339 0.070479 -0.756189 
0.634339 0.144520 0.240668 0.262158 -0.281505 0.911122 
1.981733 0.774525 -0.256246 0.050017 0.043396 -0.994061 
-2.612913 0.805900 -1.092914 0.563778 -0.285512 -0.761985 
0.235092 0.068534 -0.150797 0.685532 -0.039129 -0.699044 
3.304859 1.034295 -0.106926 -0.288378 0.043583 0.949078 
-2.151007 0.393922 -0.597148 -0.427291 0.029250 0.900640 
2.256266 0.594383 -0.247608 0.129426 -0.047137 -0.979762 
0.427563 -0.694913 0.100029 0.367441 -0.016207 0.918465 
-0.816725 -0.620050 0.025843 0.097955 -0.025410 -0.971688 
1.490655 1.350970 -0.062257 0.403523 -0.038015 0.894097 
0.334279 0.817555 0.265057 0.886405 0.376926 0.004547 
-1.464096 1.212346 -0.002803 -0.399594 0.005791 0.907559 
1.280093 -0.198627 -0.052870 0.287692 -0.127308 0.943939 
2.436320 1.365760 -0.206179 0.051673 -0.027551 0.952523 
2.447213 1.555902 -0.242562 0.032977 0.131894 0.970140 
1.524216 1.348115 -0.148875 -0.094702 -0.239553 -0.965560 
1.862111 0.583128 -0.225630 -0.223232 -0.132834 -0.955834 
1.740390 0.089433 -0.198681 0.094501 0.020764 0.990876 
-1.912784 0.748511 -0.495228 0.823440 -0.305707 -0.447854 
-2.344353 0.209015 -0.713144 0.548145 -0.189574 -0.803622 
0.279747 0.979931 0.323442 0.919032 0.333260 0.158280 
0.781858 -0.644165 0.035656 -0.087226 -0.053033 -0.971648 
2.776450 0.292231 -0.183661 -0.084806 0.174200 0.979554 
2.134464 1.029645 -0.234483 -0.106291 -0.019431 -0.981714 
-0.865960 0.263676 0.177266 -0.394918 -0.231348 0.875687 
-1.248887 0.067331 -0.025125 -0.400596 -0.089280 0.897739 
0.837624 0.149845 0.178510 0.285395 -0.236562 0.917549 
1.135020 0.526197 0.061138 0.516558 -0.157014 0.823570 
-1.329944 -0.471108 -0.133978 0.254418 0.145227 -0.954482 
-0.005009 -0.090746 -0.259787 -0.441248 -0.171951 -0.842557 
-1.352879 0.623446 -0.031068 -0.614526 -0.129188 0.761669 
-0.294951 0.363395 -0.101215 -0.750871 0.058954 -0.652122 
0.005383 0.480904 -0.258751 0.503118 0.290591 -0.805762 
1.297717 -0.349499 -0.089316 0.322428 -0.144441 0.934777 
1.680126 1.455754 -0.177808 0.012291 -0.006059 -0.996073 
0.461736 0.014726 0.236023 0.308600 -0.262167 0.895852 
-2.416823 0.392894 -0.836601 -0.705299 0.308835 0.565663 
0.384376 0.322460 0.114898 0.585478 0.147728 -0.774831 
1.254680 0.025003 -0.013245 0.283053 -0.097107 0.946880 
0.921954 0.320275 0.092213 -0.136870 0.034686 -0.978997 
-2.059324 0.741165 -0.592779 -0.812842 0.251706 0.500956 
1.807495 -0.239750 -0.089399 0.175207 -0.147292 -0.950540 
-2.508313 0.259214 -0.868907 -0.652503 0.265938 0.672964 
2.576813 1.080803 -0.279160 -0.110353 -0.278617 -0.948367 
-2.456536 1.608294 -1.076057 -0.555179 -0.061824 0.806179 
-2.474974 0.588357 -0.967269 0.602383 -0.189620 -0.772627 
-0.637957 0.455037 0.135594 -0.283137 0.229188 -0.822989 
-2.526063 0.385119 -0.936658 0.556796 -0.201540 -0.802179 
1.780096 1.173476 -0.182677 0.141767 -0.127240 -0.949563 
-0.786231 0.303956 0.215765 -0.369994 -0.263884 0.874158 
-0.525282 -1.123576 0.122072 -0.382550 0.304911 0.826352 
-0.568716 0.082117 0.060288 -0.337667 0.065721 -0.849905 
-1.796107 1.262116 -0.365475 0.559105 -0.239609 -0.755759 
-2.754289 1.612492 -1.237019 -0.425501 -0.163845 0.883500 
-0.212611 -0.071498 0.280798 -0.311987 -0.200873 0.885824 
0.254938 0.524521 -0.108855 0.664167 0.184651 -0.698043 
1.455528 0.247333 -0.100283 -0.163449 -0.023597 -0.980700 
2.274008 0.683552 -0.238405 0.198458 0.137744 0.945449 
-0.630451 -0.746711 0.072279 0.032094 -0.089640 -0.977229 
-0.323691 -0.371669 0.194556 -0.608365 -0.129820 0.774484 
0.952764 -0.759867 -0.041031 -0.129730 -0.016023 -0.962965 
-1.586817 -0.059905 -0.178246 0.365089 -0.020842 -0.914520 
-0.280087 0.222072 0.343964 -0.137678 -0.322113 0.936098 
0.575621 -0.847081 0.077192 -0.010927 -0.124354 -0.976341 
-1.110376 0.363465 0.028119 0.229656 -0.011090 -0.967753 
1.166040 0.149421 0.029083 0.364884 -0.125235 0.909880 
2.405874 0.169752 -0.150922 0.128863 -0.168793 -0.969233 
0.812256 -0.771594 0.006106 -0.086985 -0.054766 -0.968299 
0.505433 -0.699525 0.098503 0.337301 -0.004219 0.931143 
-0.477285 -0.457220 0.085988 -0.429005 -0.085883 0.892146 
-1.678941 0.446507 -0.212091 -0.592313 0.013186 0.789894 
0.250402 0.286273 0.379443 0.129262 -0.327562 0.935077 
-0.320159 0.326765 0.004904 -0.668841 0.073126 -0.734365 
-1.818462 1.432118 -0.415030 0.584068 0.012131 -0.805056 
0.519920 -0.509301 0.043752 0.184950 -0.049758 -0.927909 
0.430608 0.079370 0.261623 0.244249 -0.289032 0.911582 
0.436632 0.391108 0.129309 0.541867 0.198057 -0.763511 
1.248042 0.130651 -0.003897 0.317172 -0.098763 0.929914 
1.859997 1.466958 -0.189155 0.102311 0.047025 -0.991126 
2.787126 0.370252 -0.192760 0.095562 -0.202921 -0.972133 
1.978778 1.030938 -0.214823 0.040605 -0.022040 -0.967804 
2.498218 0.795382 -0.280066 -0.014343 -0.126090 -0.985724 
0.729116 -0.746892 0.054397 0.287161 0.000164 0.951330 
1.552978 1.460651 -0.082484 0.249995 0.223546 0.932741 
-0.510684 0.275615 0.097978 -0.391908 0.065581 -0.844295 
-2.131098 1.039102 -0.755178 0.727271 -0.149122 -0.656461 
-0.586687 -0.038994 0.042132 -0.292562 0.052363 -0.868772 
-1.921041 0.824930 -0.513728 0.544825 0.043843 -0.826550 
2.480154 0.559639 -0.243796 0.066717 -0.108131 -0.986068 
-1.149792 0.800471 0.101277 -0.501043 -0.121024 0.829606 
-1.402080 -0.494092 -0.153084 -0.295191 -0.171305 0.937948 
0.065113 0.045118 0.315270 0.098195 -0.188381 0.974146 
1.384724 1.248434 -0.109885 -0.434229 0.071286 -0.879068 
-0.273488 -0.100328 -0.084269 -0.660287 -0.099780 -0.720324 
-2.548975 0.538469 -1.009043 0.585292 -0.210439 -0.780227 
-2.600479 0.311918 -0.972123 -0.599323 0.218920 0.768003 
2.963467 1.389578 -0.233019 -0.235402 -0.142336 0.949280 
-1.132394 -0.479294 -0.052589 -0.299450 -0.127369 0.939950 
1.254999 0.516173 -0.024692 -0.171017 -0.072856 -0.978159 
-2.156715 1.452522 -0.731760 -0.693334 0.061840 0.662455 
-1.829327 1.007967 -0.335634 -0.709855 -0.016917 0.649880 
1.444513 -0.336745 -0.135080 0.218503 -0.111370 0.960101 
-0.344488 0.784645 0.198432 -0.890783 0.380880 -0.231544 
-0.046956 0.613368 -0.171803 -0.429470 0.384285 -0.793193 
2.981160 1.175085 -0.220552 -0.178719 0.051879 0.972488 
-0.421902 -0.057180 0.212929 -0.311874 -0.243429 0.896782 
2.056120 -0.258370 -0.034253 0.197653 -0.240757 -0.939031 
-0.139286 -0.557658 0.249345 -0.192690 -0.192069 0.960965 
1.898955 1.219972 -0.195073 -0.005634 -0.156871 -0.961135 
3.111913 1.190994 -0.179415 -0.246428 -0.021508 0.962181 
0.345664 0.360689 0.050540 0.643746 0.131194 -0.742657 
0.321019 0.204588 -0.005355 0.662174 0.040486 -0.730589 
0.091964 0.291273 0.400028 0.059104 -0.333199 0.937033 
-2.552508 1.285217 -1.129925 0.468817 0.036212 -0.876425 
0.405441 -1.206102 0.158775 0.580867 0.344158 0.706874 
0.888735 0.747895 0.155917 -0.561469 0.218400 -0.775445 
2.529399 0.386187 -0.207836 0.137267 -0.137647 -0.976409 
-1.954368 0.269328 -0.378311 0.579625 -0.175459 -0.782148 
-2.393741 0.152452 -0.725041 -0.718610 0.325224 0.557693 
3.105270 0.487524 -0.115449 0.214541 -0.135755 -0.961607 
0.214996 1.121058 0.295852 0.370704 0.376329 0.723324 
-0.389691 0.539697 0.109303 -0.691304 0.275268 -0.661799 
-1.635978 1.439185 -0.108056 -0.836829 -0.048270 0.540065 
2.547042 0.317601 -0.192100 0.150827 -0.151080 -0.973460 
1.428504 -0.530523 -0.172393 -0.288303 0.129917 -0.948107 
-3.107438 1.350286 -1.374062 -0.378998 0.007742 0.923649 
2.686281 1.557137 -0.250559 -0.011615 0.185492 0.968453 
-0.425912 -1.418393 0.154585 0.090986 -0.221627 -0.967528 
-2.072272 0.653701 -0.582580 -0.835932 0.311339 0.421751 
-1.906590 0.907487 -0.409857 -0.726305 0.036355 0.655331 
0.220898 1.075364 0.151727 0.808111 0.364774 -0.405695 
0.062246 -0.020650 -0.250048 0.511674 -0.084230 -0.828518 
1.278814 1.057311 0.036873 0.388680 0.014255 0.909360 
-0.467754 -0.288112 0.112603 -0.427852 -0.146033 0.881851 
2.087072 0.363061 -0.194033 -0.282633 0.020205 0.944741 
-1.580208 1.116853 -0.141863 0.407256 -0.205190 -0.883071 
-2.686195 0.645585 -1.103918 -0.538567 0.129506 0.820579 
-0.984788 -0.736070 -0.044335 -0.280164 -0.080059 0.947122 
0.517571 -0.202557 0.016815 0.331296 0.024798 -0.882779 
-2.166082 0.644172 -0.718250 0.556439 -0.105734 -0.813275 
0.335266 -0.695295 0.166343 0.435141 -0.050004 0.885836 
1.505004 0.849859 -0.084802 0.393148 -0.139414 0.865840 
-2.127548 1.439082 -0.795679 0.659910 0.008178 -0.744934 
2.624620 1.371367 -0.284436 0.033282 0.035394 -0.995011 
0.263779 -0.552639 0.212279 0.485544 -0.113521 0.862790 
0.184690 0.819123 0.474249 0.350280 0.074601 0.908840 
0.625017 -0.901281 0.066090 0.277159 0.032292 0.955356 
-1.334860 0.689359 -0.061356 0.308737 -0.111305 -0.928254 
-1.622085 1.450346 -0.176903 0.541384 -0.006696 -0.839732 
2.325058 -0.250662 -0.032963 0.053488 -0.261574 -0.957287 
-1.452963 1.311564 -0.049698 0.776346 0.503247 -0.280382 
-1.553289 0.636674 -0.130125 -0.617676 -0.078669 0.759051 
3.045418 1.198176 -0.202407 -0.216929 0.000926 0.972613 
2.384880 0.668283 -0.252262 0.125796 0.134554 0.957327 
0.653001 -0.769314 0.079145 0.283776 0.017389 0.953171 
-1.556161 1.569818 -0.073621 -0.850484 0.326396 0.247625 
0.355610 -0.265060 0.015095 0.484150 0.007237 -0.859852 
-0.630227 0.678933 0.301732 0.075328 0.442111 -0.748318 
-0.332142 0.458313 0.418568 -0.127333 -0.209612 0.967484 
0.271338 -0.622024 0.195434 0.441933 -0.103694 0.872722 
-2.801717 1.156083 -1.232526 0.420463 0.021876 -0.901666 
-0.055029 0.521479 -0.215606 -0.524372 0.293952 -0.783730 
-2.127814 0.868654 -0.708933 -0.743532 0.159465 0.638022 
-0.604235 0.260237 0.287816 -0.226416 -0.331680 0.906105 
-0.777511 0.571256 0.232745 -0.227996 0.190860 0.923071 
0.942671 0.675135 0.117157 -0.582952 0.345881 -0.714601 
-2.179606 -0.235230 -0.389120 0.512692 -0.216618 -0.828259 
2.854527 1.030976 -0.255758 0.307612 0.146879 -0.938990 
0.366647 -0.783751 0.150082 0.384211 -0.011739 0.908543 
2.369549 1.482216 -0.222638 0.115969 -0.005881 0.967794 
-1.825784 0.852023 -0.329852 -0.593504 -0.131277 0.772055 
0.414005 0.212833 0.087620 0.520496 0.082783 -0.818157 
-2.053215 1.337603 -0.688225 0.618898 0.097893 -0.773825 
-1.729957 0.188738 -0.248256 -0.508222 0.049720 0.844883 
0.988718 0.689513 0.060536 -0.468722 0.191568 -0.835329 
1.184871 0.005065 0.013456 0.307345 -0.114532 0.940568 
-2.117114 0.952928 -0.716272 -0.743485 0.113296 0.655679 
-1.994214 1.533297 -0.633555 0.630648 -0.003380 -0.770419 
-0.189599 0.188953 -0.195121 -0.685890 0.012108 -0.701447 
-0.082013 -0.678315 0.234875 -0.256547 -0.133638 0.946354 
-0.007520 -0.668926 0.261051 -0.479036 -0.090155 0.865219 
-1.718014 -0.416970 -0.207984 -0.319886 -0.040534 0.944323 
-2.121970 0.798184 -0.719479 0.593912 -0.043293 -0.787182 
-2.596942 0.391001 -0.999637 0.569232 -0.215959 -0.791902 
-1.859582 -0.083274 -0.276180 -0.446438 0.054893 0.879113 
-1.631743 0.892999 -0.143475 -0.649274 -0.138161 0.718307 
-2.241608 0.712506 -0.812015 0.609264 -0.144755 -0.772649 
1.451943 0.996972 -0.108404 -0.120110 -0.178457 -0.973410 
-2.397351 0.050448 -0.686127 -0.605998 0.212091 0.745420 
1.902074 -0.194476 -0.053957 0.237542 -0.229735 -0.928784 
0.302547 0.182463 0.321704 0.142370 -0.313521 0.938128 
1.336151 -0.234041 -0.090757 -0.192192 0.081893 -0.972627 
-1.412133 1.126316 -0.001236 -0.571798 -0.160777 0.772385 
2.066938 1.412204 -0.168761 0.230028 -0.040112 0.925946 
-1.271879 0.869978 -0.018532 0.276475 -0.128370 -0.942337 
-1.850321 0.745417 -0.397271 0.690914 -0.253350 -0.607946 
0.306927 0.020860 -0.005986 0.615049 -0.031279 -0.767591 
2.509300 0.944241 -0.269550 -0.000397 0.010554 0.989868 
-2.311511 1.376744 -0.966287 0.615016 0.040677 -0.776986 
-2.352997 -0.113506 -0.589326 -0.572033 0.212096 0.780399 
-1.136230 -0.665870 -0.089614 -0.282893 -0.122786 0.943559 
-0.824061 -0.117705 0.087715 -0.361797 -0.150532 0.912098 
-1.364290 0.944138 -0.055483 0.315668 -0.151418 -0.924576 
-0.855570 -0.827112 -0.019527 0.084853 -0.024408 -0.967541 
0.187976 1.028755 0.075697 0.625268 0.260264 -0.734412 
-1.429700 0.043568 -0.127397 0.357133 -0.004404 -0.914016 
-0.440980 0.662927 0.324724 -0.467408 0.803414 -0.238074 
0.084864 1.256685 0.335671 0.116616 0.909975 0.394417 
-2.145893 0.143665 -0.499605 -0.456748 0.090938 0.878733 
-2.086239 0.287873 -0.509731 0.676164 -0.299584 -0.636110 
-0.315493 0.180980 0.003140 -0.666260 0.026419 -0.729241 
0.845047 0.015134 0.034711 0.040574 0.074184 -0.919117 
0.559483 -0.041295 0.040170 0.320882 0.051395 -0.872793 
0.129963 -1.041326 0.157222 -0.102593 -0.475426 -0.869726 
-0.242063 -0.979188 0.113506 0.210240 -0.360834 -0.900070 
0.043342 -0.137804 -0.233647 0.460055 -0.178162 -0.835055 
2.181700 0.593634 -0.216680 0.332014 0.200128 0.896018 
2.385584 0.984682 -0.263480 0.088316 0.014972 0.993815 
0.168091 0.293425 0.402111 0.117239 -0.319123 0.939243 
-0.266959 -1.213939 0.178498 0.406689 -0.326674 -0.831902 
-0.072549 1.147436 0.464307 0.200317 0.425110 0.860586 
1.453321 1.273490 -0.118852 -0.106756 -0.223977 -0.966979 
1.536829 0.885503 -0.137149 -0.115257 -0.164095 -0.976385 
0.063631 0.113391 -0.275893 0.551764 0.004473 -0.822873 
3.151424 1.357734 -0.168805 -0.313532 -0.187588 0.922001 
3.012692 0.725564 -0.171534 0.125294 -0.223177 -0.948595 
0.408957 -0.166534 0.171371 0.358967 -0.198166 0.893001 
-0.235331 0.590746 -0.105110 -0.615874 0.268426 -0.710168 
1.078024 -0.761128 -0.059399 0.259623 0.002401 0.943818 
-0.047258 1.230069 0.089868 -0.565170 0.192400 -0.796124 
-0.006670 -1.063331 0.225758 -0.625404 0.102409 0.752028 
-2.113353 0.213364 -0.505777 0.664021 -0.303556 -0.645532 
-1.685676 0.942993 -0.165415 -0.655482 -0.139408 0.710343 
-0.683382 -0.652504 0.068362 0.058084 -0.069547 -0.976218 
-0.117832 0.125554 0.329741 -0.098434 -0.253000 0.959444 
-1.772616 1.449166 -0.361464 0.576982 -0.003499 -0.811331 
0.630315 0.203032 0.077821 0.265621 0.074141 -0.874833 
2.751887 1.451075 -0.261531 0.110409 0.053386 -0.985713 
0.987867 0.202091 0.065515 -0.170611 0.052097 -0.975743 
1.846456 0.427369 -0.222131 -0.165707 -0.113205 -0.972744 
1.982381 0.213138 -0.159177 -0.207263 0.072659 0.950318 
-1.913370 1.572470 -0.545380 0.703682 0.077505 -0.704155 
1.300017 1.241102 -0.012569 -0.099749 0.338226 0.818576 
0.425614 0.406010 0.383362 0.147598 -0.227491 0.957966 
2.075614 0.230381 -0.158493 -0.331771 0.056586 0.936396 
1.812233 1.416901 -0.149359 0.340081 -0.007755 0.921635 
-2.303138 1.691157 -0.957645 -0.615317 0.279107 0.721283 
3.304736 1.161124 -0.115968 0.319783 -0.012719 -0.946028 
0.148553 0.710754 -0.079480 0.445483 0.539437 -0.674448 
1.264131 0.201855 -0.006402 0.334879 -0.097977 0.917896 
-0.499268 0.335372 0.359658 -0.164460 -0.276405 0.929380 
-3.090151 1.601307 -1.361680 0.359037 0.024024 -0.930020 
-0.258739 0.844095 0.412787 -0.677203 0.237865 0.634971 
-0.138473 0.229885 0.374892 -0.103445 -0.296521 0.946354 
-1.546770 0.399910 -0.177843 0.413504 -0.091805 -0.882857 
-2.397003 0.542819 -0.884270 0.565742 -0.169437 -0.801262 
-1.516583 1.288413 -0.022765 -0.330789 0.063385 0.920142 
-0.758699 0.072810 0.052051 -0.131283 0.074825 -0.888711 
1.498939 1.423238 -0.162172 -0.523726 0.161459 -0.812407 
-1.161373 1.043856 0.072167 0.615843 0.295311 -0.637597 
-2.686590 1.416928 -1.204970 -0.487133 0.005946 0.864996 
1.591506 -0.097029 -0.160388 0.129820 -0.038600 0.984147 
1.528716 1.283146 -0.098175 0.457502 -0.269841 0.834247 
-1.230442 1.082669 0.038074 0.677059 0.360568 -0.533302 
0.177374 -0.163241 0.288088 0.265402 -0.124227 0.926156 
0.272818 -0.595822 -0.010364 0.189437 -0.289523 -0.879593 
0.588218 -0.197302 0.014089 0.260201 0.029112 -0.895194 
-2.355931 1.173609 -0.969692 -0.588082 -0.035088 0.789552 
-0.959865 -0.296073 0.026283 0.176888 0.031116 -0.969625 
0.305131 -0.414930 0.213358 0.624293 -0.126752 0.767233 
1.109944 -0.264827 -0.003198 0.320158 -0.111643 0.937612 
1.523354 -0.181596 -0.139783 0.142789 -0.063240 0.980016 
2.556512 0.531216 -0.236586 0.058723 -0.122557 -0.986071 
-2.113304 1.342710 -0.762760 0.634297 0.094507 -0.761743 
-0.439351 0.551772 0.187690 -0.613853 0.355259 -0.656787 
-0.038158 -0.212283 0.305105 -0.128058 -0.038554 0.984138 
0.524354 0.290017 0.097197 0.357205 0.082078 -0.860202 
-2.405270 -0.161730 -0.618170 -0.599031 0.238471 0.757161 
-1.448929 0.218319 -0.114240 -0.480614 -0.038081 0.853587 
1.310631 1.122273 0.019118 0.197398 0.141817 0.901382 
-1.796337 -0.023686 -0.257524 -0.448846 0.038173 0.878065 
2.506705 1.417595 -0.227801 0.037649 -0.010445 0.969754 
-1.249251 -0.577341 -0.122049 0.219469 0.115778 -0.956385 
-2.508174 0.125300 -0.818272 -0.652579 0.268727 0.682144 
1.318701 0.682678 -0.003718 0.477006 -0.115600 0.829259 
2.589335 0.625777 -0.248391 0.026922 -0.142823 -0.983357 
0.343056 -1.150316 0.120056 -0.036614 -0.144139 -0.984248 
-0.060620 -0.364367 0.301294 -0.127847 -0.027097 0.987883 
0.648491 -1.023587 0.089461 0.172804 0.228020 0.955047 
-0.189990 0.734464 0.471684 -0.280004 0.204282 0.911265 
1.162549 -0.618058 -0.086324 0.306484 -0.098007 0.940834 
-1.942041 -0.241854 -0.289292 0.419861 -0.108312 -0.888213 
-0.834461 -0.892521 0.008709 0.118742 -0.135434 -0.952808 
-2.444729 -0.032824 -0.704474 0.660088 -0.303447 -0.678831 
0.462916 0.334033 0.354648 0.173897 -0.298914 0.933217 
-1.372545 0.500385 -0.090065 0.333581 -0.082908 -0.918450 
-1.953468 0.197315 -0.348984 0.549602 -0.154833 -0.819353 
-2.764935 0.591106 -1.136926 -0.537238 0.164965 0.820784 
-1.309026 1.161070 0.006561 0.714417 0.412538 -0.442036 
-0.911644 0.070285 0.050289 0.060363 0.071679 -0.935680 
0.293803 -1.186775 0.156939 -0.443173 -0.289394 -0.830793 
3.247422 1.360214 -0.136943 0.310294 0.019979 -0.948067 
-0.429356 -0.827642 0.086592 -0.126422 -0.124134 -0.958614 
-0.183556 -0.275638 0.278970 -0.318401 -0.071504 0.914607 
-1.714860 0.710198 -0.234984 0.476721 -0.165799 -0.852785 
-0.204923 0.444051 0.445709 -0.130462 -0.287126 0.946151 
-0.365365 -0.201099 0.026733 -0.496190 0.021303 -0.845425 
-1.023799 0.766015 0.133901 -0.175734 0.161692 0.965343 
-0.924812 -0.440041 0.035283 -0.307668 -0.072879 0.942172 
0.829449 -0.043759 0.107563 0.339148 -0.170962 0.915539 
-0.169130 1.237566 0.473647 0.442364 0.700841 0.487390 
-1.755214 0.087906 -0.249992 -0.479132 0.042780 0.861072 
1.277740 -0.278924 -0.069130 0.324860 -0.145216 0.934328 
-0.338013 -0.563706 0.145777 -0.468424 -0.088420 0.872707 
-0.652929 0.206408 0.260892 -0.222962 -0.310415 0.914674 
-2.817343 1.475662 -1.264947 -0.422027 -0.101773 0.891158 
0.754211 0.441160 0.288508 0.363563 -0.055384 0.902908 
2.699619 0.656605 -0.237994 0.032066 -0.215284 -0.967423 
-1.298531 0.463752 -0.056603 0.304127 -0.063043 -0.932399 
-0.112035 -0.295080 0.296790 -0.201483 -0.015181 0.975718 
-2.175334 1.260075 -0.815714 -0.729169 0.016357 0.674784 
-2.006624 0.173738 -0.389677 0.575832 -0.196323 -0.776126 
-1.304063 0.543542 -0.012962 -0.579463 -0.135684 0.782641 
2.326462 1.229189 -0.242925 0.150478 0.066999 0.971793 
0.406510 0.521093 0.161252 0.665656 0.309535 -0.673992 
1.012696 -0.269515 0.032712 0.316874 -0.091294 0.939672 
-0.482322 0.089663 0.260067 -0.264759 -0.295756 0.900027 
0.138426 1.130318 0.345647 0.841977 0.112191 0.203561 
-0.145269 -0.002738 -0.205492 -0.597081 -0.050296 -0.779408 
-0.815467 -0.142001 0.018946 -0.024499 0.052470 -0.927105 
-1.012989 -0.173023 0.051995 -0.329219 -0.104559 0.935656 
1.490185 1.613189 -0.107662 -0.669276 -0.239478 0.605426 
2.795277 1.085533 -0.266900 0.264236 0.144393 -0.948034 
0.738731 0.619657 0.225018 -0.311578 0.386591 -0.767396 
